# .PCD v.7 - Point Cloud Data file format
VERSION .7
FIELDS x y z
SIZE 4 4 4
TYPE F F F
COUNT 1 1 1
WIDTH 1571
HEIGHT 1
VIEWPOINT 0 0 0 1 0 0 0
POINTS 1571
DATA ascii
-1.41501 -83.347 54.811501
-1.63726 -83.261398 54.806801
-1.8559099 -83.1688 54.799
-1.41694 -83.539497 54.410702
-1.6438299 -83.4589 54.410801
-0.62271798 -84.075203 53.643902
-0.89608997 -84.041801 53.631199
-0.61770099 -84.292198 53.202801
-0.87973899 -84.255997 53.199001
-0.84598899 -85.353203 51.144699
-0.82540798 -85.423302 50.9244
-0.61440402 -85.405502 51.101601
-0.60268599 -85.4702 50.880402
-1.08421 -85.267303 51.192001
-1.31829 -85.153603 51.244801
-1.06541 -85.348396 50.973701
-1.3041199 -85.246803 51.029999
-2.4653599 -83.508698 52.901501
-2.65611 -83.317299 52.797401
-3.3822401 -83.018204 52.0923
-3.4126501 -83.186996 51.680599
-3.45928 -83.360397 51.2061
-3.21665 -83.105202 52.171902
-3.22419 -83.299004 51.741699
-3.1951599 -83.512497 51.318901
-3.0606401 -83.198997 52.239498
-3.05177 -83.392998 51.828602
-3.0006499 -83.606201 51.442001
-5.3888102 -81.044197 54.207699
-5.6278 -80.958099 53.915699
-5.75284 -80.893799 53.578999
-5.1720099 -81.184303 53.867901
-5.3326101 -81.148697 53.5555
-5.00108 -81.325699 53.5793
-5.4542098 -81.087898 53.1534
-5.2389898 -81.237198 52.755199
-5.1243401 -81.313698 53.207802
-4.8750401 -81.532097 52.866798
-4.8089099 -81.507103 53.258301
-4.5895 -81.734001 52.940899
-6.3211098 -80.586899 54.947899
-6.4066901 -80.5457 54.7687
-5.8709302 -80.814201 54.6828
-5.9273 -80.790802 54.4533
-5.38241 -81.016502 54.526699
-4.3338699 -81.337997 54.3918
-4.8453102 -81.2118 54.283699
-4.2720699 -81.481102 54.106098
-4.7532902 -81.334801 53.982101
-4.1909599 -81.6642 53.774601
-4.6321802 -81.496498 53.655899
-4.0948901 -81.8694 53.439999
-4.0144901 -82.07 53.117599
-3.68907 -81.810699 53.967098
-3.6609199 -82.023499 53.637901
-3.65289 -82.227402 53.305302
-3.21141 -81.925697 54.228001
-3.27527 -82.147697 53.859901
-3.32335 -82.357498 53.5145
-3.1056099 -82.456398 53.664101
-2.94203 -82.546204 53.785
-3.0464599 -82.2472 54.0186
-2.8979199 -82.331703 54.1619
-2.9877 -82.050697 54.337799
-2.8658199 -82.129997 54.471802
-2.8754499 -81.8974 54.7589
-2.9877999 -81.895401 54.542
-2.8641801 -81.9907 54.645901
-2.9061799 -81.814499 54.840099
-2.9489601 -81.727097 54.924702
-3.04603 -81.785896 54.6422
-3.1071899 -81.681999 54.757801
-3.30707 -81.7341 54.4417
-3.38642 -81.599899 54.622398
-4.6874399 -75.908096 47.5042
-4.2761998 -76.308601 47.254101
-3.8754301 -76.781601 47.021
-1.9347399 -78.378098 45.735401
-1.62233 -78.3078 45.584702
-1.27005 -78.287697 45.455002
-1.87194 -78.894798 45.684502
-1.61291 -78.873299 45.5345
-1.28671 -78.921898 45.397099
-1.83043 -79.2612 45.6502
-1.63763 -79.370598 45.532101
-0.86953002 -78.282402 45.351398
-0.88724202 -78.975899 45.290699
-2.1690199 -77.098503 45.8923
-1.75148 -76.984299 45.758202
-1.32173 -76.918098 45.660099
-2.03915 -77.772301 45.799599
-1.67507 -77.676804 45.659199
-1.28582 -77.622398 45.546001
-1.01129 -70.899399 45.7729
-1.06926 -69.692299 45.681198
-2.9308701 -77.5513 46.331501
-3.2147901 -76.887901 46.506599
-2.5708399 -77.282799 46.083698
-2.7774601 -76.581596 46.231098
-2.3013301 -76.370499 46.0205
-1.82918 -76.2397 45.878601
-1.90362 -75.474602 45.986
-1.3623101 -76.167503 45.785702
-1.40276 -75.396103 45.886799
-0.90831399 -75.362 45.832199
-0.89340401 -76.133797 45.7225
-0.879125 -76.880096 45.5812
-0.96986997 -83.055801 56.159
-0.93873101 -83.178497 55.701599
-0.63770998 -83.115898 56.178799
-0.62898201 -83.237602 55.7187
-0.66109997 -83.016602 56.658401
-1.03115 -82.961899 56.632801
-0.913845 -83.856201 54.029301
-0.63001001 -83.889 54.050201
-2.71369 -82.107101 55.5051
-2.58093 -82.308998 55.5881
-2.39013 -82.5084 55.628399
-2.0927 -82.855301 55.1931
-2.1677401 -82.667198 55.6404
-1.9338 -82.791298 55.641899
-2.3067 -82.520897 56.101601
-2.0589199 -82.6511 56.1007
-6.09694 -81.445198 58.5765
-6.0255899 -81.447899 58.242901
-5.6747599 -81.675697 58.555801
-5.6446099 -81.639297 58.221901
-2.7476699 -81.963799 55.383701
-2.76034 -81.881401 55.2295
-2.7047801 -82.049797 55.083099
-2.73104 -81.948303 55.091499
-1.98514 -84.776398 51.071701
-2.0776 -84.575203 51.285
-2.05463 -84.653999 50.991798
-2.17606 -84.469101 51.150299
-2.3159499 -84.255798 51.3232
-3.0283301 -82.866699 53.013901
-3.1918199 -82.768997 52.938099
-3.3891301 -82.6744 52.820099
-3.05197 -83.0242 52.632702
-3.2086401 -82.927498 52.567299
-3.3910601 -82.838303 52.465401
-3.8531001 -82.803703 51.779999
-3.6865499 -83.057999 51.498501
-3.5973499 -82.937698 51.9324
-5.6848998 -80.760902 51.036301
-5.4473801 -81.096298 50.7146
-5.2330899 -81.452202 50.3694
-5.4699898 -81.006203 51.369301
-5.2395902 -81.343498 51.055
-5.0426698 -81.702698 50.714699
-5.2203498 -81.256798 51.671501
-4.9997001 -81.590302 51.3573
-4.8183899 -81.945801 51.017101
-4.5897398 -82.183899 51.259201
-4.3541198 -82.415604 51.450901
-4.75845 -81.843498 51.607201
-4.5123301 -82.1007 51.800201
-4.9622898 -81.524399 51.93
-4.69525 -81.803398 52.127399
-5.4709501 -80.975403 51.952202
-5.73487 -80.738503 52.1861
-5.7196002 -80.718697 51.6507
-5.97087 -80.482803 51.9007
-5.9276099 -80.470703 51.325199
-6.1628299 -80.236702 51.596199
-6.3091202 -79.978203 51.273399
-6.41085 -79.664803 50.9072
-6.0782099 -80.215797 50.979698
-6.1568799 -79.953003 50.599201
-5.8372102 -80.508499 50.680801
-5.9201598 -80.2472 50.296902
-6.8726301 -79.473602 51.714001
-6.6343598 -79.587303 51.361301
-6.7537398 -79.695 51.913101
-6.5235901 -79.827599 51.599998
-6.6128802 -79.908302 52.122898
-6.3851299 -80.059097 51.865002
-5.0490398 -81.807602 50.014702
-4.8530798 -82.166199 49.657101
-4.88064 -82.057701 50.358398
-4.70681 -82.414398 49.995098
-4.6730199 -82.292198 50.6576
-4.5160999 -82.637901 50.2901
-5.59199 -80.8405 50.350498
-5.6753402 -80.570099 49.963902
-5.3611598 -81.188499 50.000999
-5.4344602 -80.9048 49.616199
-5.2094402 -81.230904 49.277199
-4.9744902 -81.5532 48.9445
-5.1552401 -81.533401 49.6502
-4.9393101 -81.878502 49.300999
-6.5710502 -79.351097 50.887901
-6.7346802 -79.342598 51.219398
-6.9695401 -79.232498 51.5331
-4.2079601 -82.733101 51.087601
-4.0452499 -83.053497 50.722801
-4.1051502 -82.632698 51.612
-3.9430201 -82.9282 51.271702
-3.7570801 -83.236 50.9268
-2.2901399 -84.2808 50.719799
-2.53053 -84.123001 50.973202
-2.41905 -84.201202 50.616901
-2.68593 -84.040298 50.8508
-5.05725 -80.239601 48.264999
-4.7779899 -80.489899 48.040199
-5.17871 -80.562897 48.5625
-4.90727 -80.835503 48.297401
-5.9344802 -79.981102 49.885201
-5.7044301 -80.282898 49.559299
-5.4629798 -80.597298 49.2234
-5.2230601 -80.900902 48.9067
-4.96808 -81.197899 48.603901
-1.9482 -83.678703 47.910999
-1.9103301 -83.930397 48.172298
-2.61901 -83.179001 47.714001
-2.59391 -83.500198 48.0014
-2.54374 -83.777496 48.300201
-3.25296 -82.902802 47.847401
-3.22984 -83.250504 48.159698
-3.17081 -83.545197 48.481201
-3.7484701 -83.244003 48.7071
-4.2330599 -82.898499 48.9814
-3.81287 -82.936203 48.373001
-4.30158 -82.586601 48.6395
-3.83412 -82.572502 48.049801
-4.3227601 -82.221199 48.310001
-2.6122301 -82.836502 47.472401
-3.2288101 -82.527496 47.5802
-3.8017499 -82.1791 47.771702
-4.2916899 -81.826401 48.021999
-9.2784796 -78.386902 55.610001
-9.1270599 -78.4599 55.041401
-8.9157305 -78.5439 54.484699
-9.1220598 -78.6092 55.6656
-8.9893904 -78.675598 55.1147
-8.7860498 -78.754097 54.5476
-8.9585304 -78.817299 55.7234
-8.8371401 -78.885696 55.194599
-8.6448202 -78.964401 54.640301
-9.7504101 -77.7034 56.104
-9.6056995 -77.866997 55.495701
-9.6140099 -77.925903 56.743198
-9.5510302 -78.027802 56.148899
-9.4390297 -78.134201 55.551998
-9.36654 -78.315399 56.168301
-6.8301201 -80.967003 58.473701
-6.6760101 -81.047501 58.179901
-6.5842299 -81.130699 58.914799
-6.4811902 -81.207397 58.548599
-6.3675499 -81.249397 58.230099
-7.4821301 -80.449097 58.2453
-7.3156099 -80.541496 57.973598
-7.1570201 -80.720703 58.360199
-6.9731798 -80.830002 58.088902
-2.56826 -84.166397 50.444901
-2.8542099 -83.984596 50.6782
-2.7460999 -84.139198 50.225899
-3.05427 -83.9235 50.472301
-2.9309599 -81.642799 55.2146
-3.0093 -81.625099 55.008202
-2.85954 -81.752403 55.1334
-2.81178 -81.841103 55.0397
-2.7832301 -81.9254 54.943199
-3.1769199 -81.580803 54.862499
-3.4642501 -81.496002 54.7593
-8.0493498 -79.744797 57.2719
-7.7767801 -79.926201 57.231499
-8.0374699 -79.776901 57.494999
-7.7364602 -80.007004 57.430599
-7.9832902 -79.850899 57.699902
-7.6405902 -80.138901 57.612801
-4.8553801 -81.791702 57.822899
-5.2172298 -81.709099 57.930599
-5.5855398 -81.577499 57.988602
-5.9366798 -81.417801 58.006901
-6.2485199 -81.251503 57.997799
-6.5261202 -81.083199 57.961201
-7.7404699 -80.184898 58.061298
-7.0206599 -80.710899 57.8032
-7.21771 -80.504204 57.680199
-7.49333 -80.327698 57.7785
-7.3776302 -80.3078 57.539001
-7.4860401 -80.153999 57.374802
-7.5363002 -80.051697 57.196098
-7.5292902 -80.001602 57.009899
-7.76507 -79.885498 57.022598
-7.48841 -79.995399 56.801399
-7.7191701 -79.885201 56.789001
-8.0636301 -79.684303 56.028301
-7.8013701 -79.857399 56.122299
-7.55865 -79.988503 56.208099
-8.1749296 -79.603996 56.4007
-7.9074202 -79.782799 56.461399
-7.6539502 -79.9244 56.5154
-8.2505503 -79.548203 56.739899
-7.9804902 -79.7332 56.765598
-6.6981401 -80.363297 54.347698
-6.5342102 -80.470299 54.5597
-7.1505599 -80.1371 54.706799
-6.9933701 -80.245796 54.9478
-6.8348699 -80.336502 55.135601
-7.6195402 -79.898804 55.080399
-7.38622 -80.061897 55.347401
-7.1796398 -80.175903 55.516201
-7.4342799 -80.022202 56.554699
-7.35396 -80.072098 56.275398
-7.9016399 -79.772697 55.609001
-7.6436701 -79.942398 55.752201
-7.4123602 -80.066498 55.875
-7.22469 -80.140404 55.9716
-7.01756 -80.241402 55.6399
-4.8821802 -81.141296 54.527401
-4.3804202 -81.240501 54.5966
-3.8213899 -81.4748 54.5037
-3.8858099 -81.368797 54.674999
-3.75354 -81.621696 54.260101
-6.7112799 -80.3908 55.283901
-6.7806001 -80.9086 57.8951
-3.4382801 -80.5867 55.446201
-3.32617 -80.633202 55.5564
-1.2663701 -84.331001 48.541599
-1.8092099 -84.290703 48.6614
-1.29343 -84.184799 48.324501
-1.86182 -84.134399 48.425598
-1.32239 -84.000198 48.1054
-1.34526 -83.785599 47.897499
-0.87409598 -83.828796 47.9398
-2.4006801 -84.158501 48.830502
-2.9882901 -83.944702 49.0429
-2.47772 -83.993698 48.578999
-3.0895801 -83.770401 48.778198
-0.85132802 -84.402298 48.687801
-1.2519 -84.434799 48.752201
-1.76017 -84.403397 48.882401
-3.52528 -83.667198 49.295799
-3.9698999 -83.344002 49.591301
-3.65259 -83.480003 49.019199
-4.1221199 -83.143097 49.305
-2.31552 -84.286102 49.060398
-2.8659201 -84.090202 49.279202
-3.1723001 -83.970703 49.7607
-3.5492001 -83.689499 50.045898
-3.3645899 -83.831703 49.535801
-3.7774899 -83.526398 49.8311
-11.3842 -71.499001 62.821899
-11.4498 -71.722 62.4678
-3.5858901 -66.354897 45.969299
-2.5394199 -66.808296 45.631802
-6.6739302 -81.013603 59.294201
-2.0687201 -83.0597 54.779598
-1.5572701 -82.862503 56.121498
-1.81287 -82.760597 56.1077
-1.46609 -82.994698 55.662899
-1.70187 -82.8965 55.648998
-1.86664 -84.888802 51.122501
-1.70917 -84.999802 51.132099
-1.9209599 -84.722099 51.342602
-1.73791 -84.872101 51.344398
-1.52062 -85.124298 51.0924
-1.53672 -85.018898 51.303299
-1.55481 -84.841599 51.644402
-1.6059999 -84.302696 52.677299
-1.5787801 -84.582802 52.137501
-1.37587 -84.137604 53.176701
-1.39951 -83.923897 53.602798
-1.63162 -84.061203 53.1553
-1.64834 -83.851898 53.5853
-3.9639101 -82.566399 52.1035
-4.0811501 -82.310402 52.4627
-4.2500901 -82.352303 51.946602
-4.4089198 -82.077499 52.27
-4.4502702 -82.517502 50.8941
-4.2972598 -82.8507 50.524502
-2.9563799 -84.075401 49.992599
-3.2962999 -83.824799 50.259102
-9.74648 -77.617599 55.373501
-9.9426298 -77.387901 55.945099
-8.9039202 -78.102501 53.610199
-8.8316002 -78.335098 53.850101
-3.6877301 -82.543602 52.629902
-3.6547 -82.729698 52.2882
-4.35853 -81.996399 52.680801
-4.6239901 -81.798302 52.561901
-4.9201298 -81.530296 52.434299
-3.3640699 -82.524696 53.169201
-3.1564 -82.623299 53.3022
-2.98892 -82.717903 53.3978
-4.0155902 -82.210403 52.811001
-3.6698799 -82.393303 52.9702
-8.1633997 -76.097801 51.073399
-8.11098 -75.414001 50.716499
-8.0426502 -74.695702 50.351002
-7.62186 -75.297203 50.111198
-7.0620298 -77.697197 50.5107
-1.4134099 -83.729202 54.009899
-1.6507699 -83.654297 54.0033
-1.12837 -84.203201 53.190399
-1.1516401 -83.988998 53.617401
-7.2607098 -75.8759 49.942699
-7.1789298 -75.499496 49.672298
-8.2930698 -79.534897 57.045898
-8.0290203 -79.725197 57.032398
-6.2437301 -80.6063 53.961399
-6.0649099 -80.718803 54.205299
-7.1223502 -74.972099 49.4034
-12.377 -71.485397 63.3209
-12.6508 -71.174301 63.261002
-12.6152 -71.324402 63.330601
-12.9925 -71.373001 63.875099
-12.9394 -71.434402 63.895302
-13.2886 -71.491898 64.512703
-13.2226 -71.513298 64.517197
-12.8257 -71.352402 63.849098
-13.1139 -71.412804 64.502502
-12.5285 -71.293404 63.3606
-12.4209 -71.340797 63.310699
-4.0455999 -80.157402 47.516499
-4.2706299 -80.427803 47.6488
-4.4586201 -80.753403 47.821499
-4.5948 -81.117203 48.037998
-2.5188401 -84.040298 51.3451
-2.79831 -83.718201 51.544102
-2.6984301 -83.926102 51.240398
-2.8813801 -83.831802 51.120399
-3.28601 -83.666397 50.782902
-3.5550301 -83.541 50.5732
-3.8345001 -83.377296 50.370701
-4.2937198 -82.993698 49.928101
-4.0829802 -83.192497 50.1651
-4.46663 -82.781097 49.6367
-4.5939002 -82.533302 49.305099
-4.6929798 -81.880997 48.615799
-4.6708698 -81.501297 48.305199
-4.6683402 -82.230598 48.956501
-6.9299598 -73.714203 48.883099
-7.0826602 -74.306999 49.166199
-6.6482 -73.351898 48.581699
-6.3531699 -74.177803 48.502701
-10.8148 -70.689598 63.157799
-10.9341 -71.0849 62.862202
-10.3737 -70.468201 62.873798
-10.5566 -71.028801 62.666698
-9.0358295 -70.565399 63.062599
-8.7481003 -70.1744 63.0182
-9.2916498 -70.147499 62.831799
-9.0280704 -69.766899 62.853001
-9.4905005 -69.7472 62.7318
-9.2440395 -69.490303 62.772202
-8.5659599 -71.320396 63.4809
-8.3111696 -70.857101 63.398499
-8.7759399 -70.9412 63.255501
-8.4888601 -70.539497 63.1926
-9.8895702 -69.706001 63.042702
-9.95121 -69.494797 63.600101
-10.2867 -70.004303 63.193199
-10.3567 -69.797699 63.629398
-10.7224 -70.325897 63.436298
-10.7377 -70.118698 63.735298
-11.1718 -70.477097 63.982498
-11.6288 -70.849602 64.3284
-11.1987 -70.687302 63.767601
-11.6746 -71.055298 64.178398
-11.2648 -70.968697 63.524502
-11.697 -71.2696 63.9562
-8.3116302 -72.067596 64.246696
-8.2340202 -71.429298 63.935902
-8.4350204 -71.736198 63.831902
-8.2465897 -71.155899 63.6632
-7.5086298 -74.069199 66.016403
-7.2969599 -73.912903 66.303101
-7.7793002 -73.626297 65.662598
-7.5158701 -73.448601 66.004501
-8.0307503 -72.946999 65.162201
-7.73665 -72.784698 65.555298
-7.89042 -71.935699 64.953102
-7.9977398 -71.1614 64.387802
-8.1296997 -72.069901 64.595001
-8.1540604 -71.295998 64.087097
-6.8287401 -75.135002 66.593399
-6.7574601 -75.0466 66.845299
-7.0176201 -74.835602 66.479301
-6.9116001 -74.744698 66.742798
-7.16995 -74.577797 66.365601
-7.0344901 -74.482201 66.633904
-6.35677 -75.770699 66.823898
-6.3680401 -75.715103 67.045097
-6.59584 -75.461601 66.711098
-6.5667901 -75.389702 66.951103
-6.1524901 -76.021599 66.925301
-6.2023501 -75.953598 67.151604
-12.2844 -71.708199 64.6446
-12.0627 -71.538597 64.4048
-12.3861 -71.661003 64.793297
-12.0968 -71.388802 64.615196
-12.092 -71.219002 64.757004
-6.9153299 -75.271004 68.661499
-6.8338399 -75.594398 68.570099
-6.7341199 -75.856102 68.447502
-7.3580399 -75.580101 69.327103
-7.2705402 -75.886002 69.226097
-7.1129098 -76.113197 69.029099
-6.6807199 -76.109596 68.400398
-6.3840399 -75.992699 67.860001
-6.4795198 -75.702103 67.933403
-6.2524199 -75.920197 67.467598
-6.3668599 -75.630898 67.540398
-12.3982 -71.352501 65.554604
-12.2316 -71.220901 65.893204
-12.7331 -71.624702 66.280899
-12.5847 -71.574699 66.666801
-12.0635 -71.198997 66.158302
-11.8512 -71.211304 66.421303
-12.4239 -71.5839 66.9459
-12.2266 -71.597801 67.194099
-11.9665 -71.004303 64.969704
-11.4943 -70.6362 64.447601
-11.8036 -70.846603 65.196999
-11.3527 -70.482201 64.605003
-11.1607 -70.356499 64.752998
-10.9449 -70.305702 64.956596
-11.6338 -70.782501 65.419899
-11.4239 -70.775398 65.6679
-11.3268 -71.244003 63.1926
-11.7021 -71.459999 63.588799
-6.9931402 -74.880699 68.715698
-7.4384799 -75.204102 69.398903
-7.1180301 -74.473701 68.736298
-7.5804601 -74.796898 69.423302
-7.1126699 -73.696999 66.581398
-7.0226302 -73.501297 66.840103
-7.2996101 -73.229202 66.329597
-7.2134099 -73.060097 66.628601
-7.4945698 -72.574898 65.944504
-7.4537201 -72.377296 66.338203
-7.5163598 -71.644997 65.7939
-7.6156402 -71.0317 65.327698
-7.6207199 -71.772598 65.367798
-7.7500901 -71.044197 64.822403
-6.8934999 -74.313698 66.962601
-6.7751799 -74.6222 67.055099
-6.6416302 -74.956001 67.1259
-6.8284202 -74.122704 67.423302
-6.6891499 -74.549202 67.479599
-6.5708899 -74.929901 67.504501
-8.2286997 -70.430199 63.823898
-8.2114201 -70.326897 64.331596
-8.3407698 -70.3899 65.059196
-8.4117899 -70.190598 63.643299
-8.4658899 -70.132401 64.143898
-8.6546202 -70.178802 64.7631
-8.6578197 -69.892601 63.474899
-8.7402096 -69.918404 63.962502
-8.9534101 -70.041298 64.557297
-8.6400299 -69.960602 63.153198
-8.3933201 -70.304703 63.319199
-8.2329597 -70.581802 63.510101
-8.1708002 -70.855103 63.743
-8.0995197 -70.695999 64.0354
-7.9536901 -70.586304 64.503197
-7.9039302 -70.635696 65.1026
-9.5419397 -69.394798 62.9426
-9.2460604 -69.301003 62.937099
-9.5448198 -69.242599 63.3311
-9.2639999 -69.235703 63.248699
-10.4257 -69.838898 64.279701
-10.6782 -70.326897 65.214203
-10.1777 -69.861801 64.514099
-9.7406101 -69.458199 63.900902
-10.3837 -70.394501 65.466301
-9.9186497 -69.989197 64.7658
-9.5261602 -69.623596 64.145103
-6.34442 -75.664902 67.262497
-6.4983101 -75.317398 67.204002
-6.4693799 -75.2957 67.533401
-10.6958 -69.975304 64.157204
-10.9839 -70.214897 64.124496
-12.0256 -71.671501 63.978901
-12.2681 -71.8097 64.2584
-8.0653801 -72.858803 67.608299
-8.2119102 -72.911903 67.991501
-8.5040903 -73.018097 68.4431
-8.5485096 -72.368401 67.473602
-8.7178097 -72.479103 67.860901
-8.9937296 -72.664101 68.331802
-9.0321302 -71.870399 67.318497
-9.2272902 -72.041801 67.708199
-9.4613304 -72.286003 68.164597
-8.4433603 -70.8069 65.769302
-8.5464296 -71.416397 66.412102
-8.8367901 -70.523804 65.632896
-8.9477396 -70.964401 66.242401
-9.2842999 -70.729897 66.141098
-8.1676903 -71.476402 66.275497
-8.0469503 -70.972801 65.744102
-7.9328699 -71.5121 66.222801
-7.7434502 -71.269203 65.869202
-7.2282701 -73.532501 67.686401
-7.3502798 -73.606102 68.127502
-7.6617999 -73.7463 68.681099
-7.6072102 -73.240799 67.683197
-7.7447 -73.283897 68.0867
-8.0703297 -73.390503 68.588402
-9.9055405 -71.217003 67.039497
-10.1696 -71.408897 67.401604
-10.4608 -71.660599 67.845299
-10.2218 -71.086899 66.885101
-10.51 -71.234001 67.179497
-10.8528 -71.429398 67.554497
-10.3959 -71.016197 66.7276
-10.6578 -71.067703 66.834999
-11.1178 -71.200104 67.038101
-11.5445 -71.196098 66.724998
-10.7954 -70.789398 66.201599
-11.133 -70.775902 65.952003
-9.49578 -71.476402 67.178299
-9.72575 -71.677696 67.565598
-9.9823704 -71.956398 68.037498
-9.0731497 -70.352997 65.386703
-9.5450401 -70.606697 65.973801
-9.3513699 -70.267403 65.193398
-9.8115196 -70.550499 65.815697
-8.2266798 -74.0084 69.300903
-8.6681995 -73.599899 69.169701
-9.0751801 -73.150597 68.933998
-11.6287 -71.6101 67.828598
-11.2544 -71.7798 68.182503
-10.8046 -72.0504 68.472702
-10.2807 -72.386398 68.680199
-9.6733103 -72.704803 68.755798
-11.9643 -71.582001 67.494904
-6.6509099 -75.040703 68.032303
-6.5678101 -75.390099 67.993599
-8.9597702 -69.519501 63.3302
-8.9407797 -69.559502 63.015301
-9.04356 -69.622299 63.784599
-9.25214 -69.840401 64.350304
-9.3377504 -69.352097 63.645401
-12.4189 -71.8162 64.377296
-1.65165 -81.732498 47.4575
-1.63425 -81.791 47.583099
-1.17588 -82.165199 47.5112
-1.17204 -82.2183 47.628899
-0.77890199 -82.508202 47.612
-0.78814399 -82.557503 47.725498
-0.55868298 -82.742699 47.833199
-0.55032003 -82.701103 47.717899
-1.67597 -81.803101 47.675598
-1.71763 -81.814102 47.7579
-1.22032 -82.202202 47.7104
-1.2826101 -82.170197 47.784599
-0.83374 -82.5224 47.791698
-0.897129 -82.464302 47.851501
-2.1010101 -81.279099 47.4753
-2.51034 -80.833 47.535
-2.0801101 -81.353401 47.606602
-2.4759901 -80.937698 47.665901
-2.5177701 -80.985397 47.765099
-2.58552 -81.004601 47.900002
-2.1159899 -81.3983 47.703098
-2.1384101 -81.457199 47.7948
-3.2279699 -80.0009 47.7048
-3.0862 -80.220596 47.835602
-2.8861499 -80.4104 47.606602
-2.8048899 -80.579597 47.734501
-0.585756 -82.694099 47.885502
-0.624547 -82.621002 47.926102
-0.75724202 -81.879402 47.199501
-0.67980599 -81.712898 47.258598
-1.03102 -81.746597 47.233501
-0.90159798 -81.6259 47.286201
-1.09272 -81.533501 47.336498
-1.25324 -81.3992 47.425098
-1.2815599 -81.581902 47.3125
-1.49493 -81.387604 47.406101
-1.41852 -81.223602 47.548
-1.70873 -81.125702 47.526501
-1.59479 -81.007896 47.6749
-1.92919 -80.842102 47.6628
-1.78693 -80.784401 47.7724
-2.11797 -80.583801 47.797798
-1.96324 -80.579597 47.858501
-2.09549 -80.406502 47.956902
-2.2058001 -80.231003 48.061001
-2.21117 -80.408897 47.905499
-2.28194 -80.247704 47.9986
-2.3469601 -80.323997 47.898602
-2.34111 -80.227898 47.963001
-2.53338 -80.081299 47.9907
-2.4509799 -80.028099 48.041698
-2.7535901 -79.778702 48.129002
-2.62468 -79.7369 48.177399
-2.99598 -79.480698 48.282299
-2.8336201 -79.437698 48.348
-3.23452 -79.182701 48.4431
-3.0514901 -79.138603 48.538399
-4.0138602 -77.882599 49.057701
-3.8885901 -77.911201 49.1595
-4.1423502 -77.765099 49.1217
-3.8766799 -77.806198 49.2668
-4.2459002 -77.681602 49.156502
-3.70468 -77.358803 49.457802
-3.44788 -78.864998 48.6091
-3.2607999 -78.828697 48.7356
-3.6475999 -78.518402 48.7766
-3.47734 -78.494202 48.923302
-4.3565602 -77.709999 49.158001
-3.8299799 -77.525703 49.592602
-4.40308 -77.8349 49.0504
-3.9291301 -77.762001 49.570801
-3.8445201 -78.157303 48.9366
-3.70766 -78.148102 49.0793
-4.3660898 -78.1092 48.769199
-4.0679002 -78.220596 49.1143
-4.2252998 -78.454697 48.465801
-3.99347 -78.611198 48.752602
-2.7200301 -76.216904 50.134201
-2.1881101 -75.965599 50.395599
-1.8751 -75.623802 50.475601
-2.6963999 -76.469101 50.431099
-2.1219499 -76.073303 50.617199
-1.74492 -75.614601 50.6036
-2.7193799 -76.416901 50.774899
-2.02073 -75.866997 50.874901
-1.62795 -75.440201 50.784599
-3.3127401 -76.9729 50.803799
-3.73263 -77.658096 50.641602
-3.3917401 -77.170197 50.200699
-3.75454 -77.521103 50.211601
-4.0929999 -77.966904 50.095901
-4.01333 -77.997902 49.689701
-4.17939 -78.2006 49.707901
-3.2704501 -78.476501 49.2654
-3.12012 -78.401604 49.353199
-2.93295 -78.217796 49.334099
-3.51261 -78.051003 49.379799
-3.3346901 -77.9189 49.431499
-3.1305201 -77.610802 49.382
-3.4477201 -77.114799 49.407501
-3.26564 -76.997498 49.357498
-4.0158901 -78.829903 48.228298
-3.8106501 -79.016602 48.4809
-3.7669899 -79.2239 48.0383
-3.5480199 -79.493599 48.262402
-3.51121 -79.608597 47.855999
-3.32113 -79.869202 48.007801
-3.93452 -78.777901 48.981499
-3.97753 -78.866501 49.239498
-3.75424 -79.160103 48.7197
-3.7658801 -79.247101 48.977798
-3.55793 -79.5383 48.517899
-3.56095 -79.608398 48.740002
-3.3833599 -79.907097 48.535301
-3.1861999 -80.229401 48.345402
-3.3380201 -79.907997 48.289398
-4.1475601 -78.506897 49.487701
-4.0500202 -78.4039 49.297401
-3.12767 -80.222603 48.072701
-2.9252801 -80.599998 48.1231
-2.8879499 -80.553001 47.887299
-2.85814 -79.111 48.813099
-2.7368 -79.0513 48.9091
-2.5820501 -78.952698 48.923901
-3.05532 -78.804497 49.068199
-2.92363 -78.744102 49.166
-2.7571001 -78.633499 49.168499
-3.6249599 -78.131203 49.2355
-3.3703499 -78.490799 49.103298
-0.62888598 -81.531898 47.370899
-0.61004698 -81.3358 47.481899
-0.82537401 -81.446602 47.404301
-0.79829299 -81.251602 47.520699
-1.0117199 -81.338501 47.4589
-0.98170501 -81.152397 47.5765
-1.17971 -81.215599 47.5415
-1.12218 -81.088501 47.621101
-1.4928 -80.905602 47.7733
-1.36903 -80.834702 47.7924
-1.66413 -80.722702 47.849701
-1.53939 -80.650299 47.867699
-1.82939 -80.538399 47.916302
-1.70515 -80.455498 47.941299
-1.33285 -81.070999 47.659199
-1.22042 -80.978203 47.703602
-2.09216 -80.183098 48.1138
-1.96043 -80.103699 48.132099
-2.32567 -80.014198 48.1674
-2.20644 -79.970703 48.230999
-2.06165 -79.898003 48.254601
-2.4737401 -79.746498 48.317299
-2.3459301 -79.706703 48.394501
-2.1909201 -79.632896 48.423901
-2.9437001 -79.125397 48.674
-2.65818 -79.433998 48.544998
-2.7395 -79.435097 48.4408
-2.5497701 -79.739998 48.2407
-1.97093 -80.364304 48.006699
-1.84563 -80.279602 48.0289
-2.39434 -80.021797 48.0994
-2.5335801 -79.3843 48.6334
-2.3787999 -79.297997 48.658901
-3.1479399 -78.818497 48.905499
-2.3733399 -81.315598 48.016102
-2.02425 -81.574097 48.091702
-2.0422101 -81.616203 47.893902
-1.8378201 -81.817101 47.9627
-1.70208 -81.874001 47.851799
-1.65513 -81.948196 47.919701
-1.32586 -82.176102 47.8778
-1.38667 -82.167702 47.944901
-0.96258402 -82.445602 47.938
-1.04609 -82.4039 47.9828
-0.66906899 -82.590401 47.999199
-0.72324097 -82.539101 48.023499
-1.96189 -75.009201 51.912899
-1.92388 -74.0606 52.226002
-2.0176699 -73.253799 52.246899
-1.2464401 -74.897003 52.318802
-1.30062 -74.074699 52.573399
-1.3874 -73.253197 52.6087
-1.2515399 -75.756401 52.298302
-1.27619 -76.564697 52.344002
-2.0982299 -75.965797 51.947601
-2.2316401 -76.8666 51.869202
-3.0296299 -77.138 51.2855
-2.7676101 -76.411201 51.418201
-2.35144 -75.740402 51.362598
-1.51364 -74.602699 50.4739
-1.4626499 -75.015701 50.525002
-1.41151 -75.826897 50.579201
-1.31159 -74.637398 50.773602
-1.24176 -74.945099 50.772598
-1.19964 -75.587898 50.740501
-1.122 -74.514603 50.945599
-1.02314 -74.690598 50.881302
-0.91825598 -75.146698 50.815399
-1.2223001 -77.614601 52.214199
-1.93038 -77.719299 51.8773
-1.24374 -77.181801 52.307098
-2.0069001 -77.357597 51.8951
-1.10329 -79.214996 51.113899
-1.7349401 -79.262703 50.894199
-1.13859 -78.832603 51.425098
-1.81085 -78.8601 51.1572
-1.1706899 -78.442703 51.747002
-1.85685 -78.451698 51.460899
-0.75046998 -80.775101 49.692699
-1.06467 -80.657402 49.688
-0.81822598 -80.367401 50.088001
-1.25886 -80.318604 49.985001
-0.94069898 -79.973701 50.452301
-1.47403 -79.939003 50.3353
-2.31864 -77.8256 51.415199
-2.54636 -78.153702 50.8181
-2.5525899 -77.552399 51.298199
-2.1414101 -79.346298 50.605598
-2.3027301 -79.586899 50.1717
-2.26174 -78.857803 50.795101
-2.5097799 -78.859596 50.4249
-2.2879701 -78.369797 51.088799
-1.29107 -80.7901 49.483898
-1.51036 -80.945297 49.125099
-1.67659 -80.321999 49.848801
-1.99762 -80.285896 49.655899
-1.9298 -79.855797 50.251801
-0.84774101 -81.062202 49.355701
-0.941562 -81.293999 48.986301
-0.78386998 -82.399002 47.932301
-1.15005 -82.272301 47.930099
-0.80936903 -82.206497 47.841
-1.19065 -82.087097 47.876999
-1.11537 -81.893501 47.940899
-1.08303 -81.6707 48.1646
-0.776106 -82.010803 47.8881
-0.770684 -81.8013 48.118
-1.51472 -82.063599 47.952202
-1.57411 -81.897003 47.967899
-1.74105 -81.477501 48.199501
-1.5240099 -81.361801 48.285599
-1.4298 -81.727097 48.046902
-1.3248399 -81.505798 48.2258
-3.2751801 -76.621101 49.832802
-3.2857001 -77.010696 50.053699
-3.8733699 -78.707497 49.9366
-4.0033002 -78.818398 49.604099
-3.9584301 -78.255096 50.241001
-4.1610498 -78.402603 49.8675
-3.0046 -77.719803 50.905499
-2.81762 -78.271698 50.461899
-3.47719 -78.025597 50.548401
-3.11272 -78.438904 50.2551
-3.53829 -78.563698 50.135899
-2.9772 -75.170601 49.517502
-2.50547 -75.453697 49.711601
-1.9688801 -76.021599 49.951698
-2.92682 -75.795403 49.7938
-2.3773 -75.835197 50.0261
-1.7566299 -74.7584 50.168098
-1.82092 -75.117897 50.300098
-1.8492 -75.383003 50.122002
-2.06059 -75.5905 50.204899
-3.5923901 -79.190498 49.5877
-3.2945499 -79.695396 49.222801
-3.7513599 -79.252197 49.298901
-3.4916401 -79.684402 48.991901
-3.0206599 -80.497902 48.471298
-2.7521901 -80.650597 48.601601
-2.7188201 -80.922203 48.227001
-2.4258499 -81.114899 48.3353
-3.26263 -80.090202 48.720402
-3.02583 -80.181 48.893902
-1.0461299 -80.9888 47.6563
-0.83653498 -81.042397 47.5835
-1.1857899 -80.796097 47.727402
-0.943946 -80.735703 47.647099
-1.2157201 -80.410698 47.767601
-1.45257 -80.0765 47.913799
-1.38925 -80.553497 47.820702
-1.58582 -80.310303 47.924
-3.2302699 -79.087303 49.761299
-2.8564601 -78.983002 49.898899
-2.9417601 -79.631302 49.3717
-2.61466 -79.563004 49.530701
-2.6538999 -80.144402 49.0135
-2.3192501 -80.104698 49.155998
-2.3567801 -80.630096 48.696602
-1.99575 -80.603104 48.798698
-2.0473399 -81.092598 48.422901
-1.7010601 -81.051003 48.491402
-1.4582 -79.310402 48.205601
-1.6975 -79.3731 48.241901
-1.88421 -79.460999 48.290298
-1.46518 -79.7024 48.037701
-1.66355 -79.7061 48.092499
-1.79915 -79.738701 48.1478
-1.66273 -79.955803 48.015499
-1.75998 -79.902702 48.077202
-1.1570899 -80.056297 47.8437
-0.88707501 -80.060097 47.825802
-1.18094 -79.698799 47.982399
-0.88184601 -79.730499 47.957199
-1.15971 -79.298103 48.1576
-0.859281 -79.339699 48.132401
-1.43704 -78.308098 48.7173
-1.8160599 -78.469902 48.721802
-2.15448 -78.6679 48.752701
-1.44397 -78.819702 48.441399
-1.75046 -78.931503 48.4636
-2.0122499 -79.073898 48.504902
-1.12242 -78.7883 48.4035
-0.82804799 -78.8293 48.3829
-1.08198 -78.252403 48.694599
-0.78589898 -78.287903 48.675999
-0.73424101 -77.850998 48.9547
-0.69996297 -77.697304 49.129799
-1.04765 -77.818298 48.9814
-1.03022 -77.643997 49.176399
-1.44962 -77.869904 48.994801
-1.48247 -77.508598 49.239201
-2.42309 -77.615898 49.111099
-2.2859499 -78.275902 48.979599
-1.98646 -77.4683 49.1436
-1.89223 -78.044601 48.968102
-0.91408199 -80.389503 47.7183
-0.64927399 -80.826103 47.5984
-0.64811999 -80.4842 47.705799
-0.63828403 -80.1343 47.8423
-0.62743402 -79.805298 47.9809
-0.61206698 -79.419899 48.158199
-0.59269297 -78.9105 48.409302
-0.56457901 -78.369202 48.687698
-0.52720797 -77.934303 48.926498
-0.50221699 -77.775497 49.057598
-0.622482 -81.110298 47.5406
-1.51627 -74.880302 50.596699
-1.65219 -74.568497 50.272999
-1.65142 -74.939796 50.412998
-2.7511001 -75.469101 49.1199
-2.2592001 -75.7603 49.282501
-1.82136 -76.489304 49.504398
-2.8958499 -75.057098 49.2724
-2.3849699 -75.397102 49.4603
-1.91495 -76.239899 49.681599
-2.5838599 -76.503998 49.111401
-2.1257 -76.576698 49.212002
-1.70699 -76.933197 49.381001
-1.50655 -77.437103 49.3825
-1.54863 -77.432503 49.4715
-1.6056 -77.028603 49.550301
-1.00867 -74.159798 50.798801
-0.89729702 -73.591904 50.440701
-1.3013999 -74.394897 51.017502
-1.19824 -73.911003 50.900299
-1.11584 -73.303398 50.6208
-1.5708801 -74.414902 51.2066
-1.50246 -73.808899 51.208
-1.43525 -73.164703 51.033401
-0.62795699 -75.127098 50.739399
-0.61720198 -74.264999 50.589298
-0.62910998 -73.540901 50.303398
-0.84353501 -74.322304 50.699402
-2.6616099 -78.900803 50.111599
-2.46329 -79.557198 49.8009
-2.16154 -80.177902 49.392502
-1.78962 -80.732399 48.951599
-0.86245197 -81.5597 48.524101
-1.24483 -81.3759 48.564999
-1.47826 -81.1763 48.5383
-2.4003899 -78.828903 48.845299
-2.5615101 -78.4776 49.074902
-2.72155 -77.9123 49.211601
-2.0410199 -79.549599 48.370602
-2.2132499 -79.196404 48.593102
-1.83998 -79.999199 48.106201
-1.9247 -79.813202 48.2136
-1.73703 -80.141701 48.016602
-2.0804501 -72.437202 51.795898
-1.97314 -71.872902 51.290798
-1.43682 -72.389801 52.069599
-1.36474 -71.737198 51.322399
-1.40274 -72.472397 50.741199
-1.25775 -71.909897 50.4841
-1.89317 -73.187599 51.648899
-1.90382 -72.426003 51.282799
-1.71331 -71.814796 50.8918
-0.88089699 -72.830704 50.1525
-0.85610098 -72.368103 50.045502
-1.07986 -72.637901 50.355202
-0.98035997 -72.128502 50.185398
-0.63118601 -72.868698 50.079201
-0.64305502 -72.315697 50.009701
-1.13889 -71.534302 50.767601
-0.865457 -71.641296 50.388901
-0.70652097 -71.913803 50.126999
-0.53179199 -84.547203 49.165798
-0.48794901 -84.653999 49.276501
-0.57813603 -84.660599 49.301601
-0.49799001 -84.785301 49.451801
-0.510876 -84.9076 49.627102
-0.59999698 -84.779503 49.458199
-0.62289602 -84.8918 49.625401
-0.67374402 -84.624702 49.3181
-0.72278899 -84.734596 49.4911
-0.743514 -84.824203 49.659801
-0.86352903 -84.670403 49.577202
-0.83767301 -84.705101 49.774101
-1.54996 -84.908798 50.407398
-1.55954 -85.019096 50.489498
-1.58101 -85.0812 50.6115
-1.66802 -84.859398 50.443501
-1.6825 -84.9384 50.5215
-1.71164 -84.981201 50.632599
-1.75639 -84.8283 50.494499
-1.79454 -84.848396 50.571999
-1.83356 -84.869499 50.677601
-1.5524 -84.7416 50.3867
-1.6881599 -84.718803 50.4212
-1.81154 -84.714302 50.508099
-1.39833 -84.637398 50.439499
-1.23261 -84.744698 50.407799
-1.40939 -84.840401 50.380699
-1.24449 -84.9403 50.3409
-1.41959 -85.002296 50.395699
-1.25922 -85.092796 50.355
-1.4302599 -85.117599 50.4739
-1.2701499 -85.205902 50.433601
-1.44371 -85.186302 50.591099
-1.27671 -85.278702 50.547001
-0.86508697 -84.756302 50.104599
-0.79552901 -84.7677 49.8927
-0.87472802 -84.957802 50.029701
-0.77883101 -84.903801 49.831902
-0.803608 -85.1157 50.0438
-0.68182403 -84.998398 49.812599
-0.54533499 -85.030899 49.803299
-0.58996898 -85.158798 49.9874
-0.60717702 -85.291298 50.169498
-0.60897702 -85.395401 50.338699
-0.82556897 -85.2714 50.2257
-0.82913399 -85.372398 50.384499
-1.06229 -85.3377 50.466301
-1.05931 -85.2528 50.3368
-1.05001 -85.128899 50.2332
-1.0531501 -84.978104 50.214001
-1.05133 -84.787003 50.287601
-0.68841201 -84.482697 50.118801
-0.77602702 -84.6101 49.969299
-0.73225898 -84.603104 50.072701
-1.89431 -84.710701 50.634602
-1.9438699 -84.727798 50.762299
-1.95222 -84.801399 50.859798
-1.8556499 -84.914299 50.775799
-1.91275 -84.897598 50.929699
-1.85787 -84.954697 50.849602
-1.77447 -85.016899 50.867599
-1.64421 -85.0998 50.877701
-1.81756 -84.981903 50.9776
-1.67786 -85.069901 50.992901
-0.813438 -85.443901 50.7682
-0.81262302 -85.439796 50.640701
-0.59596997 -85.486603 50.730301
-0.59629202 -85.478104 50.6078
-0.60276902 -85.452797 50.482498
-0.82117301 -85.421898 50.518398
-1.0514801 -85.388901 50.705101
-1.2845 -85.313904 50.7822
-1.05711 -85.378403 50.5896
-1.2803299 -85.311401 50.667599
-1.0537601 -85.381798 50.824402
-1.29241 -85.294899 50.891499
-0.93537098 -84.568398 49.943802
-0.83962101 -84.427002 50.182201
-1.61062 -85.105003 50.747799
-1.74263 -85.0093 50.752998
-1.48197 -85.208397 50.8466
-1.5022399 -85.181999 50.9571
-1.4615901 -85.212997 50.722198
-1.43425 -84.176102 50.559601
-1.39606 -84.085602 50.6726
-1.4923199 -84.223099 50.558498
-1.42819 -84.117203 50.676899
-1.47935 -84.318199 50.550499
-1.4387701 -84.191498 50.655201
-1.22684 -84.511299 50.5499
-1.21103 -84.287201 50.682999
-1.05803 -84.557297 50.456799
-1.04865 -84.337097 50.604099
-0.889377 -84.538498 50.338299
-0.91858202 -84.3713 50.499901
-0.712834 -84.316399 50.306599
-0.78329402 -84.196503 50.454498
-0.86313999 -84.242104 50.402401
-0.92299497 -84.130898 50.560299
-1.09593 -84.201897 50.4991
-1.12624 -84.089699 50.660198
-0.74996901 -84.43 50.2887
-0.83617002 -84.267197 50.483601
-1.37714 -84.419403 50.567299
-1.35343 -84.226898 50.689899
-1.2946 -84.172096 50.553902
-1.29527 -84.071198 50.693401
-1.17176 -84.1287 50.722401
-1.3238 -84.0989 50.734501
-0.991539 -84.178802 50.630699
-0.51011199 -78.007896 49.033001
-0.54473698 -78.497002 48.8871
-0.70777398 -77.949097 49.129398
-0.74819899 -78.464996 48.982899
-1.0172499 -78.453598 49.0313
-1.27526 -78.461899 49.051998
-1.00964 -77.924301 49.179199
-1.31655 -77.913498 49.2085
-0.66518301 -77.222198 50.243599
-0.96665901 -77.261101 50.262402
-0.66572702 -78.033401 49.8769
-0.95454001 -78.053398 49.900101
-0.65394503 -78.692001 49.4986
-0.92357397 -78.706398 49.524601
-0.898 -79.3302 49.125702
-0.88374799 -79.962402 48.719898
-0.64081699 -79.316498 49.098999
-0.63363498 -79.952202 48.6917
-0.88909501 -81.0849 48.052101
-0.90377402 -81.330002 47.908798
-0.92233098 -81.406601 47.8531
-0.64620399 -81.107201 48.016998
-0.65704697 -81.372803 47.877499
-0.66818398 -81.466499 47.827
-1.24411 -77.329903 50.237499
-1.45043 -77.387901 50.1847
-1.21627 -78.061401 49.893002
-1.4144 -78.055 49.861
-1.17136 -78.701401 49.5238
-1.36535 -78.681198 49.499599
-1.3568799 -79.302803 49.1087
-1.36332 -79.929703 48.712502
-1.15054 -79.323898 49.127602
-1.14509 -79.952103 48.7258
-0.64647502 -76.189301 50.581299
-0.94351703 -76.251503 50.603199
-1.3073601 -80.932098 48.1208
-1.35174 -80.998596 48.067101
-1.38407 -81.014198 48.0336
-1.13483 -81.031799 48.079201
-1.15233 -81.234901 47.9515
-1.17538 -81.287399 47.901199
-0.63673699 -80.593803 48.306499
-0.88147402 -80.5914 48.339199
-1.22193 -76.463097 50.5471
-1.42772 -76.6455 50.451801
-1.5110199 -75.894203 50.459702
-1.5676301 -75.944397 50.350899
-1.52256 -76.705101 50.368801
-1.56984 -76.715401 50.2635
-1.5506099 -77.398903 50.1236
-1.58942 -77.384598 50.034401
-1.56769 -78.009399 49.742802
-1.5405101 -78.623802 49.4076
-1.52158 -78.036697 49.813202
-1.48079 -78.654701 49.461399
-1.62477 -77.380898 49.741699
-1.5908 -77.950897 49.529598
-1.58587 -78.557701 49.2612
-1.61693 -77.375504 49.899101
-1.5891 -77.977898 49.643002
-1.5735101 -78.589897 49.337502
-1.6385601 -76.747803 50.093601
-1.69408 -75.961899 50.167801
-1.70644 -76.812302 49.895302
-1.6755 -76.910103 49.705601
-1.59734 -77.401901 49.594299
-1.39466 -80.922501 47.9338
-1.50878 -80.411903 48.189701
-1.55422 -79.772301 48.5186
-1.28012 -80.852997 47.9347
-1.35922 -80.3601 48.178299
-1.40172 -79.728203 48.4986
-1.1709 -80.746696 47.967201
-1.1855201 -80.321899 48.174099
-1.21104 -79.7005 48.484299
-0.802845 -79.070396 48.7411
-0.85181397 -79.720901 48.442001
-1.02737 -79.062202 48.779598
-1.03418 -79.706596 48.470699
-1.2444299 -79.065903 48.7962
-1.5336 -78.505798 49.129299
-1.53012 -77.927803 49.330502
-1.44353 -78.4814 49.0826
-1.46181 -77.9161 49.2621
-1.06581 -80.850304 47.919899
-0.90455502 -80.911903 47.8853
-1.13527 -81.099503 47.821301
-0.93433499 -81.201103 47.7747
-1.20289 -81.201797 47.804001
-0.95921803 -81.323898 47.753799
-1.43479 -80.992599 47.973
-1.56697 -80.480301 48.237701
-1.61865 -79.840599 48.5812
-1.44037 -80.966003 47.948601
-1.56936 -80.452202 48.209999
-1.61788 -79.810204 48.5466
-1.42686 -79.090797 48.817402
-1.55163 -79.125999 48.8484
-1.54809 -79.249901 49.037899
-1.5537699 -79.889603 48.6576
-1.48151 -79.277397 49.0784
-1.48999 -79.909302 48.6889
-1.1387399 -80.566597 48.353199
-1.34773 -80.530296 48.3522
-1.6094199 -79.190102 48.9361
-1.5886199 -79.220596 48.988201
-1.59439 -79.866898 48.619999
-1.57073 -77.935898 49.422001
-1.57585 -78.530502 49.190102
-1.6054 -79.159302 48.888401
-1.21925 -81.281097 47.837002
-0.95738101 -81.414902 47.784698
-1.41247 -81.009201 48.002499
-1.19929 -81.293602 47.8666
-0.94143403 -81.424599 47.815701
-1.45613 -80.5242 48.329201
-1.50767 -80.516197 48.3013
-1.2273099 -81.252899 47.814301
-0.965702 -81.3843 47.762501
-1.5427901 -80.501404 48.269699
-0.67842102 -80.937698 47.843899
-0.68837398 -81.248001 47.738701
-0.693748 -81.386497 47.724499
-1.04073 -80.3489 48.156799
-0.881455 -80.380203 48.1292
-0.59246302 -79.0784 48.6674
-0.63646603 -79.718399 48.391701
-0.66356897 -80.386299 48.0868
-0.67917597 -81.4935 47.791
-0.68825698 -81.486702 47.759102
-0.69350898 -81.454903 47.736198
-7.17839 -80.026299 54.062599
-7.4299698 -79.818398 53.934601
-7.6472902 -79.607002 53.787601
-6.7664599 -80.212502 53.616501
-7.0090299 -79.998802 53.458401
-7.2212 -79.788902 53.305599
-6.35502 -80.4244 53.242001
-6.5959101 -80.204498 53.083401
-6.8109102 -79.9925 52.928699
-7.9956799 -79.194901 53.5317
-8.1638498 -78.974899 53.435101
-7.5843 -79.377701 53.051701
-7.7683001 -79.157204 52.950401
-7.1908202 -79.575401 52.661701
-7.3859601 -79.343803 52.542599
-9.0275497 -78.331703 54.397701
-8.68046 -78.613503 53.964001
-6.0805402 -80.6548 53.3988
-6.5023499 -80.422096 53.778999
-6.9400001 -80.205399 54.2122
-5.1988001 -81.252296 52.219002
-5.46947 -81.007698 52.455502
-7.9949298 -79.487801 54.3269
-7.7522998 -79.708702 54.4617
-7.4440198 -79.935097 54.535301
-8.25284 -79.407303 54.873501
-7.98627 -79.639397 54.998699
-9.1976099 -78.551598 56.191502
-9.0343599 -78.7584 56.222198
-8.7740097 -79.048103 57.751099
-8.8552303 -78.962601 57.490101
-7.0058799 -79.784798 52.789398
-7.4085498 -79.584099 53.170799
-7.83184 -79.400497 53.652
-7.29772 -79.022697 51.839901
-7.1916399 -79.293602 52.0453
-6.8715 -79.7519 52.370201
-7.0359998 -79.536301 52.210499
-2.86971 -83.325401 52.313202
-2.8510599 -83.5158 51.9132
-2.7618899 -82.652298 53.922001
-2.74367 -82.426804 54.328999
-2.7450299 -82.202698 54.670502
-2.7626801 -82.035301 54.847401
-2.86148 -83.152901 52.706501
-2.8340199 -82.993599 53.0998
-2.7962101 -82.835701 53.506302
-8.7334604 -79.119797 57.1045
-8.72892 -79.123596 56.713299
-8.5301704 -79.3284 57.0741
-8.5060301 -79.338402 56.723499
-8.4338799 -79.331596 55.386501
-8.1806297 -79.558601 55.495899
-8.5649004 -79.2528 55.859798
-8.32372 -79.476601 55.939899
-8.43437 -79.395103 56.3461
-8.6676197 -79.175301 56.298698
-6.2483001 -80.345901 52.5186
-6.5001798 -80.174004 52.683998
-6.4454098 -80.123802 52.326199
-6.6946802 -79.961998 52.526699
-5.77145 -80.842697 53.0807
-6.0490198 -80.607803 52.982899
-5.6310902 -80.9188 52.818901
-5.8824501 -80.716698 52.830399
-4.31462 -81.918297 52.992901
-4.4755402 -81.695 53.321301
-8.3596497 -79.060997 54.0741
-8.1938601 -79.272301 54.193199
-8.4688396 -79.182701 54.7505
-3.0659001 -83.757698 50.963299
-6.0496202 -79.481003 49.719799
-6.3169498 -79.460403 50.390999
-6.1358399 -79.710899 50.1623
-6.4693699 -79.211403 50.525398
-3.22212 -77.903603 46.6264
-3.4361701 -78.2882 46.946899
-3.5280099 -77.341202 46.812
-3.7498701 -77.799896 47.132599
-7.5227699 -74.496902 65.933502
-7.1468 -74.230301 66.499298
-7.3173099 -74.354301 66.228897
-7.8482699 -74.400803 69.386597
-7.3389902 -74.099403 68.727203
-7.0657301 -73.915604 68.116302
-6.9744902 -73.793098 67.608803
-6.87639 -74.256302 68.071098
-6.90906 -73.816002 67.075699
-6.9888802 -74.031403 66.786598
-6.7458701 -74.650398 68.056396
-11.0942 -75.316803 56.106998
-8.3044796 -77.338097 62.826599
-7.6946001 -77.515198 63.395199
-7.0934 -77.632401 63.8484
-8.1823797 -77.076103 63.331799
-7.5469999 -77.248299 63.882099
-6.9203801 -77.363297 64.316299
-8.8193998 -76.814102 62.655701
-8.9000702 -77.0784 62.135399
-6.5081501 -77.760399 64.175102
-6.3065901 -77.456703 64.6651
-6.1286602 -77.197701 65.098
-9.8443899 -76.782501 60.228001
-9.4288502 -77.060997 60.910702
-8.3738899 -77.625198 62.306099
-8.9377804 -77.355698 61.622002
-8.4068098 -77.9282 61.773701
-8.9348402 -77.642998 61.125702
-6.0166101 -76.985199 65.446999
-8.4215202 -78.237297 61.2384
-7.7555799 -78.182701 62.394199
-7.8394899 -78.537003 61.7757
-8.8943005 -77.938301 60.660198
-8.8248501 -78.246101 60.2281
-9.0322399 -78.299797 59.390598
-8.7348099 -78.570602 59.8288
-9.4217396 -77.946404 58.557499
-9.2589703 -78.087097 58.9645
-9.5891895 -77.874001 57.749298
-9.5282402 -77.883301 58.164001
-9.6182804 -77.886299 57.2812
-6.2839899 -80.390297 52.841702
-6.0349698 -80.564903 52.694901
-5.9960899 -80.531097 52.366199
-6.2104902 -80.290497 52.123798
-5.7636399 -80.771103 52.592098
-8.9098301 -78.919998 56.7047
-8.9036102 -78.920197 57.129299
-8.7754602 -79.031197 55.7878
-8.6531897 -79.105003 55.285301
-8.8634901 -78.963303 56.257702
-9.44625 -77.954102 54.958099
-8.5073299 -78.848503 53.980099
-9.2673302 -78.224899 54.9706
-3.30722 -82.507103 57.839901
-2.2570801 -82.569397 56.5597
-1.9937 -82.677399 56.5732
-1.70872 -82.776001 56.591202
-3.0596199 -82.447998 57.430901
-2.77531 -82.416901 56.995499
-2.5146 -82.437698 56.553001
-1.19075 -83.250099 55.241699
-1.18523 -83.429802 54.8186
-1.18295 -83.616798 54.411499
-1.51378 -82.828903 57.074501
-1.38499 -82.875702 56.610199
-1.2772 -82.9655 56.138901
-1.21556 -83.092598 55.6814
-1.17151 -83.7995 54.0163
-1.73841 -82.831902 57.939899
-1.8311599 -82.819099 58.3638
-1.96252 -82.7677 58.778301
-1.63472 -82.824203 57.514301
-1.94017 -82.613403 59.3633
-2.3108599 -82.3209 60.0215
-2.6877301 -82.246696 60.118698
-3.07442 -82.135696 60.266201
-1.86702 -82.335503 60.051899
-4.0143299 -81.851402 60.509899
-4.4983001 -81.7024 60.537201
-3.5274799 -81.9991 60.4086
-4.6582198 -79.994598 62.794399
-5.2825198 -79.755699 62.719299
-3.5585699 -80.417297 62.779999
-4.09164 -80.213097 62.811699
-2.49773 -80.825401 62.565899
-3.0274701 -80.614403 62.7071
-1.96947 -81.061699 62.342999
-9.6247501 -70.991699 66.625999
-9.9252901 -70.871696 66.485497
-10.1853 -70.826797 66.360802
-8.8261995 -71.687202 66.901703
-9.2512102 -71.256104 66.753304
-7.8614001 -80.0149 57.879299
-1.01884 -84.607002 49.714298
-0.59557599 -84.3423 48.6959
-7.8069201 -72.7314 66.9823
-7.9507599 -72.808899 67.269096
-8.2023802 -72.145103 66.773697
-8.3924799 -72.264099 67.1007
-7.6126299 -72.599403 66.727501
-7.4424701 -73.139397 67.125099
-7.2974501 -73.0728 66.896004
-7.2004499 -73.367599 67.206001
-7.0761499 -73.408501 67.061203
-6.9823799 -73.629997 67.278397
-7.1914401 -73.457603 67.387299
-7.7150502 -71.833298 66.298103
-7.9581299 -72.045898 66.5662
-7.5300999 -73.201202 67.373001
-10.0917 -70.478302 65.6586
-9.6392097 -70.141296 64.9916
-10.4676 -70.801003 66.294601
-3.61286 -68.358002 46.245098
-2.8231399 -68.866501 46.012501
-3.89835 -69.017097 46.4799
-3.21346 -69.578499 46.2701
-7.1215301 -63.982498 48.098598
-6.4960799 -64.234703 47.551701
-5.1939998 -65.017502 46.6716
-4.4397998 -65.559502 46.292999
-5.8656402 -64.5812 47.0839
-10.3747 -63.885399 52.926899
-9.98594 -64.010498 52.0863
-9.56563 -64.237602 51.2826
-9.0921602 -64.504204 50.4967
-8.5582705 -64.654099 49.739201
-7.9987702 -64.827301 49.046799
-4.8214302 -67.621498 46.695301
-4.2408099 -67.929298 46.451302
-5.1413898 -68.227699 46.945599
-4.5443501 -68.5774 46.701698
-6.2494102 -67.662498 47.561199
-5.9653401 -66.945999 47.3102
-5.6984801 -67.921204 47.223999
-5.3786101 -67.266296 46.966702
-6.81463 -67.449303 47.971901
-6.5539899 -66.648399 47.7183
-4.3250499 -67.0383 46.383099
-3.51653 -67.534798 46.086601
-1.03566 -68.582802 45.548401
-1.78215 -68.382698 45.631001
-2.6397901 -67.921997 45.816399
-7.4211898 -65.067001 48.4272
-6.8302002 -65.354698 47.882099
-4.93538 -66.498901 46.648102
-5.5945501 -66.055099 46.998901
-6.2263098 -65.680901 47.4095
-5.30756 -71.594101 47.4487
-5.82447 -71.394096 47.723099
-1.44064 -74.626999 45.933498
-2.0360999 -73.940498 46.078098
-1.97394 -74.714996 46.048801
-0.92183101 -74.579399 45.874001
-6.0766501 -74.968697 48.430199
-3.81549 -73.7313 46.8284
-4.3526101 -73.952499 47.125198
-3.26227 -73.500504 46.551498
-2.6888499 -73.283997 46.302799
-2.0915899 -73.123901 46.093102
-2.2251999 -80.3535 46.353401
-2.2298999 -80.632401 46.6371
-2.54562 -79.874702 46.490898
-2.5785799 -80.169899 46.7743
-2.8500299 -79.350098 46.6259
-2.91517 -79.670502 46.921101
-3.2400501 -79.154198 47.087502
-3.56657 -78.653397 47.2677
-3.14098 -78.811897 46.776402
-3.9040401 -78.187897 47.446899
-0.86862397 -77.589104 45.452
-0.90214401 -82.023804 46.8265
-1.88237 -80.758797 46.202202
-1.8652 -81.041199 46.502399
-11.9487 -63.8424 60.671299
-12.0111 -64.077301 59.931801
-11.4703 -62.652901 61.033501
-11.7866 -63.568001 61.359001
-8.1756096 -65.253403 67.683899
-8.0089102 -64.530602 67.403603
-8.7524204 -64.754097 67.106903
-8.5724802 -64.096397 66.769096
-0.861067 -67.376999 69.556297
-1.74603 -67.422401 69.512604
-3.4851201 -67.302803 69.358498
-4.4131098 -68.305603 69.371498
-4.3206902 -67.1381 69.237503
-5.2234101 -67.914703 69.215698
-5.1338601 -66.8256 69.0616
-2.62679 -67.385002 69.446098
-6.7930698 -66.550003 68.643303
-6.67414 -65.707901 68.4505
-7.51829 -65.857498 68.204697
-7.37391 -65.077904 67.9757
-6.0214701 -67.285202 68.978104
-5.9225001 -66.322899 68.807602
-8.3670197 -65.961403 67.914902
-8.9651604 -65.466904 67.399902
-6.2278099 -68.749901 69.113197
-6.9086099 -67.281898 68.775299
-6.10818 -68.074203 69.071098
-5.3087201 -68.815102 69.270203
-7.6738901 -66.567703 68.381897
-4.5348601 -69.369301 69.387802
-6.5047498 -72.776199 69.493698
-5.9716702 -72.170403 69.291298
-6.4264202 -69.393303 69.141403
-4.0694098 -73.636803 68.759499
-3.93923 -74.546501 68.381203
-4.2771101 -72.702599 69.033897
-5.85921 -78.389503 63.902699
-5.3386202 -78.0271 64.610497
-6.3698401 -78.142502 63.833302
-4.75072 -77.671402 65.308601
-7.0819702 -77.957901 63.461601
