# .PCD v.7 - Point Cloud Data file format
VERSION .7
FIELDS x y z
SIZE 4 4 4
TYPE F F F
COUNT 1 1 1
WIDTH 1691
HEIGHT 1
VIEWPOINT 0 0 0 1 0 0 0
POINTS 1691
DATA ascii
3.52443 -20.823799 32.731998
2.9173999 -21.2379 33.417999
5.17278 -18.326099 30.036699
4.9016299 -18.676399 30.828501
4.5475502 -19.016399 31.4937
5.7898202 -16.767099 29.691799
5.5297799 -17.0474 30.420099
5.2371302 -17.358101 30.9918
4.7894902 -17.6362 31.4874
4.0427198 -19.326 32.070599
4.2466798 -17.7355 31.9814
3.4665799 -19.533701 32.607101
4.76861 -20.352501 29.9487
5.0030999 -19.2731 29.528999
5.0311899 -19.886 28.818399
5.2644501 -18.7994 28.484501
5.2037902 -27.5854 38.418701
6.0770998 -26.863899 37.521801
14.6263 -17.4638 43.680801
14.5497 -18.8916 43.8577
14.3964 -20.301399 44.128502
14.6085 -17.383301 42.018799
14.57 -18.7187 42.383598
14.4507 -20.0921 42.710899
14.6092 -17.312201 40.543999
14.5975 -18.615999 40.940201
14.5025 -19.953501 41.297401
14.2646 -21.3008 41.6166
14.1852 -21.4937 43.047001
14.097 -21.733101 44.469898
14.6621 -16.1742 42.854301
14.6133 -15.0783 41.038799
14.6235 -16.162901 41.501301
14.5445 -15.0083 39.737999
14.5924 -16.101 40.125198
14.5609 -14.1129 40.713402
14.4505 -14.0446 39.425499
14.5672 -19.740801 38.573898
14.5715 -19.6229 37.240101
14.5726 -19.498501 35.9207
14.6368 -18.443001 38.230099
14.6415 -18.3507 36.901199
14.6523 -18.271299 35.6003
14.6113 -17.158199 37.826
14.6091 -17.0966 36.470901
14.6146 -17.1106 35.194401
12.9182 -11.5913 31.8892
12.2483 -11.1015 31.330299
11.4348 -10.7674 30.724199
12.98 -11.3921 33.262699
12.3261 -10.8797 32.532001
11.5586 -10.5342 31.8825
12.3611 -10.6377 33.6511
11.5429 -10.2273 32.7831
10.7822 -10.181 32.0513
10.734 -10.435 31.258801
10.5444 -10.6818 30.222401
10.0513 -10.3189 31.5452
9.9035397 -10.5999 30.7836
9.6795702 -10.8586 29.874599
9.4524498 -11.0947 28.868299
10.3099 -10.9012 29.128599
11.2143 -10.9805 29.5009
9.2264404 -11.3135 27.7938
10.067 -11.101 27.975599
10.9752 -11.1531 28.2659
13.3702 -12.1465 32.298
13.4814 -12.0689 33.850201
13.7107 -12.8446 32.7332
13.8413 -12.8612 34.388699
13.1237 -10.9377 36.754299
12.713 -10.6665 35.132301
12.7966 -10.4608 36.6376
12.3214 -10.1727 35.1026
12.0881 -11.3193 30.0436
12.8458 -11.8533 30.7344
11.8691 -11.5082 28.727301
12.7463 -12.2122 29.4797
11.9984 -10.1959 33.963001
14.1882 -13.8376 36.523899
14.3936 -14.8355 36.961102
14.1208 -13.7845 34.869999
14.347 -14.832 35.3573
13.9962 -13.7912 33.044701
14.2811 -15.0449 33.469101
14.5041 -16.101801 34.565601
14.406 -16.1012 33.029202
14.57 -17.0737 34.0784
14.4884 -17.087099 32.935902
13.3844 -12.6665 31.177099
14.5152 -18.1604 33.110298
14.4361 -19.2638 33.308498
14.3137 -16.955799 31.5205
14.3554 -18.0347 31.692801
14.281 -19.082001 31.8934
14.0879 -16.7771 30.087601
14.1557 -17.8011 30.2656
14.0938 -18.766899 30.4688
14.2245 -20.3417 33.457699
13.9562 -21.589701 34.919701
14.3261 -20.513201 34.818802
14.5348 -19.381901 34.634602
14.3548 -20.684 36.140598
14.6053 -18.2164 34.374599
13.9628 -14.6762 31.3983
14.1795 -15.8258 31.424
13.5865 -14.3558 29.6194
13.8797 -15.5804 29.814301
14.5134 -15.9268 35.949299
14.5307 -15.9463 37.397202
14.0641 -20.115101 32.024101
13.8732 -19.759001 30.5191
13.4496 -22.5765 34.948799
9.2653904 -10.6942 31.2208
9.0888205 -11.0375 30.4828
8.8999205 -11.3104 29.6343
8.3949299 -11.4124 31.009399
8.3063202 -11.7754 30.306
8.1917601 -12.0257 29.487801
8.0655603 -12.2203 28.5949
8.7118998 -11.5427 28.691999
7.93823 -12.3957 27.633101
8.5275803 -11.7544 27.680401
11.054 -9.9556904 32.678398
10.2675 -10.1112 32.113998
10.5117 -10.0756 32.435902
7.5213799 -12.6909 30.7978
7.55933 -12.8284 30.193199
7.5295501 -12.972 29.424801
6.77918 -14.0028 30.7642
6.8677001 -14.0215 30.1901
6.90484 -14.061 29.447901
6.9117999 -14.1065 28.6266
7.4723401 -13.0925 28.5755
6.90553 -14.1695 27.728901
7.4054499 -13.2045 27.655399
9.48773 -10.4134 31.7705
8.7291002 -10.8764 31.511499
9.8078203 -10.335 32.105499
8.9677601 -10.7267 31.7801
6.00282 -15.5985 30.775299
6.2456398 -15.3434 30.252899
6.33323 -15.2837 29.533899
7.92697 -11.7409 31.237101
7.2562399 -12.856 31.0791
6.4756999 -14.2617 31.083099
7.5027699 -12.0836 31.1444
6.8112798 -13.2173 31.108101
6.0580301 -14.5906 31.2062
5.9277601 -16.437599 28.915701
6.3855801 -15.2556 28.740101
5.9920702 -16.278299 28.0438
6.4238501 -15.2186 27.869101
5.4377499 -17.938499 29.1422
5.6578498 -17.4897 28.230101
5.2429199 -16.031799 31.4688
8.1535702 -11.2759 31.302999
5.2569199 -20.225201 27.8915
5.5220599 -20.8859 28.177401
6.0282402 -21.634899 28.492701
6.7214298 -22.3799 28.875401
7.4558201 -23.0177 29.370001
6.0637298 -16.1213 27.0884
5.7369399 -17.114201 27.235399
5.51723 -18.2568 27.389
5.2711301 -19.3468 27.613899
6.8906398 -14.2469 26.768299
6.4601102 -15.1756 26.9177
9.0113001 -11.5194 26.688299
8.3554096 -11.96 26.6259
7.8169899 -12.5739 26.618299
7.3365502 -13.3446 26.668301
12.339 -12.1587 27.6633
11.5876 -11.5863 27.3048
10.7188 -11.2905 26.9993
9.8251495 -11.2807 26.801701
11.2786 -22.942499 29.091299
11.874 -22.524 29.1084
12.4355 -21.945601 29.1049
12.9467 -21.209999 29.048599
13.3851 -20.277 28.958599
9.8946304 -23.3846 29.1448
10.6531 -23.225201 29.0952
13.7184 -19.199499 29.0002
13.9311 -18.137501 29.139099
13.903 -16.795799 28.890499
13.6354 -15.4708 28.399
13.2784 -14.1266 28.072599
12.8646 -12.9661 27.8799
13.2288 -13.2412 29.4818
8.29667 -23.374001 29.5061
9.0849304 -23.4182 29.2616
8.4784298 -28.9354 42.877499
7.1519299 -26.6003 37.348999
9.1025696 -29.2922 45.059601
9.1244202 -28.5303 43.257401
14.4697 -14.9169 38.391602
14.3178 -13.9447 38.0257
14.543 -19.8444 39.922401
14.6212 -18.5298 39.566601
14.6117 -17.235201 39.171799
14.5624 -16.019199 38.7747
14.3571 -21.000099 38.827999
14.3238 -21.144899 40.2089
14.3607 -20.842699 37.475601
13.676 -13.5917 31.238899
5.63661 -15.8588 31.1591
7.9033499 -22.761101 28.000601
6.9500198 -22.0832 27.463301
6.20189 -21.3416 27.101
7.9286299 -22.240101 26.0958
7.1248102 -21.7292 25.8771
6.4296498 -21.045 25.6315
7.7656798 -21.840599 24.4862
7.0113301 -21.354601 24.378
6.3607001 -20.6938 24.240101
5.4567299 -19.6276 26.589001
5.6931801 -20.5089 26.8248
9.7432003 -22.9557 27.617599
8.8963604 -22.9401 27.738501
9.5127897 -22.5609 26.062901
8.7395496 -22.4893 26.0998
9.3347397 -22.2883 24.565399
8.5564499 -22.143999 24.537701
5.49894 -18.7652 26.3962
5.58918 -17.808701 26.2684
5.6111698 -19.362301 25.292601
5.5387702 -18.454201 25.184799
5.6673999 -17.468901 25.100201
5.6166601 -19.0963 24.061501
5.57481 -18.172899 23.980801
5.7446699 -17.2386 23.939501
6.1539402 -15.934 26.104601
5.8309498 -16.8181 26.169001
5.9123302 -20.226601 25.4275
5.8845 -19.9408 24.1446
5.9619198 -16.517 25.0793
6.3207698 -15.6109 25.147301
6.0908499 -16.245501 23.9433
6.5767798 -15.1393 24.052299
6.86274 -14.3622 25.820801
6.49898 -15.1355 25.938101
7.2673898 -13.5514 25.663401
7.7147498 -12.7691 25.5851
6.76331 -14.6444 24.9884
7.1888099 -13.8185 24.694
7.6470799 -13.0243 24.5497
7.1123099 -14.1063 23.685101
7.6043701 -13.2739 23.504299
8.8387899 -11.7154 25.5802
8.2191 -12.1617 25.559299
9.6207705 -11.4521 25.6355
10.4862 -11.4195 25.7444
8.7339897 -11.9039 24.4876
9.4830799 -11.6248 24.495199
10.3122 -11.5647 24.534201
8.6778097 -12.1173 23.393299
9.3905296 -11.8095 23.371
10.1787 -11.7303 23.358999
12.0492 -12.1567 26.1359
11.3276 -11.6581 25.9217
8.1382999 -12.3661 24.499599
8.1007404 -12.6107 23.4252
12.927 -19.919201 24.5466
13.0548 -19.903601 25.7645
13.2532 -19.7356 27.1098
12.5139 -20.6259 24.642799
12.6371 -20.7073 26.031799
12.7866 -20.851 27.464899
11.9854 -21.258699 24.657
12.1087 -21.3985 26.104799
12.2584 -21.6194 27.580299
11.0726 -22.5818 27.5753
11.6831 -22.18 27.593
13.7042 -17.066 27.597099
13.5753 -18.476299 27.3867
13.4784 -16.568501 25.795601
13.4888 -17.837601 25.8321
13.3464 -18.8745 25.655199
13.304 -16.183201 24.2048
13.4007 -17.381901 24.343
13.3476 -18.403 24.3799
11.5202 -21.9252 26.0996
10.8908 -22.286699 26.070801
11.3891 -21.753201 24.634899
10.7458 -22.097799 24.6096
10.4323 -22.836901 27.5755
13.0276 -13.9852 26.6052
13.4224 -15.4026 26.9956
12.8178 -13.9506 25.1411
13.2122 -15.1596 25.473101
12.6237 -13.9423 23.7017
13.0212 -15.0047 23.9629
12.5934 -12.9244 26.348801
11.8252 -12.2237 24.7404
12.3729 -12.9663 24.899599
11.6395 -12.3643 23.415701
12.1788 -13.0486 23.518999
11.1212 -11.7614 24.617599
10.9552 -11.9177 23.3685
10.2263 -22.494499 26.052799
10.0637 -22.275499 24.587601
7.2589698 -21.6567 14.8091
7.9878602 -22.0158 14.7431
8.7126198 -22.205299 14.6472
7.3085399 -21.5928 15.8714
8.0463495 -21.9627 15.792
8.7781096 -22.159 15.6883
7.3640399 -21.5406 17.042
8.1132402 -21.917101 16.9603
8.8547602 -22.119499 16.8612
10.0483 -22.0963 14.3963
9.3931799 -22.2339 14.5301
10.0171 -22.1714 13.5519
9.3511801 -22.3036 13.6772
8.6665001 -22.2726 13.7776
10.009 -22.281601 12.8522
9.3306999 -22.4049 12.9614
8.6403103 -22.3661 13.0353
6.0398302 -20.4202 14.7949
6.5847702 -21.1213 14.8331
6.0826201 -20.3326 15.9124
6.6297698 -21.044701 15.9158
6.1255398 -20.273399 17.1136
6.67805 -20.9872 17.0958
7.94491 -22.0882 13.8528
7.2210698 -21.7411 13.8945
7.9197502 -22.182699 13.0804
7.1991701 -21.8442 13.0908
5.5969501 -18.653601 14.5333
5.6957502 -19.577499 14.6836
5.6279302 -18.5431 15.7711
5.73488 -19.481199 15.8556
5.64609 -18.490299 17.058399
5.76966 -19.425301 17.093599
6.5483298 -21.221001 13.8885
6.00315 -20.535601 13.8049
6.52771 -21.338499 13.0516
5.9823399 -20.672899 12.9255
6.1503801 -16.8391 14.1696
5.76402 -17.717699 14.3733
6.1633201 -16.6413 15.5326
5.7825198 -17.577499 15.6773
6.1593099 -16.440599 17.139799
5.77703 -17.503901 17.0473
5.66014 -19.7066 13.6253
5.5635099 -18.795401 13.3925
5.6361799 -19.863899 12.6709
5.51929 -18.946699 12.2515
7.2591801 -15.4571 13.5972
6.6841102 -16.077801 13.893
7.28899 -15.1451 14.8679
6.7070799 -15.8195 15.2043
7.3348699 -14.8241 16.217199
6.75138 -15.5391 16.5912
5.7452002 -17.878599 13.2173
6.1392798 -17.0392 13.0116
5.74122 -18.010099 12.1962
6.1431398 -17.214899 12.011
8.2910404 -14.6393 13.1234
7.7880201 -14.9846 13.3412
8.3275499 -14.2557 14.3774
7.8212199 -14.6304 14.5955
8.3752604 -13.8751 15.7462
7.8645401 -14.2765 15.9503
6.67133 -16.3286 12.7549
7.2413998 -15.758 12.4845
6.66926 -16.556601 11.7658
7.2322402 -16.030701 11.5084
9.3514996 -14.2865 12.7716
8.8083401 -14.4015 12.9315
9.4036198 -13.8887 14.0343
8.8515396 -14.0029 14.19
9.4814901 -13.4913 15.4287
8.9121799 -13.6067 15.5732
7.7684498 -15.3238 12.2418
8.2718897 -15.0028 12.0286
7.7592201 -15.6278 11.2736
8.2671604 -15.3248 11.0658
10.4613 -14.5157 12.5979
9.9158897 -14.3179 12.6554
10.5279 -14.1614 13.855
9.9767599 -13.9358 13.9187
10.6322 -13.8093 15.251
10.0707 -13.5542 15.3181
8.7893896 -14.7749 11.84
9.3312902 -14.6563 11.6847
8.7891102 -15.1033 10.8843
9.3325996 -14.9804 10.7377
10.696 -21.7897 14.2499
11.2935 -21.3344 14.0995
10.1036 -22.048599 15.4408
10.7386 -21.738501 15.3066
11.327 -21.2791 15.1722
10.1766 -22.013599 16.642401
10.8025 -21.7024 16.5287
11.3844 -21.2388 16.414
12.1715 -20.0802 13.8005
11.7909 -20.7565 13.9515
12.1512 -20.1691 12.9021
11.7814 -20.8388 13.0739
11.2861 -21.415001 13.2399
12.1579 -20.2726 12.1461
11.7996 -20.9429 12.3415
11.3056 -21.5245 12.5273
9.4573603 -22.188801 15.5695
9.53578 -22.152599 16.754
10.679 -21.8685 13.4026
10.6872 -21.981001 12.7027
12.4233 -19.3277 13.6374
12.5198 -18.512899 13.4515
12.2154 -20.007799 14.9056
12.4809 -19.237499 14.7587
12.5899 -18.3974 14.5916
12.2828 -19.946301 16.176001
12.5606 -19.1563 16.042
12.6813 -18.2904 15.8901
12.2023 -16.8221 13.0243
12.4404 -17.6574 13.2392
12.1513 -17.0172 12.032
12.3878 -17.817801 12.2718
12.4728 -18.641701 12.5092
12.1167 -17.2034 11.1696
12.3544 -17.976999 11.4352
12.4484 -18.7756 11.7012
11.8254 -20.694799 15.0406
11.8844 -20.6467 16.298
12.3886 -19.431999 12.7177
12.3792 -19.546 11.9366
11.8384 -16.067801 12.8356
11.4057 -15.418 12.6927
12.2792 -16.6348 14.2092
11.911 -15.836 14.0405
11.4741 -15.1412 13.9163
12.3817 -16.4592 15.5462
12.0146 -15.6153 15.3936
11.5787 -14.8726 15.2846
10.9519 -14.8907 12.611
10.4342 -14.8433 11.529
10.9216 -15.1876 11.5578
11.3705 -15.6817 11.6584
10.4274 -15.1324 10.6025
10.9087 -15.4509 10.6453
11.3502 -15.9181 10.761
12.517 -17.5093 14.4014
12.6159 -17.371599 15.7191
11.7948 -16.297501 11.8212
11.7659 -16.5089 10.9394
11.0196 -14.5722 13.8534
11.1259 -14.2586 15.2375
9.89252 -14.671 11.5756
9.8910904 -14.9815 10.638
12.7908 -18.187201 17.282801
12.91 -18.092699 18.7069
12.6606 -19.0784 17.422001
12.7732 -19.0077 18.835699
12.3732 -19.889799 17.5446
12.4805 -19.8384 18.9468
12.5968 -19.7946 20.334801
12.8893 -18.952299 20.236401
13.0305 -18.0207 20.116199
12.7125 -19.7708 21.7272
13.0044 -18.9527 21.6472
13.1491 -18.010599 21.529499
12.8625 -17.1206 18.5613
12.7331 -17.240601 17.127001
12.6479 -16.149 18.4109
12.5062 -16.297001 16.9688
12.3011 -15.2366 18.272699
12.1469 -15.416 16.8274
11.8812 -14.4171 18.174801
11.7173 -14.6317 16.7279
12.9978 -17.024799 19.975901
12.802 -16.024 19.825001
13.1365 -16.993099 21.394899
12.9654 -15.9586 21.2409
11.9669 -20.6045 17.6542
12.0686 -20.566099 19.042101
11.4634 -21.2043 17.753799
11.5607 -21.172501 19.1227
11.6707 -21.1429 20.4692
12.1825 -20.530701 20.4118
11.7787 -21.115299 21.8102
12.2957 -20.501801 21.781099
11.4337 -13.7213 18.140499
11.2668 -13.9749 16.690901
10.9271 -13.1951 18.1649
10.7672 -13.4861 16.712601
12.4702 -15.0797 19.679399
12.0603 -14.2265 19.571501
12.6491 -14.9723 21.073999
12.2467 -14.0758 20.936701
11.8065 -13.3055 20.868999
11.6173 -13.4954 19.5298
11.2876 -12.7105 20.8657
11.105 -12.935 19.5485
13.2643 -18.149799 22.9786
13.2763 -17.0928 22.853399
13.1347 -15.9931 22.698
12.8239 -19.825001 23.1616
13.1131 -19.053699 23.0947
13.197 -19.2201 24.503
10.6429 -22.007299 23.2183
9.9598598 -22.157101 23.2015
9.2293301 -22.131399 23.176201
10.5535 -21.9499 21.858601
9.8813 -22.084801 21.861401
9.15938 -22.0373 21.855101
8.3792601 -21.823099 21.8431
8.4486198 -21.943199 23.142
7.5940199 -21.460199 21.834
7.66118 -21.586 23.089399
10.4538 -21.9184 20.5403
9.7953997 -22.0448 20.5669
9.0875101 -22.001101 20.5954
10.3539 -21.945801 19.2495
9.7073498 -22.0741 19.305901
9.0122004 -22.0313 19.3638
11.2873 -21.669901 23.224501
11.1911 -21.620199 21.8423
11.8802 -21.1604 23.2146
11.0851 -21.6127 20.51
10.9788 -21.6397 19.190201
12.4025 -20.524599 23.195
6.8701901 -20.959101 21.8279
6.9241099 -21.059799 23.017599
6.26897 -20.3172 21.813801
6.3084898 -20.464701 22.9862
8.3154602 -21.800501 20.6285
7.5359201 -21.440201 20.659599
8.24928 -21.8265 19.424801
7.4776502 -21.4559 19.480801
6.77319 -20.919201 19.5221
6.82131 -20.9198 20.680901
6.2006001 -20.236099 19.5439
6.2350302 -20.2577 20.689501
10.2607 -21.9788 17.934
9.6199598 -22.1127 18.0201
8.9338598 -22.0746 18.1056
8.18155 -21.8694 18.189699
7.4205198 -21.493 18.2631
10.8833 -21.6698 17.8461
6.72577 -20.944099 18.315599
6.1646399 -20.241501 18.3412
10.0625 -11.955 22.182899
10.8034 -12.115 22.1458
11.4642 -12.524 22.1399
9.9432096 -12.1997 20.9788
10.6493 -12.3348 20.909401
11.9928 -13.1593 22.1868
12.4345 -13.9813 22.305099
9.8148603 -12.4752 19.7005
10.4876 -12.5901 19.6119
9.6885099 -12.7825 18.3342
10.3298 -12.8796 18.235001
9.3170004 -12.0509 22.2316
9.2401199 -12.3083 21.0539
8.6392803 -12.3645 22.2812
8.5975904 -12.6216 21.1252
8.5433197 -12.8938 19.889799
9.1521301 -12.589 19.7959
8.48351 -13.1895 18.5667
9.06252 -12.8973 18.446899
8.0764799 -12.8526 22.3314
8.0499697 -13.0962 21.1912
7.5781102 -13.4999 22.4133
7.5530601 -13.7142 21.273701
12.8337 -14.9433 22.496599
9.5768003 -13.1211 16.8881
10.1894 -13.2007 16.782499
8.9824104 -13.2363 17.0175
8.42729 -13.5173 17.1658
7.9633698 -13.625 18.694099
7.9131699 -13.9369 17.3356
7.4623299 -14.1939 18.85
7.3972998 -14.4975 17.5553
8.0111103 -13.3487 19.9813
7.5152998 -13.9377 20.087999
5.7911301 -17.092501 22.787399
6.1399002 -16.1507 22.754801
6.5921202 -15.1956 22.707899
5.8083401 -17.009199 21.6572
6.1440802 -16.138901 21.5921
6.5777302 -15.2811 21.5051
7.0581899 -14.4575 21.388399
7.0837898 -14.2922 22.5511
5.9293699 -16.7316 18.4317
5.8221698 -16.8974 19.4862
6.3471899 -15.8871 18.2752
6.09901 -16.217199 19.370899
6.47717 -15.5641 19.2777
6.5392399 -15.3982 20.365101
6.12397 -16.1646 20.469999
5.8085699 -16.953501 20.5574
5.6512899 -17.6982 19.497299
5.7087798 -17.5863 18.3221
5.6308599 -18.571501 19.5256
5.6421599 -18.509899 18.321301
5.8133898 -19.437201 19.5441
5.7946801 -19.414301 18.338499
5.6305399 -17.7875 20.615801
5.6276202 -18.6434 20.6593
5.62292 -17.877001 21.7143
5.6266098 -18.732599 21.761
6.8509998 -15.1841 17.8585
6.9488702 -14.8729 19.0513
5.8303699 -19.483299 20.6833
5.8459702 -19.564899 21.794701
5.6047702 -17.992901 22.8291
5.6220899 -18.879299 22.885
5.8635802 -19.726801 22.942301
7.0162201 -14.6401 20.2236
8.6325903 -22.4867 12.3554
9.3285503 -22.538799 12.3115
10.0195 -22.427099 12.2184
7.1959901 -21.9622 12.3426
7.9126701 -22.2978 12.3659
10.7159 -22.1271 12.0648
11.3484 -21.6612 11.873
5.9848599 -20.824699 12.1221
6.5284801 -21.466999 12.2744
10.4171 -15.3796 9.7600498
9.8914299 -15.2428 9.7897701
9.34095 -15.2489 9.8844805
11.3247 -16.1199 9.9359398
10.89 -15.6766 9.8118801
8.7982702 -15.3722 10.0239
8.2708902 -15.5877 10.1981
12.0852 -17.363899 10.36
11.7347 -16.688601 10.1193
12.4429 -18.9032 10.9483
12.3323 -18.120199 10.6503
12.1911 -20.3857 11.45
12.3941 -19.6621 11.2141
11.8435 -21.065599 11.6676
6.1688299 -17.339001 11.1198
5.7660298 -18.025499 11.3172
5.5085001 -18.6882 11.3688
7.2281599 -16.2561 10.6291
6.6793799 -16.7418 10.8765
5.4554501 -19.3699 11.4955
5.6293898 -20.078699 11.8538
7.7552199 -15.8777 10.4009
6.2024598 -18.392401 3.9649501
6.2462201 -18.5243 3.5638399
6.07374 -18.855301 3.1660099
5.99156 -18.567699 3.8012099
6.03304 -18.644501 3.56494
5.9639602 -18.804399 3.3467901
5.9212599 -18.619499 3.7325699
5.9302502 -18.686199 3.5685
5.9116602 -18.781099 3.41347
5.6192799 -18.7749 4.0782099
5.8824 -18.565901 4.1058998
5.6893501 -18.754 3.8519599
5.84093 -18.627399 3.8959501
5.7191701 -18.7423 3.76208
5.8205099 -18.666599 3.7674401
9.7190704 -16.5278 4.7810702
9.6099396 -16.4426 5.06109
9.60221 -16.358 5.3371201
9.7061701 -16.398001 4.8507099
9.6812601 -16.351601 5.11519
9.6931801 -16.301701 5.3699002
9.8057499 -16.3099 4.90063
9.8092499 -16.2729 5.1563301
9.8232498 -16.2502 5.3964701
9.6601601 -16.2899 5.5349002
9.7905998 -16.256201 5.6666098
9.8192997 -16.2542 5.5534701
10.0059 -16.259001 5.7427001
10.2182 -16.304399 5.7462902
10.0201 -16.2495 5.6018
10.2135 -16.2941 5.60568
10.0186 -16.2418 5.4241099
10.2062 -16.287399 5.4303598
10.3411 -16.3797 5.63521
10.3806 -16.475901 5.4193401
10.3155 -16.3787 5.4319801
10.3462 -16.5583 5.11094
10.2205 -16.607901 4.80165
10.2991 -16.437 5.1564202
10.2524 -16.4807 4.8745599
10.195 -16.319 5.1792798
10.1739 -16.363199 4.91571
10.1533 -16.4245 4.7137198
10.1587 -16.5294 4.67313
10.1183 -16.4629 4.6122999
10.0066 -16.2596 5.1784601
9.9939804 -16.2999 4.9152999
9.9887695 -16.3627 4.7019801
9.9872599 -16.4387 4.5949602
9.8168898 -16.3699 4.7034898
9.8541498 -16.4181 4.6057601
9.7971096 -16.469999 4.66155
5.723 -19.0861 3.2505801
5.50457 -19.1611 3.4161601
5.7898302 -18.9508 3.3303499
5.64011 -19.0063 3.4437001
5.7979398 -18.865801 3.41663
5.6890998 -18.928301 3.4679201
5.5141702 -18.990101 3.71313
5.6164198 -18.9065 3.65254
5.68783 -18.8407 3.6161499
5.8062 -18.758101 3.58759
11.3604 -17.175699 5.6394401
11.0663 -16.929001 5.3042998
10.8654 -16.8151 5.07723
11.2698 -17.013399 6.1665902
10.9802 -16.7999 5.6943498
10.7555 -16.7225 5.2589598
11.1004 -16.793501 6.6336799
10.8243 -16.6535 5.9965401
10.6035 -16.607401 5.4960098
10.7206 -16.4991 6.4732199
10.3523 -16.3151 6.2573199
11.1319 -16.711201 7.2739701
10.7262 -16.3955 7.0652399
10.2911 -16.1758 6.85883
11.144 -16.5765 7.8175502
10.7197 -16.240801 7.67384
10.1837 -15.9815 7.5309701
9.4686899 -16.1984 5.98912
9.9157305 -16.199499 6.1782999
9.6927004 -16.2439 5.7792501
9.9713802 -16.249701 5.90099
10.251 -16.3148 5.9116101
11.6953 -17.565399 6.0362
11.6123 -17.389299 6.65556
11.4883 -17.146099 7.1833
12.0168 -18.0851 6.4237499
11.9468 -17.883699 7.1157799
11.8533 -17.5979 7.8591499
10.5426 -16.475 5.9274502
10.772 -16.893801 4.7021499
11.064 -17.0709 4.8381801
11.4062 -17.3375 5.0970001
10.5498 -17.0068 4.2413301
11.0209 -17.2348 4.3694301
11.4319 -17.519199 4.5808702
9.4142103 -16.795 4.2397299
9.1467199 -16.6243 4.6224999
9.0146704 -16.5238 4.9092598
9.5899096 -16.6989 4.43502
9.3446598 -16.565201 4.7462802
9.1375799 -16.4655 5.0788398
9.6528301 -16.636299 4.6083398
9.45646 -16.5161 4.9075999
9.3059902 -16.3951 5.30761
9.8403397 -16.079399 6.6454101
9.3748798 -16.0748 6.47679
9.7285299 -15.9407 7.1456299
9.3026505 -15.9561 6.9567699
8.8198996 -16.0336 6.9285498
8.88311 -16.1408 6.4190202
8.9985304 -16.248301 5.9540501
8.3048296 -16.1947 7.01617
8.3656502 -16.289499 6.4724498
8.4835196 -16.392 5.9074502
8.9551697 -16.362801 5.5645099
9.3297701 -16.2918 5.64926
9.5056 -16.382 5.3223801
9.5500698 -16.2953 5.58077
9.2895803 -15.7779 7.8852
9.7255001 -15.8079 7.7410698
9.2971096 -15.8696 7.40868
11.4967 -16.996901 7.8737102
11.9665 -17.577499 8.7694502
11.6104 -16.952 8.58708
11.2144 -16.4529 8.4550505
12.0405 -17.4916 9.5715799
11.687 -16.837799 9.3376703
11.2811 -16.295601 9.1671801
10.8498 -15.8777 9.0426302
10.783 -16.067301 8.3329897
10.3848 -15.598 8.9864798
10.3129 -15.8008 8.2658901
12.2792 -18.716499 6.7940502
12.2397 -18.5532 7.5362701
12.2223 -18.4055 8.3061199
12.4515 -19.399799 7.1700702
12.4274 -19.2729 7.9282699
12.421 -19.179701 8.6997299
11.7597 -17.7237 5.4098301
12.0876 -18.2654 5.7725701
11.8219 -17.9102 4.8197198
12.1676 -18.4491 5.1111102
12.434 -19.148001 5.4553599
12.3476 -18.915501 6.1001101
12.5862 -19.8428 5.7522101
12.5086 -19.5958 6.4427099
10.5467 -17.1943 3.8865099
11.0287 -17.423901 3.9804001
11.4755 -17.7369 4.1244998
10.5726 -17.3587 3.6060801
11.0678 -17.620899 3.6431501
11.5371 -17.9769 3.7124
9.9960003 -16.9111 4.1083102
9.4630003 -16.955601 3.9263699
10.0161 -17.044399 3.8615799
9.4944496 -17.086399 3.6775899
10.0432 -17.18 3.62131
10.6004 -16.771999 4.79703
10.3761 -16.834801 4.4300799
10.4871 -16.689699 4.9589701
10.3005 -16.7456 4.60851
11.795 -22.028 8.3544502
11.4326 -22.4594 8.4833403
11.0063 -22.774099 8.5445604
11.8238 -22.1521 7.6241698
11.3815 -22.6238 7.7424502
10.8732 -22.893 7.8180699
11.8512 -22.369801 6.6690502
11.3134 -22.6991 6.93467
10.7081 -22.9648 6.9277802
11.1836 -22.5229 9.1124601
11.6885 -22.030199 8.9593601
11.4346 -22.128 9.6463804
10.4768 -23.013201 8.6782398
10.6225 -22.8134 9.3347397
10.7388 -22.6 9.9775105
9.8839397 -23.1682 8.7989502
9.9846497 -23.0348 9.4813004
10.0419 -22.878401 10.1626
10.0515 -22.733 10.8764
10.7621 -22.438101 10.703
11.4174 -21.957399 10.4741
10.0381 -22.584801 11.5763
10.7477 -22.2854 11.4143
11.3921 -21.8092 11.2076
11.6367 -22.627399 6.0360699
11.2246 -22.8043 6.2307501
10.7836 -22.981001 6.2432799
11.5066 -22.844801 5.6110301
11.1471 -22.984699 5.7522402
10.7782 -23.122299 5.84549
12.1234 -22.4744 5.2909002
12.0407 -22.362301 5.8582101
11.8297 -22.680901 5.4844699
11.9661 -21.3899 9.5419903
12.0642 -21.387199 8.8440199
12.1395 -21.4126 8.1619596
12.2989 -20.646799 9.3261499
12.3506 -20.6702 8.5970898
12.3999 -20.719999 7.87079
9.2946501 -23.236799 8.8586702
9.3503599 -23.1194 9.5506496
9.3662004 -22.9758 10.2425
8.7093096 -23.2211 8.8549805
8.7178097 -23.0711 9.5503302
8.69168 -22.918301 10.2375
10.3256 -23.087601 7.96521
9.7615204 -23.2176 8.0872803
10.1498 -23.129999 7.1937699
9.6157303 -23.2418 7.3313398
12.5076 -21.0973 6.3702202
12.6139 -20.482201 6.0669799
12.4488 -20.8624 7.1314602
12.5495 -20.232201 6.7933102
12.5012 -20.0576 7.53335
12.2456 -18.6943 4.5215101
12.5186 -19.3925 4.8313699
12.6801 -20.1444 5.0962901
12.3248 -18.9755 3.98299
12.6051 -19.6577 4.2132802
12.8079 -20.5385 4.3989
11.8898 -18.1514 4.2934098
11.9627 -18.4242 3.81779
12.6953 -20.803801 5.35953
12.5827 -21.4182 5.5932798
12.7891 -21.2057 4.6743202
12.6575 -21.7745 4.8534799
8.7162704 -16.550699 5.0023999
8.7636404 -16.672701 4.6602998
8.8645897 -16.814899 4.31283
8.2794704 -16.650499 5.1287198
8.2976503 -16.7722 4.7701802
8.3479795 -16.902599 4.4281702
8.3846703 -17.0373 4.11761
8.9163303 -16.9531 4.0163002
8.4057999 -17.170799 3.83041
8.9454098 -17.082199 3.75477
9.9864998 -16.800301 4.3118501
9.9773598 -16.7237 4.49441
9.3553305 -22.8335 10.958
9.3391104 -22.6875 11.6594
8.6610098 -22.7696 10.9584
8.64048 -22.624599 11.6768
7.2094798 -22.0912 11.5961
7.9218702 -22.428499 11.6516
7.9461899 -22.570499 10.8999
7.2320499 -22.231001 10.803
7.9897399 -22.7281 10.1507
7.23979 -22.4011 9.9345398
6.5581498 -21.856001 9.95467
6.5717101 -21.7363 10.7264
6.5474601 -21.6019 11.5099
6.02741 -21.2822 9.8215303
6.0310702 -21.141199 10.5757
6.0055599 -20.9839 11.35
8.1232204 -23.1043 8.8092203
8.0805702 -22.916901 9.48489
7.5904102 -22.924601 8.7416
7.4972401 -22.714399 9.3370304
9.20823 -23.277399 8.1479101
8.6583204 -23.2701 8.1412296
9.0971298 -23.299101 7.39575
8.58146 -23.300301 7.3905201
7.14992 -22.701799 8.7313204
6.9322701 -22.3741 9.27106
6.7361698 -22.4109 8.6706696
6.2979498 -22.0026 8.5928802
6.43894 -21.924101 9.2621803
5.8779802 -21.5166 8.4208002
5.9685898 -21.3997 9.1117802
8.10324 -23.202299 8.0751495
7.5640502 -23.085501 7.9818702
8.0493698 -23.2442 7.29772
7.4755502 -23.128 7.0650802
9.4523897 -23.2708 6.6101999
8.9743795 -23.328899 6.6716099
8.5027905 -23.3344 6.68085
9.2845602 -23.4475 6.1437402
8.8359404 -23.4713 6.21734
8.3959398 -23.453899 6.2445798
10.3429 -23.1101 6.3200998
9.9328003 -23.1905 6.49793
10.1144 -23.3214 5.9777699
9.7223396 -23.3958 6.0599699
8.27421 -15.7877 9.42101
8.8052702 -15.5824 9.2543497
9.3420095 -15.4674 9.1188202
8.2709799 -15.9289 8.7347002
8.80161 -15.7402 8.5782099
9.3244896 -15.6441 8.4469404
8.2688103 -16.033199 8.1257095
8.7938604 -15.86 7.9878402
9.8759899 -15.466 9.0198002
9.8271999 -15.6592 8.3312702
12.2616 -18.322901 9.1019402
12.3049 -18.2363 9.8801804
12.4301 -19.1001 9.4621401
12.441 -19.013399 10.2104
12.2319 -20.496 10.7631
12.4169 -19.768 10.5059
12.4328 -19.8535 9.7830095
12.2636 -20.5882 10.0527
12.4481 -19.9181 9.0410995
11.8911 -21.1933 10.9922
12.1953 -21.526501 7.4289398
12.2585 -21.7404 6.61028
12.353 -22 5.7583098
12.4148 -22.155199 5.0902901
10.4583 -23.223301 5.9317598
6.33989 -17.807699 5.9598999
6.3161101 -17.740999 6.5662498
6.2893901 -17.6745 7.2014699
6.7904 -17.4505 5.7122798
6.7735701 -17.3601 6.2536898
6.7601199 -17.2854 6.8478198
7.2966299 -17.1138 5.4793401
7.2942901 -17.0124 5.9548602
7.2916198 -16.923 6.4777999
7.2808399 -16.837999 7.0310202
6.7620902 -17.1868 7.4407401
6.2857399 -17.576 7.8664098
7.2778001 -16.744699 7.5402498
6.8188801 -17.0369 7.95578
6.3539 -17.4126 8.5887098
5.8617501 -18.0252 8.9847298
5.8850698 -18.0394 8.2150402
5.9238501 -18.065001 7.4973001
5.5287499 -18.622999 9.28123
5.5987902 -18.485901 8.41926
5.6634598 -18.4335 7.72294
5.96907 -18.108801 6.8381901
5.9976702 -18.1462 6.1971102
5.7125201 -18.4408 7.0533199
5.7424898 -18.4701 6.4229698
5.3597698 -19.158701 8.1177502
5.3716402 -19.065399 7.3678298
5.3769698 -19.0434 6.7599802
5.27879 -19.4459 7.6724701
5.2663598 -19.3239 6.9851999
5.2111201 -19.6478 7.2135901
5.2967901 -19.1063 5.5590401
5.3495202 -19.0868 6.18258
5.4816399 -18.8027 5.34484
5.5198102 -18.777599 5.9714499
5.53655 -18.761 6.5991101
5.7047901 -18.5516 5.1798501
5.7361102 -18.4874 5.7779102
5.4166698 -18.9443 8.7804203
5.4124398 -19.0884 9.96626
5.3775902 -19.356899 9.3638897
5.34061 -19.602301 8.7061701
5.4384999 -19.535601 10.6695
5.4453201 -19.8641 9.9025497
5.4278998 -20.110701 9.1805296
5.3875699 -20.314199 8.5057497
5.2876902 -19.8354 8.1105204
5.3342299 -20.495899 7.8555298
5.22786 -20.0364 7.5309601
5.5179501 -18.7554 7.2458901
5.4837899 -18.762199 7.94979
7.7985001 -16.840799 5.28543
7.8214698 -16.7295 5.7026
7.8513198 -16.6227 6.1665001
8.3382998 -16.5333 5.4954
6.3531599 -17.905001 5.4159198
6.8080401 -17.562901 5.2276001
7.3139601 -17.2292 5.0501499
6.3378401 -18.036501 4.9161601
6.80865 -17.6989 4.7828798
7.33146 -17.3585 4.6549902
6.0028601 -18.207399 5.59723
5.9775901 -18.312 5.0439801
6.2469101 -17.445 9.4826498
5.83179 -18.0214 9.7697802
5.5422101 -18.585199 10.0688
6.2041502 -17.414301 10.2946
5.8036599 -18.0193 10.5315
5.5341601 -18.575701 10.7075
5.4170799 -19.0016 10.7655
7.0734 -22.870199 7.9822001
6.61308 -22.542801 7.9625001
6.9591799 -22.9527 7.15698
6.49821 -22.709801 7.1525102
5.5506401 -21.000999 8.1640701
5.6121898 -20.848801 8.8489199
5.6525302 -20.685301 9.5566597
5.6576099 -20.4925 10.3035
5.6414299 -20.275 11.0724
6.1746802 -22.1269 7.8773799
5.7887001 -21.6472 7.7128
6.07411 -22.2854 7.0981202
5.71385 -21.799601 6.9648099
5.43717 -21.283701 6.7629099
5.4892998 -21.139799 7.4760098
5.2406001 -20.7773 6.5278602
5.28474 -20.642 7.20121
7.1609902 -23.08 6.3487201
6.76332 -22.9429 6.3783598
6.3373599 -22.745899 6.32761
6.9470801 -23.134899 5.88344
6.5643902 -22.9998 5.7941799
6.1622901 -22.7971 5.66429
7.5928602 -23.312201 6.0869098
7.5984902 -23.194201 6.4464898
7.2775402 -23.2283 6.00033
5.95714 -22.4793 6.23774
5.6321998 -21.9764 6.15347
5.8150802 -22.509001 5.4997201
5.5471301 -22.1724 5.3520498
8.0362701 -23.2785 6.61797
7.9739599 -23.390499 6.19558
11.9249 -21.309 10.2766
12.472 -19.9711 8.2847996
7.2406201 -16.677401 8.0114098
6.8010101 -16.9496 8.59412
7.24263 -16.5963 8.4999399
7.2235799 -16.534 9.1171904
6.7195601 -16.947001 9.2947102
7.2251201 -16.424999 9.8328199
6.6951599 -16.8745 10.0584
7.7825098 -16.443399 7.2315302
7.7537899 -16.370701 7.7642798
7.74336 -16.285801 8.30721
8.2774801 -16.1185 7.5664601
7.8190498 -16.527599 6.6922698
8.79772 -15.9482 7.4475498
7.7508602 -16.066299 9.6171598
7.7435598 -16.194799 8.9216604
5.3852 -21.433901 6.00247
5.19554 -20.8965 5.8124199
5.3319998 -21.5805 5.2428298
5.1356401 -20.962999 5.03824
4.9836302 -20.4426 5.0288601
5.05687 -20.4146 5.6529498
5.1196699 -20.3125 6.29351
4.91607 -19.9848 4.8332601
5.0054102 -19.9706 5.4698
5.0890598 -19.8857 6.0617599
5.17483 -20.185301 6.92308
5.1561098 -19.7759 6.6523499
7.8123102 -16.959 4.9000201
7.8435302 -17.085199 4.54073
8.7931004 -16.453899 5.2981801
7.33427 -17.498501 4.2799101
7.8652501 -17.219601 4.20398
7.32763 -17.643299 3.9241099
7.8758001 -17.356001 3.8864801
6.28546 -18.198999 4.4321599
6.7831001 -17.853701 4.3562002
6.7463799 -18.02 3.9492099
12.9688 -20.930099 3.1784401
13.0714 -21.509701 3.4475501
13.0856 -21.959299 3.7928801
13.0925 -21.6558 2.80669
13.1969 -22.2819 3.23369
13.1974 -22.7563 3.6134901
12.8122 -22.6427 4.4672198
12.9945 -22.301201 4.1326399
12.7221 -22.060801 4.4925699
12.8824 -21.650299 4.1621699
12.9563 -21.2174 3.8885
12.8849 -20.576401 3.7193999
12.6871 -19.902 3.61689
12.7784 -20.2672 3.0455201
12.4097 -19.2717 3.4644101
12.5033 -19.6178 2.95047
12.6083 -20.058701 2.44468
12.2441 -19.365999 2.46156
11.8157 -18.785101 2.5174899
12.1399 -19.017401 2.91308
11.706 -18.493099 2.9193599
11.2218 -18.0618 2.9492199
11.345 -18.332001 2.56336
10.6902 -17.724199 3.0025699
10.8151 -17.974199 2.6194301
12.5369 -22.9888 4.7772198
12.1902 -23.457899 5.0083499
12.906 -23.4788 4.29777
12.6412 -23.800301 4.5297899
12.3643 -24.1968 4.6379299
13.0975 -23.1467 3.96948
12.1505 -22.777901 5.0391302
12.4662 -22.4473 4.7832398
11.5137 -23.754 5.4212499
11.1926 -23.9522 5.5606699
10.8586 -24.138599 5.6879802
11.5642 -24.6388 5.1703
11.3052 -24.817499 5.34794
11.0257 -25.001499 5.5085101
10.0601 -24.6227 5.9166198
10.4933 -24.331699 5.8038998
10.0231 -23.818399 5.8497
10.406 -23.678301 5.7737098
10.7762 -23.519699 5.6835499
11.8338 -23.560499 5.26759
12.0745 -24.4664 4.75806
11.8218 -24.4949 4.9741302
11.1369 -23.348801 5.5746102
11.4849 -23.1717 5.4422102
5.7518101 -24.5735 5.0485601
5.82061 -23.6471 5.2271199
5.49261 -24.3113 4.7789202
5.3182802 -22.7414 4.2845702
5.5471401 -23.125601 4.8708401
5.44134 -22.224199 4.7162099
5.68784 -22.6705 5.0465102
6.0089898 -23.0354 5.3316698
9.1536903 -24.804399 6.0243001
8.67801 -24.730801 6.0733299
8.1784 -24.815901 6.09167
9.0063496 -25.7313 5.8681402
8.6632996 -25.6441 5.97967
8.29708 -25.748699 5.9983201
9.3265104 -25.7073 5.7683501
8.2800903 -23.967699 6.0577898
8.7315102 -23.983999 6.0387502
9.1828499 -23.9667 5.97755
7.3098502 -17.9314 3.2523401
6.7037902 -18.3627 3.19924
7.3192301 -17.7864 3.5868001
6.7343102 -18.177999 3.57196
5.2051201 -23.601299 4.0601101
5.1391301 -23.119801 3.6421101
5.1069598 -21.2582 3.5530901
5.2169399 -22.0658 3.8287201
5.13802 -21.1257 4.3766799
5.2832499 -21.733801 4.5571098
5.3520899 -23.888901 4.4872298
7.9139099 -25.6425 5.9412799
7.3930101 -24.3447 5.8572402
7.7518501 -24.5348 5.9846401
7.4928098 -23.711201 5.8987098
7.8622499 -23.8468 6.0019698
5.1287198 -22.5175 3.2896299
5.0984001 -21.752899 2.90659
5.1044302 -21.0291 2.7114999
5.0595102 -20.796101 3.1626501
5.1497202 -20.4496 2.6589501
5.0642099 -20.3869 2.9742401
4.9982901 -20.271999 3.24
4.9844599 -20.5623 3.4584
5.0180202 -20.7815 3.8410499
4.9314699 -20.1635 3.4819601
4.8993702 -20.3706 3.6461899
4.9238801 -20.5256 3.9409399
8.4295797 -17.428101 3.2709401
8.9915705 -17.3393 3.2216899
9.5631599 -17.3587 3.1479499
8.4415197 -17.562799 2.9763701
9.0201998 -17.481701 2.9318299
9.6129799 -17.520901 2.84533
9.5248098 -17.2162 3.4245801
8.9679403 -17.2087 3.4942801
8.4189796 -17.299801 3.55246
7.8775001 -17.621099 3.2806599
7.29951 -18.084101 2.9051199
7.8752398 -17.759399 2.9668
6.1395402 -19.050501 2.7058401
6.7101302 -18.533001 2.8092799
7.8787198 -17.488701 3.5831599
11.8209 -22.997299 5.25945
9.5927401 -24.6157 5.9579101
9.9354496 -25.5644 5.7649102
9.6004105 -25.525 5.7845502
10.3716 -25.4564 5.7237501
9.6139698 -23.894899 5.9148898
10.7115 -25.189501 5.6464901
7.0630798 -24.1912 5.7276402
6.6795301 -24.130899 5.5959501
7.2996802 -25.1619 5.6716599
7.0209699 -25.0242 5.4928899
6.7497301 -25.0261 5.3149099
7.6042299 -25.3538 5.8373899
6.8108401 -23.4555 5.66399
7.1626501 -23.5833 5.78548
12.8903 -20.8398 2.5311601
6.26689 -23.8325 5.4605298
6.09973 -24.6371 5.2383399
6.4267001 -24.879101 5.2785902
6.4108901 -23.268 5.5385799
5.6319299 -19.376801 2.94345
5.6771998 -19.5511 2.6247499
5.3153601 -19.7687 2.86643
5.3372898 -19.9713 2.61924
5.1399798 -20.079 2.8670199
5.9316902 -18.442101 4.5261502
5.6643701 -18.645399 4.6118002
4.9998498 -20.674601 4.3877802
11.6136 -18.2271 3.3155401
12.046 -18.7097 3.3627501
10.6172 -17.5291 3.32219
11.1333 -17.830999 3.3050699
10.1348 -17.49 3.06917
10.0799 -17.3248 3.3622601
10.2133 -17.686001 2.7356801
5.22119 -19.410101 6.4039798
5.1590199 -19.489799 5.8327699
5.0678301 -19.5163 5.1847501
5.2227302 -19.1416 4.9264002
4.9843302 -19.5681 4.5837202
5.1529799 -19.2208 4.3568001
5.3727198 -18.9708 4.2021599
5.4278498 -18.8631 4.7416201
4.8552499 -20.003201 4.3001199
4.9352002 -19.646999 4.1061301
5.10776 -19.3433 3.90975
4.8311701 -20.0369 3.8992
4.9189701 -19.733299 3.7887399
5.0811601 -19.4877 3.58341
5.2786598 -19.3076 3.49471
5.31952 -19.131599 3.7894499
4.8982501 -20.3514 4.4250498
4.85184 -20.2894 3.97052
5.4895501 -19.377501 3.13572
5.2463799 -19.6957 3.07673
5.3375401 -19.406799 3.2808101
5.1623001 -19.6626 3.25652
5.0829802 -19.990299 3.1076
5.0393801 -19.9349 3.3096001
10.4053 -16.4217 5.73453
10.4524 -16.538099 5.4317398
9.6883097 -16.5958 4.7318602
9.5433798 -16.489201 5.0026398
10.4027 -16.6332 5.0516
10.2514 -16.6891 4.7437301
9.9690104 -16.675301 4.6332898
9.9676399 -16.6154 4.68958
9.9769402 -16.5308 4.6270299
5.1514702 -19.523701 3.3724799
5.0178099 -19.629801 3.5257199
5.0784702 -19.6245 3.4100699
5.0855198 -19.7372 3.3784201
4.8558402 -19.9918 3.7630999
4.9202099 -19.794001 3.6705401
4.8489699 -20.1619 3.71175
4.9399099 -20.0639 3.5973001
4.8705201 -20.0877 3.7197001
5.0239801 -19.9168 3.4593999
8.0786896 -27.107201 -0.68243301
8.2130203 -26.966299 -0.69672298
8.36057 -26.8062 -0.69314301
8.2711 -27.2027 -0.70392299
8.4246998 -27.025101 -0.70129198
8.4919701 -27.256201 -0.68918997
8.2064199 -26.6551 -0.66617203
8.0937901 -26.782499 -0.66483802
7.9977498 -26.8958 -0.65054601
8.1008196 -26.5201 -0.63253897
8.0062199 -26.628 -0.62675101
7.9436002 -26.752501 -0.616696
7.9074798 -26.8999 -0.60775501
7.9432802 -27.1043 -0.63689798
7.8772702 -27.1017 -0.592219
8.0296698 -27.561199 -0.67022598
8.0500603 -27.3494 -0.67727399
8.1914597 -27.595501 -0.68787998
8.2298698 -27.407101 -0.69573599
8.3538904 -27.7187 -0.67298698
8.4222298 -27.5126 -0.68183601
7.9265399 -27.3675 -0.631028
7.9168501 -27.630199 -0.62313199
7.8566799 -27.408501 -0.57845902
7.8506498 -27.729601 -0.56850702
7.8783002 -27.977301 -0.56980002
7.9354 -27.8442 -0.62208098
8.02493 -27.738701 -0.66659999
7.9522901 -28.1401 -0.57548898
7.9899902 -27.993401 -0.62405902
8.0337601 -27.866899 -0.66053498
8.0447903 -26.413601 -0.60524499
7.94766 -26.5229 -0.59727502
7.8965402 -26.665001 -0.58711803
7.9323201 -26.243401 -0.59410399
7.8289199 -26.3594 -0.58613801
7.7853899 -26.5215 -0.57456303
8.39431 -26.591999 -0.669011
8.2482204 -26.477301 -0.64056802
8.4109602 -26.4585 -0.64434701
8.4105101 -26.356701 -0.61991203
8.2115498 -26.3613 -0.612921
8.3800097 -26.224199 -0.60396999
8.1308699 -26.2055 -0.59933698
8.5492496 -26.708 -0.67768699
8.5563402 -26.508101 -0.65250403
8.6770296 -26.6008 -0.65260899
6.2697802 -25.5373 -0.75194699
6.4762802 -25.4426 -0.771815
6.6795602 -25.348801 -0.76624203
6.53655 -25.6873 -0.76270598
6.73876 -25.5952 -0.763587
6.81391 -25.8454 -0.73227102
6.5567298 -25.146999 -0.74197799
6.3617401 -25.242701 -0.745094
6.17026 -25.3325 -0.73000598
6.4975801 -25.0019 -0.70514798
6.3011498 -25.0886 -0.70666999
6.1191201 -25.1985 -0.69967902
6.0030599 -25.3353 -0.68769002
6.0520902 -25.505501 -0.70945799
5.9335999 -25.493999 -0.66650802
6.1910901 -25.937401 -0.709566
6.2232499 -25.752001 -0.73126698
6.3959999 -26.017799 -0.718427
6.4667702 -25.8608 -0.73944497
6.5709901 -26.167 -0.691773
6.6939201 -26.0222 -0.71186799
6.0335698 -25.7085 -0.69265401
6.0279498 -25.916 -0.67084998
5.9141598 -25.696699 -0.645652
5.92061 -25.9244 -0.622841
5.9512 -26.160101 -0.602072
6.0462499 -26.114901 -0.65145302
6.1774702 -26.093901 -0.691549
6.0139399 -26.375099 -0.58444399
6.0938902 -26.284599 -0.63587397
6.1750102 -26.2089 -0.67507899
6.4920702 -24.8855 -0.67106497
6.2805099 -24.9716 -0.67041701
6.0809598 -25.094601 -0.66191399
6.5332999 -24.572399 -0.67125398
6.3042898 -24.6499 -0.65345502
6.0299702 -24.770201 -0.60061997
6.7704101 -25.152201 -0.73385
6.67203 -24.9853 -0.705037
6.8270502 -25.0222 -0.69876403
6.86515 -24.9284 -0.66517597
6.6883202 -24.858601 -0.672723
6.9281201 -24.6759 -0.66317499
6.74296 -24.566099 -0.674748
6.9019399 -25.368299 -0.73474097
6.9475098 -25.169901 -0.70079601
7.0525799 -25.368401 -0.69394702
10.0918 -26.805201 -0.70023203
10.1801 -26.791901 -0.70551801
10.2983 -26.791201 -0.70571399
10.0889 -26.9459 -0.69526798
10.2062 -26.9681 -0.70748699
10.3193 -26.9757 -0.70880002
10.0981 -27.1747 -0.67498702
10.2362 -27.173 -0.69510901
10.3501 -27.1824 -0.69717902
10.0184 -26.6964 -0.67769098
9.9668903 -26.855801 -0.66775799
9.94946 -27.057501 -0.64846998
9.9359398 -26.5777 -0.64511597
9.8597803 -26.7642 -0.63411999
9.8418398 -26.986401 -0.61856598
9.8789902 -27.190599 -0.606269
10.0155 -27.314501 -0.63087898
9.9591198 -27.417299 -0.588853
10.2681 -27.624399 -0.64493799
10.1973 -27.433901 -0.662314
10.3468 -27.657 -0.64716202
10.2926 -27.4116 -0.677683
10.4406 -27.675301 -0.64605701
10.3933 -27.4226 -0.67854601
10.2828 -26.617399 -0.68167198
10.1335 -26.626801 -0.68168497
10.2715 -26.4751 -0.64910299
10.0848 -26.487301 -0.64926398
10.1389 -27.560101 -0.61989403
10.2616 -27.778299 -0.60458702
10.0994 -27.695101 -0.570898
10.2536 -27.9452 -0.55271798
10.3905 -28.075199 -0.54233301
10.3764 -27.888599 -0.59672099
10.512 -28.089899 -0.54012698
10.4822 -27.910299 -0.594329
9.8558502 -26.4942 -0.61856401
9.7688704 -26.711599 -0.60688698
9.7526102 -26.9643 -0.591362
9.6700401 -26.390699 -0.60364997
9.6027203 -26.6817 -0.591465
9.5948095 -26.9543 -0.57585001
10.2623 -26.3759 -0.62295097
10.0431 -26.3908 -0.62312198
10.2465 -26.264 -0.60713899
9.9709702 -26.277599 -0.60791498
10.4205 -26.8111 -0.70258498
10.4319 -26.6434 -0.67866302
10.4517 -26.5091 -0.64664799
10.533 -26.840099 -0.68917698
10.5581 -26.6856 -0.66873699
10.5921 -26.572201 -0.64090103
11.9222 -25.3076 -0.81664997
11.9425 -25.1285 -0.81928498
11.981 -24.884001 -0.83096403
12.0643 -25.3321 -0.834194
12.1132 -25.1425 -0.82548201
12.1973 -25.3318 -0.82454801
11.9321 -25.4856 -0.807576
11.9414 -25.6691 -0.78998703
11.7671 -25.217199 -0.77495903
11.7703 -25.421499 -0.767748
11.7815 -25.6056 -0.75275099
11.6372 -25.126101 -0.72662801
11.6413 -25.3596 -0.72198701
11.6664 -25.567101 -0.71384102
11.7298 -25.724899 -0.708938
11.8567 -25.778099 -0.74375099
11.8106 -25.861 -0.69929099
12.0489 -25.9055 -0.774423
12.0103 -25.8109 -0.78601003
12.1187 -25.9247 -0.77770501
12.1126 -25.802799 -0.80066103
12.1055 -25.669701 -0.81170601
12.1893 -25.9508 -0.77147502
12.216 -25.8612 -0.78398001
12.256 -25.7213 -0.79100603
11.8094 -24.7449 -0.80974001
11.7835 -25.0042 -0.77994901
11.6905 -24.6301 -0.77792603
11.6525 -24.877899 -0.74440098
12.0907 -25.507999 -0.825001
12.2337 -25.5191 -0.81333297
11.9516 -25.898399 -0.74233902
12.0387 -26.003 -0.73474401
11.9198 -25.9965 -0.691715
12.0365 -26.117001 -0.68273801
12.1526 -26.191601 -0.67710203
12.1342 -26.062799 -0.73068899
12.2544 -26.1994 -0.67680103
12.2222 -26.0683 -0.730088
11.5528 -25.0676 -0.68906403
11.5598 -25.3312 -0.68533301
11.5953 -25.570101 -0.67857999
11.4386 -24.996901 -0.66070902
11.4482 -25.322001 -0.65645599
11.4878 -25.6096 -0.645585
11.6176 -24.511801 -0.75338
11.5674 -24.780899 -0.716492
11.5013 -24.284401 -0.74805498
11.4468 -24.618999 -0.70677298
11.929 -24.58 -0.83021098
11.7773 -24.4699 -0.80338299
11.8957 -24.3843 -0.81600398
10.2434 -21.0172 -0.27598399
10.4534 -21.3451 -0.40733901
10.6497 -21.8032 -0.55190301
10.218 -21.1635 -0.34122801
10.401 -21.4725 -0.45982099
10.5751 -21.904499 -0.58998299
10.219 -21.326099 -0.42285901
10.3786 -21.593 -0.52302498
10.5271 -21.959999 -0.62849802
11.7212 -24.3204 -0.780379
11.6228 -24.0525 -0.77439803
11.8716 -24.238001 -0.79719299
11.7952 -23.944901 -0.789855
8.5973501 -26.402 -0.62649399
8.6322203 -26.278601 -0.60892498
8.7547598 -26.5138 -0.62722898
8.9081898 -26.403 -0.60848302
7.0165701 -25.096001 -0.66329098
7.1027999 -24.937799 -0.635665
7.1504402 -25.346399 -0.65744901
7.38941 -25.3459 -0.62476403
7.2433701 -23.3722 -0.713723
7.2520099 -22.502501 -0.62524498
7.2972898 -21.9025 -0.493889
7.3643699 -23.089701 -0.73565501
7.3439698 -22.499001 -0.65397501
7.3705101 -21.9627 -0.53340799
7.4244399 -23.0165 -0.76551902
7.4074602 -22.4974 -0.68697
7.4261599 -21.998199 -0.57202297
7.8611302 -26.832399 -0.57326603
7.8281202 -27.080601 -0.54939598
7.7514801 -26.7166 -0.55046898
7.69561 -27.0576 -0.47309899
7.7313199 -27.519899 -0.43747401
7.8119798 -27.438 -0.52951002
7.7476101 -27.911699 -0.42129201
7.8099098 -27.797899 -0.51803797
7.7948298 -28.2083 -0.41910699
7.8435898 -28.069201 -0.51995802
7.89677 -28.406799 -0.42088199
7.9285302 -28.243799 -0.52678299
8.7505703 -26.7864 -0.64742601
8.84268 -26.7188 -0.61988699
8.9946299 -26.6835 -0.59976798
8.8013697 -27.0016 -0.63500702
8.8901796 -26.9589 -0.60677701
9.0359097 -26.945299 -0.58593601
8.6103201 -26.904301 -0.677921
8.6763802 -27.1089 -0.663876
8.8099403 -27.219 -0.624376
8.9047203 -27.207899 -0.59114099
9.0564804 -27.2211 -0.55856001
8.7822599 -27.465799 -0.608917
8.8689098 -27.508301 -0.56423301
9.04527 -27.655399 -0.45633101
8.6674604 -27.3855 -0.649185
8.6773901 -27.767799 -0.59519398
8.7434397 -27.847601 -0.54525101
8.8386297 -28.0278 -0.42380601
8.5377102 -28.0392 -0.58312303
8.5836096 -28.141199 -0.53228003
8.6543503 -28.318001 -0.41142699
8.5749998 -27.652201 -0.64176899
8.4684896 -27.888 -0.63161802
8.1481504 -27.752899 -0.68162102
8.26789 -27.8585 -0.66762799
8.1107197 -27.898399 -0.66579998
8.1942701 -27.942801 -0.660496
8.3859196 -28.1917 -0.578062
8.41502 -28.302299 -0.527695
8.4599199 -28.4799 -0.40877801
8.22964 -28.2421 -0.57779002
8.2422199 -28.353701 -0.52811301
8.2570801 -28.534901 -0.41145101
8.3427401 -28.0296 -0.62660402
8.2123604 -28.0861 -0.62499303
8.0768404 -28.225201 -0.57799
8.0703897 -28.334801 -0.52901
8.0585203 -28.511999 -0.41692099
8.0889397 -28.068199 -0.62575501
5.9419599 -25.278 -0.64941502
5.8652802 -25.469601 -0.62885702
5.8408098 -25.166201 -0.59182203
5.7536101 -25.4237 -0.57842201
5.8411498 -25.690201 -0.60584998
5.8526502 -25.9377 -0.58236301
5.7284398 -25.682199 -0.55842203
5.7433 -25.9685 -0.53526402
5.78615 -26.275 -0.51181102
5.8891501 -26.200899 -0.56053698
5.8649902 -26.559099 -0.48972699
5.95855 -26.445801 -0.54124898
7.1085401 -25.6099 -0.684865
7.1958699 -25.6213 -0.64855498
7.3347702 -25.7292 -0.61949301
7.1430202 -25.8454 -0.66639698
7.2149501 -25.8752 -0.632182
7.33041 -25.992701 -0.60457098
6.9573398 -25.608801 -0.72821403
7.0219302 -25.844101 -0.70143801
7.13274 -26.0361 -0.646245
7.2021899 -26.0959 -0.60740101
7.3107901 -26.226 -0.57387698
7.0644698 -26.2206 -0.61800402
7.1179299 -26.3158 -0.57103503
7.2091498 -26.5396 -0.49119499
6.9801202 -26.0704 -0.67226303
6.8927102 -26.4048 -0.59227997
6.9211102 -26.5196 -0.54062098
6.9325099 -26.7134 -0.45832101
6.6744099 -26.562799 -0.57029301
6.6778598 -26.687 -0.51872098
6.6610799 -26.870399 -0.44345701
6.8292599 -26.229099 -0.65393001
6.6533799 -26.373501 -0.63390201
6.3278799 -26.1443 -0.70090902
6.4449801 -26.264601 -0.67794102
6.2603102 -26.2617 -0.67528301
6.34407 -26.323099 -0.66570401
6.45718 -26.643 -0.56055599
6.43994 -26.766399 -0.51096702
6.39995 -26.9387 -0.443885
6.2662802 -26.634701 -0.56164199
6.23283 -26.7481 -0.51457798
6.1700301 -26.905701 -0.454485
6.4727201 -26.457001 -0.62247598
6.3113799 -26.470301 -0.61974102
5.9912801 -26.7757 -0.47026399
6.0718799 -26.6359 -0.52535099
6.1178999 -26.540199 -0.57040101
6.1852002 -26.404301 -0.62611401
9.79387 -27.2036 -0.57413
9.8935604 -27.480499 -0.54457802
9.6377697 -27.2243 -0.54683
9.7425203 -27.639999 -0.44041601
10.008 -27.9853 -0.39471099
10.0633 -27.7936 -0.51976901
10.2165 -28.2463 -0.37086201
10.2398 -28.062401 -0.49921301
10.3928 -28.368299 -0.359907
10.3933 -28.1961 -0.488168
10.5538 -28.3666 -0.357225
10.5297 -28.2052 -0.485874
10.4692 -26.4154 -0.62037599
10.4917 -26.305599 -0.60418499
10.6281 -26.495399 -0.614721
10.6799 -26.392401 -0.59447402
10.6639 -26.676201 -0.63533503
10.7182 -26.6203 -0.60378098
10.8012 -26.5389 -0.56579101
10.7068 -26.8486 -0.621782
10.7771 -26.8337 -0.58014899
10.9335 -26.8262 -0.478214
10.631 -26.8466 -0.65787601
10.4307 -26.997 -0.704965
10.5412 -27.0359 -0.68751699
10.4546 -27.2027 -0.69325697
10.5596 -27.252001 -0.67466199
10.74 -27.126699 -0.60470098
10.815 -27.154499 -0.55845898
10.9476 -27.2278 -0.45017099
10.7628 -27.430799 -0.58426499
10.8369 -27.491501 -0.53488803
10.9567 -27.5909 -0.42064801
10.6492 -27.0844 -0.64910001
10.6684 -27.341499 -0.632658
10.7554 -27.683701 -0.566724
10.821 -27.764601 -0.51498801
10.9218 -27.881201 -0.39320499
10.7094 -27.8776 -0.55328602
10.7607 -27.971399 -0.500009
10.8369 -28.1049 -0.37200099
10.5715 -27.461599 -0.659365
10.6681 -27.5679 -0.61687398
10.5766 -27.6208 -0.643314
10.6398 -27.7451 -0.603966
10.6231 -28.0175 -0.54409701
10.6576 -28.122801 -0.490152
10.7075 -28.271299 -0.36063099
10.5203 -27.653799 -0.64629799
10.5735 -27.8575 -0.59710002
10.4837 -27.428699 -0.67579597
11.666 -25.758699 -0.66892898
11.7687 -25.9291 -0.65140498
11.5678 -25.8395 -0.61888701
11.701 -26.1127 -0.54419398
11.9017 -26.2768 -0.53411198
11.9016 -26.0826 -0.641137
12.0669 -26.403299 -0.53038001
12.0388 -26.2122 -0.63225102
12.2195 -26.4697 -0.53075701
12.1708 -26.290899 -0.62711
12.3522 -26.4573 -0.53662902
12.2851 -26.298599 -0.62765598
12.0511 -24.4608 -0.82164001
12.0575 -24.303699 -0.80203199
11.999 -23.9699 -0.79158598
12.2105 -24.6518 -0.80469799
12.247 -24.516899 -0.78287703
12.2389 -24.1021 -0.758044
12.1132 -24.754299 -0.82516003
12.3386 -24.988199 -0.76048702
12.4012 -24.9168 -0.73111302
12.4683 -24.755301 -0.68751699
12.4154 -25.283701 -0.75079203
12.4854 -25.257 -0.71329898
12.5812 -25.196199 -0.65032703
12.2359 -25.059099 -0.79466999
12.3169 -25.306299 -0.79120201
