# .PCD v.7 - Point Cloud Data file format
VERSION .7
FIELDS x y z
SIZE 4 4 4
TYPE F F F
COUNT 1 1 1
WIDTH 1671
HEIGHT 1
VIEWPOINT 0 0 0 1 0 0 0
POINTS 1671
DATA ascii
-1.88301 -34.433998 150.80299
-2.23628 -34.911201 150.79601
-1.2367899 -34.1931 150.34399
-1.62774 -34.756802 150.34
-2.0815599 -35.361401 150.31799
-2.5118599 -35.6511 150.502
-2.58498 -35.261002 150.855
-2.8301599 -35.878899 150.63699
-2.9068501 -35.557301 150.938
-1.46773 -35.661301 149.442
-1.74432 -35.525501 149.854
-1.779 -36.144699 149.33099
-2.07709 -36.0774 149.716
-2.37327 -35.997002 150.09
-2.05457 -36.644699 149.145
-2.37356 -36.6362 149.51801
-2.7165501 -36.616901 149.91
-2.9842401 -32.794399 152.535
-2.41431 -33.189499 151.935
-2.9275601 -32.221298 152.70799
-2.28321 -32.597 152.08501
-1.71408 -32.932598 151.467
-2.9449201 -31.6038 152.922
-2.23983 -31.941299 152.295
-1.5375299 -32.188599 151.60899
-0.99895 -32.6605 150.897
-1.2560101 -33.2887 150.87801
-0.578071 -33.011799 150.282
-0.8836 -33.613998 150.327
-4.14922 -36.4641 151.517
-4.3327198 -36.385899 151.771
-4.4478202 -36.697102 151.55
-4.6371002 -36.649799 151.784
-4.8055902 -36.952099 151.55901
-5.0053802 -36.895699 151.8
-4.6475701 -35.872898 152.382
-4.31356 -35.971001 152.048
-4.41747 -35.430199 152.41499
-4.0641298 -35.573101 152.041
-4.3948398 -37.055 151.17
-4.5313501 -36.955002 151.36099
-4.6216698 -37.183601 151.218
-4.8520298 -37.139801 151.40601
-4.8776999 -37.314899 151.252
-4.0546899 -36.076801 151.737
-3.87218 -36.206402 151.46001
-3.79304 -35.731701 151.69501
-3.6036601 -35.915699 151.39101
-2.7681799 -36.198399 150.326
-3.41573 -37.119701 150.229
-3.4084401 -36.7416 150.564
-3.43347 -36.4118 150.867
-3.66417 -37.259701 150.349
-3.66874 -36.9109 150.674
-3.7025199 -36.6119 150.96899
-3.8838 -37.3638 150.453
-3.8978 -37.039501 150.76601
-3.9487801 -36.772499 151.052
-3.49142 -36.138802 151.13
-3.7627499 -36.3797 151.218
-4.02742 -36.5854 151.28999
-1.35427 -34.992699 149.89101
-1.10776 -35.192501 149.451
-0.95462298 -34.462101 149.86301
-0.711178 -34.705601 149.37
-1.24322 -35.778 149.064
-1.08843 -35.855301 148.772
-0.91649097 -35.387402 149.017
-0.81651002 -35.6129 148.60699
-0.52541202 -34.945499 148.85201
-0.43266901 -35.226601 148.327
-1.2076 -36.141701 148.597
-1.4963599 -36.184399 148.95599
-1.4012001 -36.540298 148.36501
-1.73651 -36.627701 148.76601
-2.0395801 -37.507301 147.92799
-1.67456 -37.004398 148.134
-2.33954 -37.599201 148.342
-2.0047801 -37.103901 148.552
-2.60812 -37.6432 148.69501
-2.31793 -37.152401 148.922
-1.03705 -36.342701 147.925
-1.33637 -36.826401 147.661
-1.7438999 -37.358601 147.459
-0.65397602 -36.042599 147.405
-0.99462301 -36.571999 147.09801
-1.4519 -37.1507 146.894
-1.9790601 -37.746601 146.769
-2.23599 -37.910999 147.314
-2.5000701 -38.0285 147.761
-2.54194 -38.331501 146.69701
-2.7777801 -38.462399 147.214
-3.0214601 -38.5546 147.62601
-3.2641101 -38.604801 147.998
-2.7672501 -38.098301 148.16
-3.45136 -38.569099 148.39
-2.9764199 -38.093498 148.52699
-0.46861401 -35.591 147.828
0.01079 -34.703899 147.946
-0.04676 -35.142399 147.302
-0.26749101 -35.664501 146.77299
0.502446 -34.003201 147.493
0.378023 -34.641899 146.647
0.105146 -35.253201 146.036
-0.30492601 -34.1735 149.22701
-0.101953 -34.416302 148.61501
0.051034998 -33.6217 149.082
0.27991199 -33.813 148.42999
-11.4182 -29.1064 154.52699
-10.9113 -29.2262 154.595
-10.448 -29.444099 154.653
-11.1937 -27.998501 154.509
-10.6651 -28.163799 154.595
-10.0849 -28.478901 154.689
-9.9263897 -29.4727 154.715
-9.4238701 -29.3862 154.76801
-8.8722897 -29.5494 154.791
-9.4321404 -28.4662 154.78
-8.7514095 -28.7584 154.834
-11.3294 -38.311401 151.649
-11.0899 -38.0821 152.01801
-11.6299 -38.306801 151.66
-11.4044 -38.070499 152.01401
-11.9654 -38.2817 151.661
-11.7795 -38.026299 152.004
-10.3622 -38.181702 151.314
-10.5376 -38.2174 151.45599
-10.7619 -38.255402 151.563
-10.5556 -38.3964 150.985
-10.7614 -38.4562 151.11099
-11.0048 -38.516201 151.20599
-10.7418 -38.709 150.616
-10.9655 -38.770599 150.793
-11.2204 -38.841301 150.897
-10.4973 -38.0308 151.976
-10.2884 -38.023201 151.832
-10.1447 -38.015301 151.644
-10.0108 -37.863098 152.19
-9.8909101 -37.890202 151.94501
-9.3464403 -37.629601 152.655
-9.6911297 -37.739498 152.457
-9.2624102 -37.7356 152.373
-9.5941496 -37.805199 152.185
-10.2294 -38.149502 151.155
-10.3832 -38.329601 150.86501
-10.5109 -38.532001 150.575
-10.5839 -38.715599 150.30701
-10.7458 -38.873501 150.30299
-10.6193 -38.896099 150.076
-10.7471 -39.027599 150.07001
-10.05 -37.9981 151.442
-9.8269901 -37.886799 151.70799
-8.54708 -37.398602 152.897
-8.9686899 -37.5131 152.80499
-8.5136404 -37.578602 152.62199
-8.9040298 -37.6581 152.52299
-9.5457802 -37.8214 151.936
-9.2233896 -37.7761 152.127
-9.9812403 -38.166 149.655
-0.499322 -27.589701 149.254
-0.874264 -27.6702 149.549
-1.2251 -27.644199 149.946
-0.45929101 -28.216 149.817
-0.76311702 -28.042101 150.058
-1.05162 -27.880199 150.392
-0.42894 -28.7997 150.3
-0.70364398 -28.417299 150.48199
-0.93194199 -28.1625 150.714
-1.5779001 -27.6765 150.272
-1.94159 -27.749201 150.661
-1.3647 -27.8615 150.679
-1.72918 -27.9499 151.045
-1.2025 -28.1215 150.95399
-1.53965 -28.1945 151.265
-0.61233699 -28.996799 150.662
-0.79892802 -29.1173 150.91299
-0.238828 -29.4405 150.403
-0.476098 -29.5497 150.651
-0.706397 -29.622801 150.911
0.026093001 -30.031 150.272
-0.29645401 -30.122 150.54201
-0.56916398 -30.171499 150.821
-1.3994401 -29.115499 151.47501
-1.06152 -29.1397 151.166
-1.47561 -28.6141 151.422
-1.12103 -28.588301 151.103
-0.853163 -28.608801 150.855
-2.33673 -27.7915 151.278
-2.84744 -27.7038 152.073
-2.1621001 -28.0853 151.62399
-2.6712501 -28.188101 152.323
-1.9265701 -28.404499 151.724
-2.3663001 -28.684799 152.319
-3.4247899 -27.7267 152.963
-3.8831799 -27.6558 153.464
-3.24492 -28.1954 152.998
-3.76458 -28.0907 153.491
-2.9869299 -28.7157 152.97501
-3.62921 -28.739 153.554
-1.80343 -28.940901 151.845
-1.30685 -29.597601 151.519
-1.74159 -29.438999 151.967
-2.3046899 -29.211599 152.505
-1.1767401 -30.1028 151.49899
-1.5979 -29.9519 151.976
-2.13027 -29.7188 152.509
-0.97189802 -29.6471 151.18201
-0.84709299 -30.171 151.125
-4.4082499 -27.611 153.92599
-4.67804 -27.6721 154.14101
-5.0099902 -27.7334 154.37801
-4.1725202 -28.0501 153.83
-4.52953 -28.1124 154.086
-4.9420099 -28.1245 154.336
-4.3073001 -28.681601 154.021
-4.84161 -28.607599 154.314
-5.3744502 -27.7869 154.608
-5.7292399 -27.825399 154.821
-5.3576598 -28.125 154.556
-5.7595301 -28.1106 154.754
-5.3224301 -28.5383 154.52901
-5.7869501 -28.456499 154.715
-6.2459698 -28.3337 154.914
-6.1266298 -28.0672 154.951
-6.0283198 -27.8447 155.008
-6.6585999 -28.133101 155.183
-6.3851199 -27.975401 155.16
-6.2221699 -27.847799 155.147
-2.7874701 -29.337099 153.015
2.69993 -23.150499 147.80299
2.3388 -22.558201 148.10699
1.88616 -22.070999 148.44299
2.7746999 -23.407499 148.548
2.44804 -22.85 148.828
1.99682 -22.389099 149.157
2.85551 -23.658501 149.127
2.59303 -23.180099 149.394
2.1626401 -22.7924 149.851
1.45834 -22.2771 150.158
1.40288 -21.9681 149.494
1.3377301 -21.667 148.82401
0.76246601 -21.9375 150.50301
0.74666798 -21.643499 149.875
0.72302097 -21.351801 149.252
1.82377 -21.8174 147.64101
2.2765901 -22.320801 147.272
2.6614599 -22.9256 146.935
1.81315 -21.596201 146.776
2.2702401 -22.1038 146.371
2.6709299 -22.695 146.00301
3.0088999 -23.386 145.664
2.9813299 -23.6395 146.618
2.97803 -23.8638 147.52499
3.26845 -24.1313 145.395
3.2195401 -24.4228 146.367
3.1666901 -24.6614 147.298
1.85034 -21.3727 145.907
2.31039 -21.886101 145.476
2.7116699 -22.4624 145.104
1.2987601 -21.400101 148.063
1.29896 -21.158701 147.237
0.71262199 -21.068001 148.537
0.73056901 -20.7903 147.75301
0.78059 -20.5453 146.96201
1.3414 -20.926201 146.39999
0.89495999 -20.323299 146.142
1.42382 -20.679501 145.56599
2.86883 -23.803101 149.55901
2.6110301 -23.3743 149.94901
2.8573301 -23.927601 149.946
1.9368401 -23.1248 151.452
2.0446501 -22.9359 150.65199
1.358 -22.772301 151.756
1.4297301 -22.5236 150.911
0.71210498 -22.5282 152.106
0.752285 -22.228901 151.23801
2.9990301 -24.101299 148.308
3.0180199 -24.321501 148.94099
3.1205399 -24.893101 148.11301
3.0683401 -25.097 148.78799
3.43033 -24.8897 145.228
3.3589699 -25.227699 146.215
3.2574201 -25.496 147.14301
3.4978099 -25.6348 145.065
3.4007599 -26.0235 146.08099
3.2490499 -26.333799 147.015
3.0544701 -26.5788 147.87601
3.1373701 -25.7334 147.974
2.8393099 -26.7509 148.63
3.0032001 -25.9251 148.68401
3.0448 -23.0853 144.75999
3.30018 -23.7421 144.466
1.16355 -20.227501 145.215
0.49977601 -19.767 145.791
-0.25676 -19.378201 146.494
0.28767899 -19.9722 146.735
-0.41606399 -19.6695 147.392
0.065837003 -21.7404 150.912
0.063736998 -21.435301 150.314
0.062884003 -21.135201 149.724
-0.703982 -21.671499 151.379
-0.701608 -21.3375 150.79601
-0.689551 -21.0109 150.23
1.08516 -30.863899 148.71201
0.76543802 -31.0613 149.13
0.44933301 -31.211201 149.521
1.29488 -31.3298 147.94501
0.93868399 -31.6061 148.541
0.57705301 -31.7805 149.108
1.44251 -31.8664 147.10201
1.04529 -32.2216 147.88901
0.61341399 -32.503601 148.674
0.24185 -32.144699 149.479
0.172038 -31.4072 149.815
-0.17491101 -31.650999 150.19
0.231691 -30.6469 149.95
0.56531698 -30.5783 149.618
0.87915498 -30.4744 149.29401
0.40129501 -30.1562 149.97501
0.69735098 -30.1483 149.714
1.6718 -30.304701 147.978
1.3837399 -30.612801 148.30701
1.9525 -30.5798 146.881
1.63357 -30.9884 147.347
2.2102699 -30.8708 145.47701
1.81625 -31.438499 146.28999
-0.074514002 -30.7565 150.24899
-0.378757 -30.8375 150.573
-0.088854 -28.812599 150.12601
0.017038999 -29.3162 150.265
0.19601899 -29.7353 150.23399
0.224884 -28.7495 150.196
0.27151 -29.191299 150.256
0.37269801 -29.559401 150.22099
-1.18888 -31.731899 151.423
-1.04998 -31.249001 151.36501
-1.74273 -31.4545 152.04601
-1.4402601 -31.0872 151.83501
-1.90984 -30.846201 152.33099
0.33497301 -33.110401 148.89
-0.226992 -33.328499 149.68401
0.04047 -32.737499 149.565
-0.33756 -32.3778 150.214
1.4645 -32.461102 146.299
1.06815 -32.873798 147.188
0.67350101 -33.219898 148.002
1.35394 -33.089298 145.563
0.96741199 -33.5453 146.505
-2.5038199 -22.7642 153.931
-2.4465001 -23.128599 154.961
-1.57526 -22.5277 153.43201
-1.55748 -22.8892 154.505
-0.69828802 -22.4074 152.923
-0.69611698 -22.762699 154.032
-3.26879 -23.4538 155.29601
-3.37661 -23.0952 154.327
-4.00284 -23.7722 155.42101
-4.1167202 -23.4317 154.59
0.046252001 -22.407101 152.48599
0.024746001 -22.743601 153.53799
0.65848303 -22.841999 153.108
-2.55498 -22.337 153.08099
-1.59355 -22.126699 152.57201
-0.69908202 -22.035601 152.062
-2.59393 -21.8904 152.39301
-1.60811 -21.723101 151.886
-3.4894199 -22.652399 153.519
-3.58323 -22.171 152.86099
-4.3098798 -23.0079 153.873
-4.4812102 -22.518499 153.271
-4.6174598 -21.5173 152.271
-5.5336199 -21.815201 152.64
-6.4725599 -22.171101 152.96201
-4.5980501 -22.022499 152.757
-5.42662 -22.3969 153.14301
-6.1416798 -22.8659 153.509
-5.2174301 -22.896999 153.619
-5.8324599 -23.348499 153.944
-4.6370401 -24.1728 155.64101
-5.1269498 -24.062901 155
-5.0969 -24.629999 155.905
-5.5949101 -24.534201 155.228
-5.5913301 -25.1413 156.03799
-6.06704 -25.091999 155.42
-6.48526 -24.9023 154.957
-6.0156002 -24.2785 154.696
-5.5027399 -23.758101 154.423
-6.8592701 -24.6222 154.60699
-6.3806 -23.923201 154.282
-5.5374599 -25.5856 156.80099
-6.0134301 -25.6553 156.12801
-6.4686599 -25.667101 155.578
-5.8737998 -26.0432 156.814
-6.3350601 -26.141001 156.201
-6.76721 -26.206301 155.716
-5.0757399 -25.5033 157.54201
-5.41396 -25.927601 157.50301
-6.8737702 -25.583401 155.18401
-7.2495098 -25.410299 154.89
-7.1518698 -26.223101 155.381
-7.52387 -26.155701 155.125
-6.1057601 -26.452 156.814
-6.5492201 -26.5737 156.263
-6.9457698 -26.667601 155.84399
-6.2308502 -26.7911 156.80901
-6.6532898 -26.9331 156.30901
-7.00805 -27.0394 155.94701
-5.6280398 -26.298901 157.47301
-5.7332602 -26.600599 157.455
-5.6914701 -26.950199 157.464
-5.7421498 -26.817699 157.463
-6.2041101 -27.2069 156.785
-6.2537298 -27.0448 156.804
-7.80511 -21.4981 152.51801
-8.1281996 -22.375601 153.11099
-8.5274296 -23.2875 153.61099
-7.2125401 -21.829901 152.733
-7.59723 -22.747601 153.35201
-8.0326204 -23.6455 153.83
-7.1047802 -23.120501 153.61
-7.5985599 -23.988899 154.061
-8.0196505 -24.868 154.39301
-8.44487 -24.538601 154.185
-8.9196301 -24.1915 153.992
-8.34305 -25.7092 154.63699
-8.7828598 -25.391899 154.44
-9.2577295 -25.0548 154.26601
-9.0746899 -22.927601 153.39799
-8.6868896 -22.006001 152.87601
-8.3293695 -21.1406 152.274
-9.6291599 -22.605301 153.203
-9.2480602 -21.683001 152.668
-8.86374 -20.868 152.091
-8.4088602 -20.300301 151.58701
-7.7095299 -20.6679 151.849
-7.7904401 -19.8314 151.036
-10.1512 -22.360399 153.03999
-9.7837296 -21.428499 152.485
-9.4008598 -20.6021 151.882
-10.6608 -22.2059 152.89799
-10.3174 -21.266399 152.332
-9.9807701 -20.429399 151.711
-9.4498396 -23.8456 153.80299
-9.9889803 -23.539499 153.63
-9.7775002 -24.7276 154.09801
-10.3018 -24.443899 153.944
-7.0149398 -20.8915 151.974
-6.26123 -21.113199 152.09801
-6.8646002 -20.035299 151.138
-6.0356998 -20.247999 151.252
-9.0040398 -19.955601 151.289
-8.6029902 -19.417601 150.659
-9.6765499 -19.756701 151.08299
-9.3871899 -19.194901 150.424
-8.7609701 -18.1299 148.868
-7.9327998 -18.322901 149.07201
-7.1048102 -18.5291 149.23801
-8.4033899 -17.551399 147.925
-7.5791001 -17.7297 148.117
-6.7525601 -17.9146 148.26801
-10.4929 -23.3102 153.48399
-10.9797 -23.165701 153.354
-10.7914 -24.2321 153.81599
-11.2627 -24.096399 153.696
-9.5166903 -25.8582 154.45399
-10.0362 -25.558901 154.302
-10.5508 -25.301399 154.16499
-9.72299 -26.6287 154.577
-10.2511 -26.3703 154.44099
-10.7643 -26.145399 154.321
-11.2545 -25.965401 154.217
-11.0371 -25.104799 154.05
-11.732 -25.837999 154.106
-11.5079 -24.9737 153.936
-9.9096403 -27.4359 154.65401
-10.4551 -27.211399 154.53999
-10.9756 -27.024599 154.438
-9.0168896 -26.174101 154.618
-9.1780996 -26.914801 154.731
-8.5272703 -26.4674 154.81599
-8.5538902 -27.246201 154.94299
-8.7607803 -27.907 154.884
-9.3418303 -27.6364 154.77299
-11.4717 -26.866899 154.342
-11.954 -26.7456 154.233
-11.6957 -27.865499 154.422
-12.1838 -27.7514 154.312
-11.9259 -28.995701 154.44501
-12.4256 -28.8869 154.334
-7.2995901 -26.733999 155.552
-7.6587 -26.7369 155.312
-7.3248601 -27.1236 155.67999
-7.6543698 -27.1726 155.446
-5.4290099 -18.855101 149.397
-4.5877199 -18.9834 149.36501
-3.7383001 -19.090401 149.231
-5.1061802 -18.216101 148.403
-4.2877698 -18.351601 148.36099
-3.47194 -18.4974 148.241
-6.2691398 -18.706499 149.351
-5.9278302 -18.075001 148.367
2.27408 -29.4786 147.524
2.6015799 -28.896601 147.158
2.9634299 -28.0812 146.616
1.99029 -29.401501 148.37601
2.3215001 -28.8536 148.084
2.6349001 -28.165899 147.83099
1.63978 -29.321699 149.224
2.0019801 -28.8487 148.91299
2.3083799 -28.2439 148.717
2.5957301 -27.5347 148.632
2.8815501 -27.3922 147.811
3.1461699 -27.166201 146.85699
3.0077701 -28.6348 145.608
2.75003 -29.166 146.27
2.4846001 -29.6413 146.66499
2.9788401 -29.137199 144.742
2.7834401 -29.540001 145.48599
2.60395 -29.8029 145.98199
2.4637499 -30.2138 145.74699
2.22962 -30.1119 146.767
1.96627 -29.934099 147.755
2.8759301 -29.621799 143.991
2.6903801 -30.003201 144.86
2.70979 -30.1066 143.295
2.5200901 -30.5273 144.26199
3.2724199 -27.5075 145.425
3.2188301 -28.111799 144.658
3.1423099 -28.651699 143.811
3.42784 -27.0047 144.304
3.35729 -27.6021 143.588
3.2620599 -28.142099 142.782
1.4958301 -29.0495 149.811
1.75362 -28.7505 149.58099
2.02825 -28.2528 149.41299
1.45186 -28.7057 150.58
1.65824 -28.5847 150.229
1.89069 -28.2029 150.048
2.18226 -27.605 149.909
2.3357601 -27.599701 149.30499
2.48948 -26.8783 149.813
2.6326301 -26.8461 149.256
1.68687 -29.8001 148.58099
1.39605 -29.6646 149.25999
1.40593 -30.086399 148.778
1.15224 -29.880501 149.377
1.09654 -29.104401 150.31599
1.27938 -29.287001 149.828
1.25585 -28.9942 150.35201
1.1486 -30.309099 149.013
0.93048602 -30.0389 149.526
2.4912701 -30.6064 142.604
2.3329599 -31.0639 143.543
2.1087 -31.5135 144.496
2.22 -31.139601 141.94501
2.0898399 -31.6178 142.86301
1.90985 -32.1063 143.757
3.01858 -29.148899 143.033
2.83899 -29.631399 142.323
3.1271 -28.645399 142.024
2.9408801 -29.142401 141.321
3.3531001 -27.6584 141.72501
3.4317701 -27.1129 142.476
3.48931 -26.5128 143.14
3.3579099 -26.787001 145.854
3.48491 -26.3452 144.785
1.50484 -32.379799 140.869
1.05117 -33.1161 140.48801
0.52081198 -33.918499 140.213
1.5854 -31.899799 139.88699
1.1309299 -32.619801 139.46899
0.60135502 -33.406601 139.157
1.66123 -31.456499 138.83099
1.19736 -32.1544 138.334
0.59379703 -32.967098 137.85001
0.031243 -33.8232 137.97099
0.02366 -34.222301 139.01601
-0.085890003 -34.751499 140.02499
-0.50711203 -34.513901 137.951
-0.57868201 -34.9785 138.899
-0.71723402 -35.522999 139.856
0.36045 -34.453098 141.133
0.92022502 -33.6306 141.403
1.3879 -32.880199 141.77699
0.152482 -34.9758 141.987
0.740785 -34.1516 142.25301
1.22575 -33.3965 142.63499
1.61517 -32.7215 143.14
1.77633 -32.215 142.26801
1.89256 -31.724701 141.35899
-0.289904 -35.309799 140.94099
-0.54772103 -35.8526 141.813
-0.96425802 -36.1003 140.748
-1.36443 -36.7747 141.668
1.97758 -31.251499 140.403
2.0495999 -30.821199 139.41
2.31529 -30.6663 140.995
2.39605 -30.222401 140.017
2.60342 -30.130899 141.642
2.6957901 -29.6642 140.653
-0.077679999 -35.464199 142.84801
0.52071798 -34.663101 143.106
1.0133899 -33.917301 143.493
-0.32479399 -35.897701 143.718
0.26644999 -35.1334 143.965
0.752859 -34.408001 144.35699
-1.49772 -37.103298 142.674
-0.76835799 -36.2953 142.70799
-1.68539 -37.424301 143.578
-0.99293298 -36.677101 143.595
-1.32084 -36.153198 139.653
-1.54407 -36.6717 140.451
-1.85588 -37.188202 141.13901
-1.89256 -36.669899 139.45799
-2.0846601 -37.1329 140.19299
-2.31583 -37.552101 140.832
-2.4877999 -37.8685 141.47701
-2.0875499 -37.590599 141.96899
-2.67925 -38.175201 142.16
-2.4363101 -37.119099 139.327
-2.6273701 -37.564301 140.03999
-2.8678501 -37.993999 140.728
-2.93977 -37.514301 139.271
-3.1466801 -37.9482 139.94
-3.50034 -38.481201 140.685
-3.66242 -38.8633 141.567
-3.0702701 -38.364899 141.483
-3.94433 -39.278702 142.448
-3.2774 -38.7034 142.27299
-1.18635 -35.629902 138.742
-1.78661 -36.188499 138.57899
-1.11236 -35.1436 137.784
-1.81293 -35.753899 137.539
-2.3625901 -36.3223 137.686
-2.33798 -36.673401 138.507
-2.8452699 -36.734699 137.739
-2.85903 -37.099499 138.494
-2.8290601 -38.430302 142.92799
-2.18748 -37.820499 142.78799
-2.9976799 -38.685799 143.73199
-2.3543799 -38.0952 143.64
-3.4293399 -37.9174 139.36
-3.76088 -38.471901 140.12199
-4.0257702 -38.383701 139.487
-3.3635299 -37.114498 137.771
-3.3761799 -37.507 138.554
-3.89957 -37.4636 137.78999
-3.90698 -37.880501 138.592
3.2307799 -28.1695 140.983
3.04619 -28.6908 140.258
2.79302 -29.248301 139.629
2.50227 -29.8118 138.97301
2.90137 -28.9226 138.539
0.089244001 -33.378101 137.034
-0.43821701 -34.121399 137.213
-0.428516 -33.8284 136.543
-5.0620599 -38.6931 138.746
-5.3678298 -39.065498 139.133
-5.7764902 -39.4995 139.508
-5.5543599 -38.724899 138.36
-5.8755398 -39.076199 138.666
-6.23384 -39.483398 139.006
-6.0286598 -38.672798 137.91299
-6.3817201 -39.026402 138.168
-6.7130899 -39.438099 138.50301
-6.3698602 -40.5812 140.87601
-6.7683101 -40.636398 140.377
-5.6043501 -40.077301 140.972
-5.88169 -40.038101 140.44701
-6.2386999 -40.0186 139.916
-5.0836701 -39.539299 140.536
-5.3934202 -39.516499 140.02901
-5.0221 -38.049599 137.72099
-5.5485802 -38.355202 137.785
-5.19557 -37.729301 137.048
-5.8334198 -38.0844 137.13901
-6.3949299 -38.4678 137.30901
-5.3710499 -37.400101 136.317
-6.0911999 -37.772598 136.40401
-6.7465501 -38.2136 136.636
-4.45612 -37.769001 137.75999
-3.95103 -37.1063 137.045
-4.55758 -37.412102 137.028
-4.03019 -36.801998 136.381
-4.6765199 -37.087601 136.32001
-7.4317999 -40.445702 139.343
-7.0819001 -40.5257 139.799
-7.7152801 -40.940399 139.797
-7.40309 -41.098499 140.39799
-8.0574303 -41.528702 140.36
-6.8181 -38.882 137.59801
-7.1684299 -39.3405 137.981
-7.24369 -38.6987 137.006
-7.6335602 -39.2202 137.472
-8.31915 -40.3069 138.47
-7.86023 -40.390099 138.905
-8.64678 -40.839199 138.935
-8.1856098 -40.9231 139.367
-8.9826097 -41.3815 139.36099
-8.5359602 -41.474499 139.804
-2.8277099 -36.436901 137.146
-3.37994 -36.781399 137.07201
-2.8765099 -36.220798 136.647
-3.4342101 -36.513 136.483
-4.5587401 -38.9977 140.07899
-4.9281902 -39.031502 139.605
-4.5660501 -38.571201 139.106
-6.3389602 -40.994499 142.242
-5.86236 -40.584202 141.823
-8.2698803 -29.625099 154.77699
-3.05391 -30.938999 153.181
-2.3526101 -31.251499 152.60201
-3.2305701 -30.250601 153.41701
-2.5267301 -30.5702 152.875
-0.64949501 -31.4531 150.834
-0.76531798 -32.070599 150.839
-7.6679301 -29.014299 154.84
-7.3624601 -29.6651 154.73199
-6.8204002 -30.4786 154.59399
-7.2566099 -29.2488 154.78999
-6.8226299 -29.9105 154.65601
-6.8552198 -29.448099 154.72099
-8.15096 -28.833599 154.855
-8.2255497 -28.211 154.95399
-7.74582 -28.509899 154.96201
-8.0963802 -27.788799 155.08299
-7.6779299 -28.153999 155.11099
-7.2901101 -28.445101 155.035
-7.3231902 -28.7822 154.90199
-6.8740001 -28.7118 154.90601
-6.8935299 -29.0406 154.80701
-8.04986 -27.186001 155.19501
-7.8232298 -27.6043 155.285
-7.5171299 -27.929199 155.28799
-7.5243502 -27.511 155.51401
-7.30931 -27.778299 155.495
-7.0374699 -27.9893 155.37601
-7.1869102 -28.1945 155.185
-6.7985101 -28.424 155.022
-8.0693703 -26.6432 155.05901
-7.9214401 -25.976 154.873
0.50798798 -29.8661 150.041
1.81417 -32.001499 145.397
1.66664 -32.604301 144.651
1.39683 -33.2369 144.013
1.11646 -33.7327 144.90199
0.77321798 -34.190102 145.80099
0.448064 -34.843601 145.217
-0.58814597 -36.264702 144.575
-0.016326999 -35.5383 144.815
-0.86663002 -36.587399 145.409
-0.32442299 -35.9035 145.63901
-1.22563 -36.999699 144.461
-1.46846 -37.2798 145.295
-1.88494 -37.704399 144.437
-2.0926001 -37.946301 145.25999
-2.5313201 -38.344398 144.46899
-2.7134199 -38.557201 145.26401
-3.1670301 -38.914398 144.513
-3.33727 -39.108002 145.26801
-4.18262 -39.641499 143.855
-4.3667002 -39.845001 144.494
-4.6628098 -40.118801 145.166
-4.6661601 -40.010601 143.877
-4.7989802 -40.162399 144.37199
-4.9963102 -40.358601 144.77299
1.81236 -23.361099 152.343
2.2571199 -23.757799 152.03101
2.5706799 -24.239201 151.78
2.3849399 -23.570999 151.214
2.6803801 -24.1082 151.036
2.8164999 -24.7307 150.912
2.73771 -24.7985 151.59599
2.8083999 -25.4048 150.84599
2.77262 -25.405399 151.492
2.49755 -23.433201 150.521
2.77863 -24.004101 150.42799
1.26403 -23.051901 152.707
2.6829801 -26.097601 150.85001
2.7026501 -26.0292 151.48399
2.4990001 -26.7915 150.951
2.5828099 -26.6527 151.584
2.8947999 -24.6649 150.34801
2.8582399 -25.3848 150.29601
2.9618499 -24.590099 149.87199
2.92272 -25.335501 149.808
2.7525599 -26.108601 149.782
2.69401 -26.123699 150.295
2.45347 -26.8624 150.369
3.0035501 -24.4793 149.43401
2.9981699 -25.243299 149.33
0.063603997 -22.066601 151.618
-2.6056099 -21.4631 151.817
-1.6047601 -21.343201 151.30499
-2.57393 -21.051201 151.291
-1.5790401 -20.9753 150.757
-1.04711 -34.717098 136.97
-1.67863 -35.243301 136.716
-1.02353 -34.353199 136.22099
-1.65259 -34.847401 135.94099
-2.3569 -35.9729 136.963
-6.65239 -27.2038 156.334
-6.9670601 -27.32 156.007
-6.5768099 -27.3843 156.323
-6.8524098 -27.517599 156.005
-7.2452502 -27.421301 155.74699
-7.0890198 -27.6455 155.73399
-6.1124701 -27.274599 156.739
-6.4586 -27.4762 156.267
-6.69521 -27.6383 155.93401
-5.9863501 -27.246201 156.664
-6.3106399 -27.477501 156.173
-6.5155101 -27.672001 155.81799
-5.6084399 -26.9958 157.43201
-5.4983501 -26.9454 157.364
-0.71451199 -30.7882 150.98
-1.07637 -30.671499 151.42999
-1.49545 -30.5063 151.92799
-2.0248799 -30.258301 152.47
-2.6965699 -29.917299 153.028
-3.43802 -29.546 153.55299
-6.6477499 -27.8748 155.502
-6.3220801 -27.6105 155.67999
-6.4214702 -27.812 155.397
-6.0897198 -27.4739 155.508
-6.2019401 -27.710899 155.287
-5.8175802 -29.2404 154.62601
-5.8084102 -28.8435 154.674
-6.37638 -28.9804 154.771
-6.32898 -28.6492 154.843
-6.8845801 -27.8048 155.638
-5.8343701 -27.129601 156.562
-6.1408801 -27.3904 156.05299
-5.6922302 -26.973 156.425
-5.9563699 -27.235399 155.92
1.11577 -29.4778 149.80901
0.935651 -29.218399 150.289
0.91294998 -29.632799 149.869
0.75001699 -29.331499 150.272
0.714665 -28.978399 150.589
0.90611798 -28.9062 150.756
1.07327 -28.8431 150.87601
0.75508201 -28.5802 150.847
0.96504903 -28.5289 151.19299
1.1381201 -28.489799 151.442
1.27526 -28.443501 151.55499
1.21575 -28.7677 150.95399
1.37432 -28.395901 151.561
1.34036 -28.639799 151.05
1.70804 -27.5326 152.67799
1.53398 -27.4123 152.38499
1.66334 -27.9226 152.241
1.5581 -27.9112 152.05
1.5266401 -28.222601 151.58
1.44638 -28.314199 151.508
1.4589601 -27.9807 151.98199
0.71913099 -29.759001 149.94
0.56550801 -29.442499 150.235
2.8650501 -26.0466 149.267
1.96513 -28.1096 150.714
2.1947801 -27.5623 150.528
2.1615801 -27.9447 151.375
2.31599 -27.4498 151.155
-5.3018298 -26.6621 157.019
-5.3744502 -26.8076 157.25
1.75929 -27.0012 153.121
1.81716 -27.931999 152.075
1.72209 -27.9949 152.151
1.65036 -28.1936 151.412
1.5700999 -28.2659 151.437
2.0561099 -27.7335 151.923
1.93744 -27.810801 151.972
1.84165 -28.069099 151.373
1.73088 -28.1366 151.334
2.4653599 -27.2407 151.785
2.3640699 -27.6747 151.994
-5.2776198 -29.0026 154.498
-5.2277002 -29.4795 154.44901
-4.7224798 -29.1507 154.27699
-4.6020999 -29.7134 154.20599
-4.4951901 -30.263399 154.088
-5.1719298 -29.9408 154.373
-5.8036699 -29.6301 154.56599
-4.40134 -30.8055 153.94501
-5.0936599 -30.417601 154.27
-5.7424898 -30.061501 154.48599
-4.1164598 -29.319401 153.97301
-3.93261 -29.9646 153.86501
-3.6742699 -31.212299 153.485
-3.7806101 -30.6 153.688
-0.56738901 -33.907799 149.78799
-0.65391397 -36.2551 146.41299
-1.1573 -36.887501 146.198
-1.72171 -37.532101 146.08299
-2.3124399 -38.157101 146.032
-4.8909001 -40.2575 146.492
-4.7426 -40.185699 145.901
-4.31145 -39.8489 146.556
-4.1355801 -39.7453 145.944
-3.97999 -39.611599 145.23801
-3.7063799 -39.389999 146.612
-3.5139201 -39.2654 145.989
-2.9077799 -38.736599 146.01199
-3.1166 -38.882401 146.65401
-5.2434402 -40.287601 147.32201
-5.0770402 -40.304901 146.938
-4.6459799 -39.921799 147.362
-4.5063601 -39.9189 147.015
-4.1068802 -39.536701 147.418
-3.91588 -39.483898 147.07899
-5.2372398 -40.572899 145.382
-5.2757602 -40.578098 145.92599
-5.3965802 -40.613998 146.42999
-5.6928701 -40.897999 145.922
-5.7923799 -40.910301 146.341
-6.05444 -41.136799 146.20799
-6.1975398 -41.2864 146.078
-5.9783802 -41.137798 145.864
-6.1852198 -41.333599 145.804
-9.7284803 -38.755299 136.203
-9.20362 -38.875702 136.38
-8.6800203 -38.999298 136.64799
-10.0173 -39.351299 136.832
-9.5183401 -39.4674 137.00301
-9.0166101 -39.584 137.25
-10.2874 -39.914001 137.41701
-9.7979002 -40.0243 137.577
-9.3088999 -40.133301 137.80099
-8.1462097 -39.109798 137.01801
-7.72122 -38.5294 136.451
-8.2330799 -38.348701 135.94901
-7.1282501 -37.944 135.92599
-7.5673499 -37.598598 135.146
-2.01934 -19.284 148.569
-1.1937701 -19.444799 148.02901
-1.84863 -18.861401 147.687
-1.0458 -19.0863 147.157
-2.8759999 -19.179399 148.97099
-2.6580501 -18.667101 148.035
-3.3386099 -38.993198 147.14101
-3.5643201 -39.069199 147.51401
-4.4403 -39.533298 147.964
-4.8801198 -39.9547 147.644
-4.31042 -39.579399 147.675
-11.3966 -42.2589 149.082
-11.6466 -42.287498 149.22501
-11.8927 -42.323799 149.364
-11.4705 -42.6674 148.91499
-11.7217 -42.7136 149.037
-11.9782 -42.785801 149.158
-11.5617 -43.0397 148.77
-11.7935 -43.106701 148.862
-12.0733 -43.264599 148.951
-12.3516 -43.306999 149.08701
-12.2385 -42.842201 149.265
-12.1386 -42.353401 149.47
-12.6102 -43.380798 149.161
-12.5019 -42.8964 149.33701
-12.3936 -42.3717 149.53799
-12.3085 -41.894501 149.724
-12.0664 -41.8955 149.66
-11.8348 -41.885899 149.55299
-12.2454 -41.451698 149.896
-12.0137 -41.456699 149.839
-11.7927 -41.455101 149.73399
-13.1199 -43.539398 149.19901
-13.0322 -42.984001 149.382
-12.9328 -42.378201 149.57899
-13.3744 -43.598999 149.188
-13.2853 -43.0159 149.37399
-13.1864 -42.377102 149.57201
-13.6256 -43.6366 149.16
-13.5334 -43.033501 149.349
-13.4338 -42.369801 149.55
-14.106 -43.621399 149.05701
-13.8702 -43.6474 149.114
-14.0273 -42.996799 149.252
-13.7822 -43.0298 149.308
-13.938 -42.308601 149.457
-13.6862 -42.3489 149.513
-11.542 -39.684799 150.41299
-11.6366 -40.1278 150.244
-11.7003 -40.569401 150.091
-11.3061 -39.636902 150.27499
-11.4185 -40.105598 150.099
-11.492 -40.564999 149.94099
-11.0818 -39.599899 150.077
-11.2094 -40.109699 149.92101
-11.2829 -40.5811 149.769
-11.3183 -41.026798 149.597
-11.5385 -41.015099 149.76401
-11.7502 -41.014801 149.918
-11.3356 -41.450199 149.418
-11.5699 -41.450298 149.58
-11.9679 -41.015099 150.01601
-11.9216 -40.575901 150.17999
-12.1969 -41.0135 150.064
-12.1534 -40.581501 150.22
-13.7277 -40.450401 150.129
-13.4284 -40.517601 150.187
-13.1405 -40.5737 150.216
-13.6885 -40.0476 150.299
-13.3815 -40.1119 150.358
-13.0875 -40.161999 150.384
-13.6531 -39.642601 150.485
-13.341 -39.7015 150.545
-13.04 -39.742802 150.569
-12.5178 -39.761902 150.552
-12.5788 -40.178699 150.384
-12.631 -40.593201 150.231
-12.2752 -39.757198 150.536
-12.3408 -40.171902 150.37601
-12.3903 -40.587399 150.23199
-12.0329 -39.745201 150.51801
-12.1039 -40.1619 150.362
-13.8135 -41.2743 149.80299
-13.8673 -41.739899 149.638
-13.5403 -41.328999 149.86
-13.6062 -41.787102 149.69501
-13.2704 -41.373699 149.895
-13.3464 -41.821201 149.731
-13.6909 -44.010601 149.015
-13.9261 -44.0271 148.964
-14.1466 -44.006599 148.90601
-13.7286 -44.209999 148.90199
-13.9537 -44.225399 148.849
-14.159 -44.2071 148.79401
-13.4386 -43.970001 149.048
-13.4782 -44.175598 148.944
-13.1815 -43.905998 149.065
-13.2207 -44.118198 148.97301
-11.5995 -41.869099 149.403
-11.3555 -41.8554 149.248
-10.5585 -42.311001 148.72701
-10.7448 -42.2775 148.80099
-10.9239 -42.259102 148.87399
-10.576 -42.723499 148.558
-10.7916 -42.715 148.631
-10.9866 -42.6796 148.713
-10.5784 -43.187099 148.35201
-10.8794 -43.152699 148.47
-11.096 -43.086601 148.57201
-8.0657997 -39.909801 149.37399
-8.3095598 -40.199501 149.177
-8.5112495 -40.4632 149.028
-7.8063002 -40.110699 149.16901
-8.14011 -40.431999 148.972
-7.6608601 -40.333801 148.91901
-7.9977899 -40.703201 148.67799
-8.3836002 -40.745602 148.78799
-8.7452698 -40.772202 148.87801
-8.2419004 -41.040798 148.44701
-8.6831903 -41.0816 148.63499
-9.0197802 -41.1035 148.754
-7.0503998 -39.274899 149.812
-7.5445399 -39.520199 149.67
-8.0690498 -39.662899 149.578
-6.9527202 -39.392899 149.679
-7.47928 -39.679699 149.506
-9.16255 -39.751598 149.446
-9.2615099 -40.037601 149.326
-9.3907099 -40.378899 149.19701
-8.6356897 -39.8526 149.409
-8.7565203 -40.130001 149.257
-8.9168301 -40.444801 149.10699
-9.9166203 -40.233501 149.30901
-10.4108 -40.023399 149.45399
-9.5410995 -40.734001 149.076
-10.0052 -40.604301 149.214
-10.4145 -40.447601 149.36
-9.6753998 -41.0807 148.964
-10.0719 -40.9758 149.11501
-10.4296 -40.844101 149.269
-10.6704 -40.757599 149.388
-10.6661 -40.352699 149.483
-10.6648 -39.981499 149.561
-10.8564 -40.696999 149.494
-10.8366 -40.275799 149.604
-10.8082 -39.913399 149.679
-10.73 -39.555401 149.72701
-10.7685 -39.6959 149.70799
-10.6189 -39.7323 149.601
-10.6759 -39.448601 149.73599
-10.5305 -39.599998 149.612
-10.2629 -39.763401 149.49899
-10.609 -39.338902 149.748
-10.4415 -39.461102 149.638
-10.1482 -39.561798 149.55499
-6.9561801 -41.090302 141.056
-7.4692502 -41.4492 141.05
-7.9959898 -41.846802 141.106
-10.3211 -43.418701 140.80499
-10.5452 -43.787701 141.101
-10.7013 -44.048599 141.312
-10.5916 -43.412498 140.577
-10.7808 -43.825001 140.91901
-10.9167 -44.165001 141.256
-10.9163 -43.4165 140.388
-11.1027 -43.886002 140.776
-11.292 -43.4016 140.215
-11.4963 -43.912998 140.64101
-11.6975 -43.3447 140.07899
-11.9217 -43.869701 140.519
-9.6920996 -42.499699 140.11501
-10.0293 -42.989399 140.47
-10.0484 -42.43 139.84399
-10.3408 -42.948002 140.22
-10.4323 -42.364101 139.627
-10.6899 -42.9095 140.00999
-8.8196602 -38.2206 135.65199
-9.3989296 -38.0956 135.468
-8.4113598 -37.559502 134.87199
-9.0627604 -37.4478 134.698
-9.1240997 -42.652302 140.91
-9.3743 -42.5723 140.47
-8.6459198 -42.1437 140.657
-8.9566498 -42.041599 140.153
-9.3359299 -41.949001 139.74899
-9.7384596 -41.862099 139.448
-10.1557 -41.780602 139.222
-9.4247799 -41.289001 139.02901
-9.8720703 -41.200699 138.786
-10.3284 -41.111698 138.606
-10.5877 -41.7034 139.04201
-10.8378 -42.3009 139.44
-10.7921 -41.018002 138.46899
-11.031 -41.6185 138.90401
-11.2598 -42.224701 139.297
-12.9327 -38.930401 151.028
-13.2669 -38.886002 151.002
-13.6015 -38.823399 150.938
-12.9928 -39.331402 150.78101
-13.3054 -39.292999 150.758
-13.6242 -39.2355 150.698
-13.5859 -38.409401 151.207
-13.2221 -38.483299 151.278
-12.8536 -38.5434 151.312
-13.2017 -40.969898 150.05499
-13.4814 -40.916698 150.02299
-13.7685 -40.853699 149.965
-10.9647 -39.130501 150.353
-11.1567 -39.178501 150.515
-11.4021 -39.242901 150.631
-11.7866 -39.721802 150.48599
-11.6638 -39.293499 150.692
-11.4941 -38.896801 150.951
-11.9252 -39.325901 150.72
-11.7705 -38.931999 150.978
-7.6068902 -37.220402 152.882
-8.0801897 -37.299801 152.92
-7.6689501 -37.444401 152.632
-8.0907297 -37.506699 152.65401
-10.8842 -39.128101 150.17999
-10.9467 -39.390499 150.01601
-10.8429 -39.185398 150.02
-10.8895 -39.322201 149.96001
-12.4258 -43.918201 148.851
-12.3192 -43.907799 148.73
-12.2778 -43.651299 148.88901
-12.148 -43.696899 148.74699
-11.9504 -43.4608 148.759
-10.8627 -41.4786 149.188
-10.8835 -41.860401 149.03101
-10.6751 -41.5019 149.108
-10.7029 -41.875401 148.95799
-10.4557 -41.5644 149.00999
-10.4996 -41.926998 148.871
-10.0379 -42.489601 148.47701
-10.326 -42.416599 148.61301
-10.2718 -42.824799 148.41
-7.6342001 -42.039501 147.028
-7.9226899 -41.9212 147.37399
-8.2452002 -41.821098 147.694
-7.9604998 -42.4426 146.96899
-8.2430401 -42.321899 147.32401
-8.5550804 -42.2211 147.644
-8.2709503 -42.8811 146.914
-8.5381603 -42.762699 147.278
-8.8342304 -42.6628 147.599
-9.1317101 -42.601398 147.87399
-8.8694496 -42.161598 147.931
-8.5802898 -41.7616 147.993
-9.4327698 -42.570202 148.10699
-9.1886396 -42.144299 148.179
-8.9263601 -41.751202 148.254
-7.9230199 -41.486099 147.763
-7.5995002 -41.581402 147.44
-7.3168402 -41.691101 147.095
-7.6016002 -41.216999 147.83299
-7.2907 -41.299 147.51801
-7.02421 -41.391499 147.185
-6.7967 -41.479099 146.821
-7.0859199 -41.798199 146.718
-7.4022698 -42.155701 146.646
-6.5929098 -41.5513 146.37801
-6.91995 -41.909599 146.293
-7.2326698 -42.2715 146.22099
-6.1096702 -40.9473 146.92799
-6.29702 -40.928699 147.187
-6.5027699 -40.8923 147.444
-6.3650498 -41.223801 146.69901
-6.5515099 -41.191399 147.00101
-6.7618899 -41.128502 147.30901
-8.5524302 -43.332401 146.858
-8.7986097 -43.219601 147.22701
-9.0760803 -43.119701 147.54401
-8.8461304 -43.7854 146.8
-9.0706596 -43.680099 147.16901
-9.3285103 -43.579399 147.48
-7.7346401 -42.561001 146.577
-8.0581303 -42.993698 146.509
-7.5616798 -42.672699 146.145
-7.89045 -43.093102 146.06599
-8.2016201 -43.504902 145.993
-8.3570099 -43.430599 146.444
-8.5211201 -43.9077 145.918
-8.6654701 -43.864399 146.37801
-6.34027 -41.388901 146.19299
-6.1889 -41.182201 146.459
-5.93716 -40.935101 146.662
-9.7412205 -42.5481 148.306
-9.6660099 -43.010201 148.02901
-9.9829798 -42.953701 148.22501
-9.9158802 -43.449902 147.948
-10.2512 -43.365799 148.145
-11.9714 -43.901299 148.34599
-11.8218 -43.9487 148.25101
-11.698 -43.666401 148.476
-11.5219 -43.731098 148.37199
-8.0087605 -43.5289 144.58099
-8.0030298 -43.559502 145.036
-8.3491602 -43.7971 144.52299
-8.3424101 -43.8731 144.967
-7.1259899 -42.389198 145.757
-7.43436 -42.7743 145.675
-7.75741 -43.172699 145.591
-8.0759096 -43.5504 145.515
-8.4068203 -43.910702 145.439
-11.2495 -45.371899 145.576
-10.5632 -45.226601 145.63699
-12.0487 -45.424 145.88699
-11.3817 -45.377201 145.987
-10.7025 -45.2323 146.084
-12.1703 -45.398602 146.23
-11.5238 -45.339699 146.37
-10.8589 -45.1884 146.493
-10.2196 -44.9487 146.589
-10.0536 -44.9939 146.16299
-9.91078 -44.984798 145.698
-9.65516 -44.625 146.66701
-9.4837999 -44.673901 146.23399
-9.3403502 -44.668098 145.763
-11.1416 -45.312901 145.175
-10.4607 -45.160198 145.192
-9.81001 -44.912201 145.231
-9.2377501 -44.602001 145.289
-3.55707 -37.958302 149.51601
-3.77753 -38.034401 149.666
-4.0001898 -38.098 149.80701
-3.7130599 -38.379601 149.129
-3.91396 -38.442699 149.29201
-4.1270099 -38.494301 149.452
-3.9295199 -38.787102 148.743
-4.1209002 -38.855598 148.897
-4.3238201 -38.900501 149.069
-3.1131301 -36.914501 150.084
-2.90047 -37.249199 149.519
-3.1940999 -37.3922 149.71899
-3.4614 -37.531898 149.881
-3.0783801 -37.760899 149.166
-3.3229401 -37.864399 149.34399
-7.0510402 -36.872501 153.026
-6.7573099 -37.129002 152.666
-7.1662102 -37.162498 152.795
-6.92345 -37.3592 152.476
-7.28123 -37.393101 152.573
-5.96947 -37.083 152.31599
-6.36658 -37.114101 152.5
-6.1515999 -37.302898 152.146
-6.57059 -37.341301 152.338
-11.6661 -44.079399 148.14301
-11.4848 -44.2547 148.01401
-11.3414 -43.852299 148.254
-11.1285 -44.000401 148.117
-10.6045 -39.0723 149.89
-10.7058 -39.1884 149.89
-10.5207 -39.223999 149.752
-10.7776 -39.304298 149.87199
-10.8299 -39.4235 149.853
-10.345 -39.333599 149.661
-10.0438 -39.411201 149.601
-5.1880102 -37.424301 151.297
-5.2137899 -37.284599 151.472
-5.2927098 -37.1768 151.65199
-5.50351 -37.516701 151.32401
-5.5713902 -37.420601 151.508
-5.7079301 -37.358898 151.702
-8.8794098 -37.724998 152.286
-8.51229 -37.6698 152.39301
-8.1224098 -37.618698 152.43401
-7.7390199 -37.5732 152.425
-7.3902202 -37.5345 152.382
-7.07267 -37.506802 152.31
-5.6366301 -37.091801 152.07201
-6.4819999 -37.474998 152.069
-6.22679 -37.4659 151.892
-6.0096798 -37.4687 151.7
-5.9110599 -37.336201 151.909
-5.8545899 -37.505501 151.507
-5.7708001 -37.574902 151.325
-5.7578301 -37.672199 151.159
-5.7905898 -37.8078 150.99899
-5.49757 -37.635502 151.147
-5.53652 -37.791801 150.972
-5.1314101 -38.271702 150.386
-5.00736 -37.976601 150.621
-4.9243202 -37.713902 150.84
-5.4370599 -38.265099 150.505
-5.31916 -37.9963 150.71899
-5.23984 -37.762199 150.91701
-5.7105899 -38.240299 150.59399
-5.6056199 -37.998901 150.78999
-6.61024 -39.632301 149.332
-6.1160898 -39.321301 149.541
-5.6026902 -38.995499 149.757
-6.8038201 -39.5182 149.513
-6.30439 -39.189301 149.745
-5.8810101 -38.8652 149.998
-6.4871702 -39.082802 149.89999
-6.1164198 -38.777599 150.14301
-5.8457599 -37.989799 150.83099
-5.9324899 -38.204899 150.64799
-5.3051801 -38.594799 150.112
-5.6065898 -38.5518 150.26401
-5.8677902 -38.498501 150.37801
-6.0710301 -38.439301 150.45
-6.2932401 -38.699001 150.23399
-8.5828104 -39.639801 149.54201
-9.0911102 -39.5504 149.536
-9.6938896 -39.6548 149.493
-9.60215 -39.475498 149.558
-9.80058 -39.912102 149.40401
-6.6244302 -38.987301 150.011
-6.7744498 -37.490898 152.20799
-9.79 -38.307899 149.468
-9.9131804 -38.2369 149.549
-12.9156 -45.267399 146.603
-12.8389 -45.329601 146.35899
-12.7482 -45.368 146.088
-12.3908 -45.2705 146.791
-12.2864 -45.3447 146.533
-12.6538 -45.377102 145.804
-13.1146 -45.275902 145.74899
-11.7915 -45.187199 146.963
-11.6609 -45.272099 146.69501
-11.1705 -45.017601 147.11099
-11.0137 -45.110699 146.83299
-13.3343 -45.123001 146.653
-12.9665 -45.183998 146.817
-12.4776 -45.178299 147.00999
-10.5778 -44.7659 147.23199
-10.392 -44.8643 146.94299
-10.0588 -44.433498 147.33
-9.8447905 -44.535 147.03101
-11.9174 -45.091 147.19
-11.3376 -44.921001 147.345
-11.0183 -44.5634 147.677
-10.7873 -44.6712 147.472
-10.5766 -44.252201 147.78
-10.3041 -44.3442 147.57401
0.50744098 -28.660601 150.47501
0.50490302 -29.0758 150.39101
-5.0254402 -35.859001 133.63
-6.1577802 -36.179401 133.42599
-6.9357901 -36.543201 153.23599
-11.867 -40.1478 150.326
-12.3137 -38.9524 151.01401
-12.4337 -39.347801 150.758
-12.0387 -38.9482 150.99699
-12.1787 -39.341999 150.739
-12.575 -43.932201 148.93401
-12.4743 -43.6754 148.99001
-12.7599 -43.966202 148.97701
-12.6958 -43.735699 149.048
-12.9776 -44.0378 148.987
-12.9326 -43.820499 149.069
-12.8651 -43.463001 149.194
-12.6636 -42.377899 149.571
-12.7689 -42.943802 149.373
-12.8381 -41.863201 149.755
-12.571 -41.8815 149.75101
-12.7553 -41.421799 149.91701
-12.4963 -41.4389 149.91701
-9.8630695 -42.124001 148.57201
-9.5204496 -42.153 148.388
-9.6768303 -41.721802 148.68201
-9.2880898 -41.772598 148.46899
-9.3637695 -43.055 147.80701
-9.6084404 -43.508701 147.73399
-11.2607 -44.422699 147.858
-10.8636 -44.137402 147.959
-2.8627701 -37.710701 148.94701
-2.61429 -37.191799 149.242
-3.7825601 -39.111099 147.83
-3.9301901 -39.080898 148.13699
-10.1274 -41.675499 148.86
-10.2118 -42.036301 148.737
-9.3176603 -41.415298 148.69099
-9.0004902 -41.4235 148.539
-8.6317101 -41.397701 148.341
-10.4381 -41.2103 149.149
-10.6689 -41.137699 149.258
-10.8597 -41.0975 149.34801
-9.7135096 -41.393101 148.843
-10.1026 -41.328899 148.994
-3.7930601 -39.4161 144.528
-3.61672 -39.200901 143.806
-3.4442501 -38.965302 143.052
-4.0310001 -39.449501 143.185
-5.3379998 -40.653801 144.938
-12.6875 -41.0047 150.076
-12.4386 -41.009701 150.078
-13.0938 -41.844799 149.74899
-13.0112 -41.402401 149.911
-4.5553002 -39.880199 143.367
-4.5069499 -39.803101 142.90601
-4.8856001 -37.4963 151.056
-5.1964302 -37.577301 151.11
-7.1111002 -39.9734 149.114
-7.3211598 -39.8372 149.317
-4.3863602 -39.6292 142.35001
1.44258 -28.5072 151.056
1.80276 -28.3997 150.871
2.0509601 -28.1684 151.51801
1.71961 -28.4431 151.01199
1.98061 -28.1838 151.56
2.2811899 -27.857201 152.117
2.2116699 -27.854401 152.118
1.90011 -28.137699 151.446
2.1412699 -27.774401 152.01401
1.64686 -28.382601 150.991
1.53067 -28.426901 150.96201
-8.92624 -43.7915 143.757
-8.8023005 -43.926201 144.08501
-8.7319298 -44.061401 144.46899
-8.7236795 -44.179901 144.89799
-11.6896 -43.343899 148.679
-11.3255 -43.045898 148.67
-11.4809 -43.380001 148.57201
-11.2751 -43.441101 148.46899
-10.8325 -43.656399 148.218
-10.5336 -43.778801 148.052
-10.2126 -43.872501 147.867
-9.6462803 -44.028099 147.41
-9.9140797 -43.9478 147.659
-9.4088202 -44.1297 147.105
-9.2025604 -44.2267 146.73599
-8.8865299 -44.3013 145.839
-8.77985 -44.263302 145.36099
-9.02841 -44.2878 146.30701
-4.1554899 -39.116001 141.095
-4.2062602 -39.344002 141.728
-4.3004699 -39.027901 140.573
-4.8431001 -39.574799 141
0.221294 -27.758499 150.032
-0.120122 -27.718599 149.578
0.21322 -28.2589 150.118
-0.12261 -28.2803 149.85201
-1.42188 -27.3652 149.453
-1.04128 -27.3039 149.073
-0.72274399 -27.149099 148.782
-1.56822 -27.073799 149.091
-1.16931 -26.9779 148.769
-0.87457198 -26.896 148.57899
-2.1168201 -27.473499 150.14
-1.79215 -27.4245 149.778
-2.2080801 -27.1677 149.71001
-1.93407 -27.1392 149.396
-0.33752599 -26.9851 149.069
-0.059935 -27.1621 149.47
0.24501701 -27.2971 149.96201
-0.22205 -26.4601 149.334
0.064333998 -26.7283 149.655
0.32029799 -26.948799 150.036
0.61180401 -27.1052 150.55499
0.57393801 -27.4046 150.55099
0.55105299 -27.7801 150.58501
0.91863501 -27.2057 151.157
0.898866 -27.4599 151.201
0.85571802 -27.7663 151.19299
-2.6117599 -27.375099 151.117
-2.3808 -27.474501 150.633
-2.4747701 -27.1523 150.452
-2.3700399 -27.1658 150.08099
-4.0474801 -27.2861 153.507
-3.6424601 -27.298599 153.02699
-3.1770599 -27.253099 152.28101
-4.20332 -26.932501 153.55299
-3.84149 -26.8804 153.08501
-3.4110501 -26.8022 152.37801
-2.9818499 -26.6947 151.423
-2.79142 -27.0902 151.319
-2.6212599 -26.601 150.533
-2.5106499 -26.9384 150.45
-5.0439501 -27.445 154.463
-4.7669601 -27.365801 154.22701
-4.53791 -27.306299 154.01199
-5.0879302 -27.191401 154.563
-4.8432598 -27.0949 154.326
-4.6406598 -27.022699 154.103
-5.6991 -27.6066 154.937
-5.3714499 -27.5306 154.70799
-5.67483 -27.414301 155.058
-5.3804998 -27.305401 154.821
-5.9748902 -27.659 155.127
-5.9101901 -27.4631 155.252
1.25824 -27.695 152.112
1.36687 -27.579201 152.21001
1.10725 -27.705 151.77699
1.18354 -27.4622 151.83299
1.23074 -27.2465 151.817
-5.04494 -26.083 156.02699
-4.7374201 -25.9105 156.808
-5.22403 -26.347401 156.16
-4.9163899 -26.168699 156.92101
-5.4000101 -26.588699 156.22501
-5.1347399 -26.4275 156.897
-5.5309401 -26.780701 156.349
-5.7641501 -27.0238 155.82001
-5.8580799 -27.2265 155.464
-5.5819702 -26.7973 155.7
-5.65838 -27.005301 155.349
1.46271 -26.833401 152.541
1.67883 -26.5702 153.314
1.34068 -26.469 152.64999
1.54698 -26.230499 153.51601
1.18348 -26.23 152.78101
1.38635 -26.004 153.679
0.97345799 -26.0061 152.923
1.19032 -25.7948 153.815
1.17658 -26.9247 151.793
1.06858 -26.622801 151.80701
0.85736299 -26.9494 151.06599
0.76963699 -26.704201 151.039
0.62521303 -26.4739 151.01199
0.92409003 -26.385099 151.88
0.433274 -26.2491 151.069
0.72283798 -26.159401 151.99899
0.52784801 -28.2138 150.55099
0.80648702 -28.1563 151.064
-4.8471799 -25.799601 155.823
-4.5988302 -25.538799 155.595
-4.5420799 -25.624701 156.62601
-4.2775898 -25.3647 156.405
-4.3139501 -26.550699 153.55901
-3.9821701 -26.4562 153.114
-3.5804901 -26.333401 152.452
-4.3414202 -26.2164 153.588
-4.0153098 -26.1119 153.19
-3.5633299 -25.912201 152.58701
-3.25894 -25.8223 151.729
-3.1928899 -26.233101 151.53999
-2.95948 -25.7644 151.015
-2.8264999 -26.1607 150.7
-4.7264299 -26.646 154.187
-4.73563 -26.1765 154.367
-4.9391298 -26.7617 154.431
-5.00529 -26.3925 154.659
-5.1739402 -26.9065 154.672
-5.23979 -26.604601 154.903
-2.15745 -26.5616 149.703
-1.90379 -26.568501 149.46001
-1.5721 -26.541 149.201
-2.1503699 -26.127501 149.98599
-1.84345 -26.184799 149.786
-1.5116301 -26.2288 149.58099
-2.0619099 -25.679501 150.571
-1.69137 -25.815399 150.297
-1.36042 -25.933201 150.132
-1.60461 -26.8116 149.017
-1.95171 -26.871599 149.304
-2.1960199 -26.8873 149.58501
-2.34694 -26.8915 149.91701
-2.36901 -26.561701 149.99899
-2.48088 -26.124399 150.21899
-2.5552299 -25.7204 150.661
-0.56507802 -26.774 148.707
-0.52097702 -26.3962 148.87801
-0.81513 -26.6523 148.569
-0.78315902 -26.390699 148.748
0.169 -26.023399 151.2
-0.136408 -25.826799 151.35201
0.104031 -26.3078 150.15601
-0.14256901 -26.103701 150.27699
-0.43357199 -25.955 150.476
-0.415499 -26.1768 149.47
-0.67626899 -26.0683 149.701
-5.6852298 -27.221001 155.17101
-5.4270101 -27.062599 154.93401
-5.4537001 -26.807501 155.144
0.31844699 -26.543699 150.22701
0.5151 -26.7887 150.43401
1.03766 -28.0891 151.558
1.21762 -28.0343 151.905
-3.16259 -25.460899 153.94901
-2.54528 -25.3309 153.642
-1.92471 -25.2104 153.31599
-3.04812 -25.254999 154.289
-2.42781 -25.1654 154.02901
-1.80224 -25.089399 153.75101
-2.81407 -25.0669 154.74699
-2.23476 -25.012899 154.55
-1.66754 -24.978001 154.29201
-1.64599 -25.466299 151.183
-1.29793 -25.337799 151.786
-2.1119299 -25.4753 151.37399
-1.69373 -25.351299 151.933
-2.22192 -25.448099 152.258
-2.59723 -25.5051 152.11099
-2.83007 -25.5166 152.04201
-2.54003 -25.5201 151.37199
-2.92487 -25.565201 151.58501
-4.17278 -25.678801 154.25301
-3.72035 -25.5662 154.147
-4.0892301 -25.440201 154.642
-3.61165 -25.3372 154.492
-3.84969 -25.2064 155.2
-3.3469601 -25.1208 154.994
-0.882801 -25.156799 152.89301
-0.53864402 -25.2467 152.77299
-0.348129 -25.348301 152.657
-0.701092 -25.0837 153.339
-0.318481 -25.196899 153.14799
-0.118621 -25.362 152.83
-0.51442403 -24.998501 153.88901
-0.063620001 -25.133801 153.625
0.27070901 -25.4039 153.172
0.112995 -25.6555 152.23199
0.68209898 -25.7146 153.052
0.44177601 -25.8958 152.129
-1.35665 -25.144699 153.065
-1.21075 -25.052799 153.52699
-1.06603 -24.9582 154.10699
-1.36273 -25.577299 150.952
-1.06811 -25.7166 150.826
-1.0082999 -25.429701 151.64799
-0.73491699 -25.561199 151.564
-3.4105201 -25.0609 155.946
-2.8589599 -24.9744 155.687
-2.325 -24.927601 155.31799
0.60812902 -25.2246 154.125
0.19249199 -25.006901 154.397
-0.32578701 -24.8862 154.674
-0.93353701 -24.852301 154.91901
-1.61227 -24.882799 155.039
0.941266 -25.5145 153.953
-5.2095699 -26.320299 155.367
-5.3994999 -26.564199 155.554
-1.16379 -26.458099 148.922
-1.1885999 -26.705 148.72301
-1.12604 -26.2215 149.33099
-0.75816703 -26.202 149.123
-1.00919 -26.009399 149.924
1.3560899 -27.986099 152.02901
-11.6972 -44.3801 144.194
-12.2874 -44.530602 144.407
-12.7753 -44.604401 144.612
-11.7348 -44.326099 144.317
-12.3103 -44.481602 144.524
-12.7845 -44.558601 144.72701
-13.0632 -44.557201 144.871
