# .PCD v.7 - Point Cloud Data file format
VERSION .7
FIELDS x y z
SIZE 4 4 4
TYPE F F F
COUNT 1 1 1
WIDTH 1721
HEIGHT 1
VIEWPOINT 0 0 0 1 0 0 0
POINTS 1721
DATA ascii
2.49876 -13.1392 129.649
1.89713 -13.4104 126.811
2.1942301 -12.7308 127.052
2.91816 -8.6177797 126.273
2.89763 -9.0811396 127.273
2.7781401 -9.5260401 125.816
2.80005 -9.9408598 126.879
2.52654 -10.4682 125.357
2.5971999 -10.8194 126.502
2.3369901 -11.6882 126.164
2.2249999 -11.4097 125.02
2.85059 -11.356 129.789
2.7714701 -11.3278 128.696
2.9009099 -10.4519 130.10001
2.8978 -10.6228 128.968
2.91678 -9.9201298 129.22
2.6831 -11.11 127.609
2.84712 -10.3002 127.927
2.9052501 -9.5046501 128.25999
2.78952 -9.1863403 129.60899
2.4858 -8.4381599 129.996
2.7627599 -9.7026196 130.631
2.43926 -8.9212704 131.07001
1.98615 -7.7726202 130.358
1.9135 -8.2384596 131.44701
2.8122001 -8.7196999 128.62399
2.842 -8.2623701 127.656
2.5372601 -7.97328 128.99001
2.5987301 -7.5055399 128.022
2.69541 -12.2644 129.771
2.5821099 -12.1415 128.515
2.0633099 -7.3115501 129.34
2.1486101 -6.8442202 128.36301
2.8970201 -7.7739 126.687
2.6846399 -7.0509601 127.054
2.25477 -6.4126 127.389
2.4579201 -11.9423 127.321
-2.2270801 -10.3613 138.09599
-2.7634599 -10.7943 138.021
-3.25634 -11.2882 137.92
-0.84764397 -9.7895098 138.082
-1.58359 -10.0188 138.12
-3.64837 -11.9203 137.76601
-3.88554 -12.6394 137.56
0.77172399 -9.8643904 137.83299
-0.043597002 -9.7169905 137.974
0.80293202 -17.0051 135.758
1.30827 -16.7904 135.767
1.73923 -16.4408 135.815
-0.39890301 -16.953199 135.868
0.23492999 -17.052601 135.793
2.0896699 -16.001699 135.895
2.34443 -15.473 136.008
-1.81086 -16.3911 136.117
-1.09445 -16.7344 135.97701
-3.07637 -15.3915 136.57899
-2.49016 -15.9254 136.28799
-3.8048201 -14.0775 137.047
-3.5259399 -14.7484 136.8
-3.93225 -13.3689 137.311
2.7918899 -12.6852 136.798
2.68659 -11.9336 137.11
2.50337 -11.3451 137.468
2.6751201 -14.2174 136.31599
2.7762799 -13.4706 136.532
2.1372299 -10.8071 137.67999
1.52676 -10.2626 137.711
2.53145 -14.8806 136.146
4.2467299 -16.187401 141.33501
4.3826699 -16.0725 141.55
4.4359298 -16.043699 141.618
4.2706399 -16.345699 141.511
4.3867998 -16.1761 141.646
4.4492998 -16.0993 141.698
4.3964 -16.309799 141.849
4.4428201 -16.178499 141.814
4.4724002 -16.1255 141.798
4.5110102 -15.6548 141.726
4.5267301 -15.8047 141.746
4.5342398 -15.8672 141.74899
4.3861599 -15.8728 141.5
4.4492302 -15.9199 141.60699
4.4851799 -15.9518 141.668
2.12941 -18.6579 139.01801
2.18624 -18.675301 138.89101
2.13941 -18.751801 138.78999
2.1885099 -18.496599 138.85201
2.16401 -18.554399 138.748
2.09249 -18.6476 138.65199
2.16995 -18.3971 138.666
2.1182301 -18.4611 138.595
2.0351801 -18.5499 138.52499
2.11093 -18.366301 138.51401
1.99918 -18.4692 138.455
1.9940799 -18.395599 138.40601
1.8058701 -18.487101 138.343
1.8331 -18.569401 138.39999
1.87999 -18.658899 138.479
1.61816 -18.5945 138.34399
1.65967 -18.665501 138.40601
1.70987 -18.749901 138.48599
1.5122 -18.691299 138.44
1.58009 -18.7757 138.541
1.48555 -18.779301 138.61501
1.54509 -18.871 138.825
1.62974 -18.8734 138.716
1.76307 -18.851101 138.627
1.69312 -18.919001 139.00999
1.71278 -18.960699 138.877
1.8217 -18.945499 138.778
1.85745 -19.0019 138.91
1.89121 -19.011299 138.98399
1.8115 -18.976999 139.007
1.93941 -18.7631 138.606
1.99356 -18.864201 138.752
2.0195799 -18.934799 138.88699
2.1501 -18.8258 138.914
2.00999 -18.950199 138.987
2.12166 -18.8731 138.98399
2.12644 -18.788099 139.00999
4.5478702 -15.9816 142.089
4.52425 -16.0315 141.964
4.5253701 -16.0268 141.886
4.6332598 -15.7493 142.175
4.5818501 -15.871 142.024
4.5683599 -15.9166 141.95
4.6041398 -15.6791 141.996
4.5773201 -15.7969 141.92
4.5602298 -15.8794 141.85899
4.5107398 -15.9918 141.77499
0.35135099 -18.983801 138.92
0.37814501 -18.7318 138.51801
0.50042099 -18.475 138.104
0.76581299 -19.0639 138.933
0.80466402 -18.8757 138.64999
0.92481899 -18.691299 138.399
1.02679 -19.0958 138.974
1.11402 -18.981001 138.83299
1.23201 -18.8221 138.651
0.32105801 -18.1474 137.668
0.170949 -17.8591 137.297
0.96453702 -18.4485 138.035
0.83968699 -18.179399 137.69099
0.71472597 -17.8797 137.289
1.37967 -18.4142 138.097
1.32497 -18.126801 137.752
1.3104399 -17.7945 137.338
2.1852801 -18.068899 138.297
2.04598 -18.2866 138.37
1.78708 -18.242001 138.142
1.79519 -18.392 138.278
1.54892 -18.5278 138.26401
-0.16278601 -18.8445 138.95599
-0.762537 -18.587999 139.05099
-0.17511401 -18.5236 138.457
-0.84456801 -18.177401 138.46001
-0.137024 -18.211599 137.953
-0.88379902 -17.7582 137.77699
1.2426701 -18.628799 138.33701
1.15009 -19.181101 139.20599
1.38355 -19.2103 139.49001
0.80730599 -19.2229 139.255
0.87601203 -19.345301 139.573
0.360208 -19.204201 139.30901
0.373629 -19.3855 139.673
2.3771999 -18.608999 139.455
2.23423 -18.666201 139.295
2.1712699 -18.650801 139.177
2.5727799 -18.3438 139.22501
2.4142399 -18.431 139.108
2.3104801 -18.444099 138.992
2.6549399 -18.174101 139.05499
2.54494 -18.193199 138.924
2.3917401 -18.216299 138.748
1.77478 -18.013901 137.881
1.7917399 -17.754101 137.59
2.1856799 -17.8263 138.036
2.1706901 -17.596001 137.765
2.5258801 -17.292801 137.907
2.8387499 -16.8715 138.047
2.559 -17.535 138.18201
2.88866 -17.136299 138.33299
2.54145 -17.783701 138.41701
2.8978 -17.437599 138.601
2.62358 -17.896601 138.655
2.34271 -18.1108 138.507
2.2376399 -18.3353 138.705
2.18398 -18.275299 138.51199
2.01788 -17.1891 137.217
2.0968499 -17.401501 137.504
1.6957999 -17.5023 137.226
-0.31474599 -17.8223 137.412
-1.2765501 -17.222401 137.144
-1.5882601 -16.7717 136.62
-0.64748502 -17.4366 136.97301
-0.91148502 -17.065399 136.49001
-0.051197998 -17.553301 136.87199
-0.254143 -17.2456 136.39101
0.35167399 -17.320299 136.33299
0.89551097 -17.2598 136.312
0.52448303 -17.594 136.82899
1.05885 -17.518801 136.823
-1.41128 -18.1966 139.22501
-2.0156801 -17.7251 139.45
-1.55375 -17.7521 138.62399
-2.19398 -17.2619 138.862
-1.73112 -17.2946 138.013
-2.4075501 -16.784201 138.28799
-0.152153 -19.124701 139.41499
-0.158097 -19.365101 139.841
-0.70583999 -18.954901 139.591
-0.71680599 -19.247101 140.091
-1.28866 -18.9825 140.395
-1.85562 -18.547199 140.68401
-1.32611 -18.6087 139.81599
-1.90851 -18.154499 140.062
1.3914 -19.2938 139.74699
1.37372 -19.372299 139.94501
0.88164699 -19.451799 139.85001
0.85434598 -19.5536 140.093
0.352575 -19.536501 140.009
0.30913499 -19.6742 140.317
2.34654 -18.7152 139.666
2.33074 -18.795 139.827
1.89774 -18.9734 139.52
1.8856 -19.0436 139.69299
1.8690701 -19.115299 139.855
1.31906 -19.083099 139.093
1.40812 -18.972601 138.976
1.55356 -19.089701 139.31
1.61111 -18.998501 139.183
-3.19695 -15.3266 140.71201
-3.0306101 -15.7751 141.278
-2.8654001 -16.3237 142.153
-3.16503 -14.8299 141.006
-2.9540901 -15.2201 141.63
-2.7465401 -15.694 142.539
-3.0011101 -14.3962 141.269
-2.7606001 -14.7479 142.036
-2.42155 -15.2944 143.147
-3.21348 -14.2347 140.681
-3.4305799 -14.1627 139.966
-3.3206301 -14.8584 140.334
-2.7488899 -13.8888 141.467
-2.4074399 -13.3935 141.64999
-3.0032699 -13.599 140.82401
-2.67609 -12.9911 140.96001
-3.2715099 -13.2283 140.11099
-2.9272399 -12.5349 140.239
-3.1068201 -12.0614 139.457
-3.1979301 -11.6471 138.65601
-3.4833 -12.7407 139.326
-3.60007 -12.2944 138.521
-3.6835401 -13.5448 139.132
-3.8318601 -13.0446 138.327
-2.6707799 -16.6096 143.332
-2.3340499 -17.1238 144.35201
-2.49421 -16.2106 143.554
-2.1159101 -16.860201 144.57001
-2.1856 -16.006701 144.011
-1.83891 -16.672701 144.85001
-2.6291599 -17.627501 143.78999
-2.5264299 -17.342199 144.071
-2.78789 -17.013201 142.924
-3.4258101 -14.9263 139.433
-3.2502699 -15.6096 138.97301
-3.2632501 -15.4523 139.87399
-3.05281 -16.1175 139.461
-3.10186 -15.9414 140.328
-2.8675599 -16.6098 139.966
-1.99034 -12.983 141.76401
-1.50133 -12.6539 141.80901
-2.23891 -12.5295 141.07001
-1.7036099 -12.2011 141.16299
-2.4574399 -12.0418 140.342
-1.8923399 -11.6912 140.45599
-2.4898 -14.2528 142.27299
-2.1446199 -14.7372 143.235
-2.14908 -13.7963 142.431
-1.80897 -14.3081 143.35001
-2.6249599 -17.502399 141.211
-2.7231901 -17.067499 140.549
-2.3017299 -18.054001 140.94099
-2.37602 -17.6462 140.291
-2.5052199 -17.2034 139.685
-0.75987703 -19.474899 140.56
-0.81252301 -19.670401 140.985
-1.3188699 -19.2644 140.94501
-1.37161 -19.504499 141.44701
-1.85446 -18.9007 141.32001
-1.91202 -19.2584 142.04601
-0.196366 -19.5571 140.243
-0.248733 -19.7215 140.612
-2.2829499 -18.425501 141.62801
-2.3213 -18.751699 142.358
-2.5769401 -17.9172 141.94501
-2.57672 -18.2906 142.74001
2.85569 -17.9401 139.078
3.1208 -17.576799 139.172
2.84374 -18.075701 139.297
3.1352999 -17.7029 139.405
2.7845299 -18.236401 139.513
3.12041 -17.836201 139.617
3.1106999 -17.9452 139.81
3.1124201 -18.0359 139.985
2.75752 -18.3461 139.702
2.74775 -18.431101 139.86501
1.9051501 -18.9209 139.369
1.9026901 -18.8634 139.24699
-2.60833 -11.5667 139.554
-2.0411699 -11.1907 139.674
-2.6846199 -11.164 138.752
-2.1337199 -10.7573 138.85899
-0.74473298 -10.2397 138.931
-1.4813499 -10.4448 138.92599
-1.36309 -10.9243 139.767
-1.19717 -11.4681 140.561
-0.58961701 -10.7714 139.80299
-0.32071999 -11.4119 140.687
0.52127701 -11.3127 140.431
1.27447 -11.3634 140.189
0.227375 -10.7266 139.701
1.0506999 -10.8788 139.55701
0.049031999 -10.1755 138.85699
0.84710199 -10.3132 138.74699
-0.95252299 -12.4017 141.832
-0.414949 -12.2235 141.836
-1.07366 -11.9871 141.239
-0.441019 -11.8684 141.306
-1.75267 -13.414 142.53
-1.438 -13.9456 143.43401
-1.30583 -13.091 142.576
-1.04096 -13.6176 143.48
0.050471 -12.0802 141.755
0.54553503 -12.0179 141.65199
0.20105501 -11.7455 141.19701
1.12405 -12.0077 141.479
1.75875 -12.1074 141.308
0.82050502 -11.6767 140.957
1.50701 -11.7508 140.752
-0.791596 -12.8353 142.58099
-0.56315202 -13.3653 143.513
-0.23936 -12.6381 142.533
0.031552002 -13.2179 143.60201
-1.31472 -15.0002 144.379
-0.71385998 -15.7535 145.371
-0.98486 -14.6515 144.45599
-0.42947799 -15.3994 145.437
-0.66430199 -14.3021 144.49899
-0.159621 -15.0459 145.48599
-1.87415 -15.7475 144.283
-1.3168499 -16.3333 145.24001
-1.64695 -15.3551 144.297
-1.03728 -16.0576 145.32201
2.40096 -15.7451 136.562
2.50366 -16.030701 137.021
2.63272 -16.325001 137.409
2.1335199 -16.263399 136.45
2.2260101 -16.534401 136.911
2.34566 -16.8055 137.298
1.78655 -16.695 136.368
1.88708 -16.9526 136.83501
1.37398 -17.0406 136.323
1.50459 -17.2894 136.81
-1.9948 -16.822001 137.422
-2.6371701 -16.315201 137.726
-2.25369 -16.3654 136.839
-2.8598399 -15.8602 137.16901
-3.68401 -14.5558 137.799
-3.3271201 -15.2792 137.52299
-3.12183 -15.7503 138.06799
-2.91134 -16.226601 138.60001
-3.4424901 -15.1293 138.45799
-3.85481 -13.8091 138.073
-2.9511001 -16.412001 140.884
-2.8262899 -16.8979 141.56799
-2.74347 -17.401199 142.31799
-2.68344 -17.907499 143.28799
-1.6041 -16.489 145.041
3.9442301 -15.5885 140.04601
3.7937701 -16.101801 139.808
3.59531 -16.639 139.56
3.86937 -15.3104 139.662
3.7344401 -15.8722 139.461
3.5403199 -16.455601 139.252
3.7477901 -14.9541 139.22
3.6513 -15.6002 139.069
3.4693301 -16.2363 138.907
3.37673 -15.984 138.58099
3.2711201 -15.7397 138.274
3.5208199 -15.2935 138.651
3.35285 -15.0578 138.28
3.5711601 -14.5519 138.711
3.3234301 -14.1888 138.20799
3.2986701 -13.3473 138.394
3.17261 -12.6782 138.679
3.54245 -13.8709 138.89101
3.4802799 -13.3606 139.133
3.7451601 -14.3627 139.375
3.6935401 -13.8894 139.541
3.91364 -14.8105 139.832
3.88062 -14.3634 139.978
4.0260901 -15.154 140.243
4.05303 -14.7829 140.407
3.4421401 -13.1113 139.866
3.5176699 -13.2292 140.383
3.6294401 -13.4038 140.845
3.7361901 -13.6646 140.28799
3.8238399 -13.74 140.748
3.9514301 -14.0856 140.67101
4.3115902 -14.705 141.47501
4.3281202 -15.0116 141.30701
4.2888899 -15.3035 141.14
4.1500702 -14.4368 141.08701
4.1921 -14.7607 140.94901
4.1740899 -15.076 140.78799
4.0187802 -14.4172 140.54201
2.80035 -11.9346 138.59
2.3171101 -11.2695 138.451
3.2752099 -12.7996 139.263
2.90219 -12.1933 139.189
2.4124999 -11.6346 139.19501
3.0362 -12.4987 139.808
2.55235 -11.9938 139.854
2.71558 -12.3282 140.45399
2.8915901 -12.6489 141.024
3.1677101 -12.759 140.379
3.3150499 -13.0194 140.918
3.8144 -13.9753 140.116
3.59671 -13.4803 139.664
3.37047 -17.1369 139.34
3.3101399 -17.0009 139.06
3.0445299 -17.488701 138.912
3.23176 -16.8393 138.744
4.00249 -15.81 140.39101
4.0636702 -15.9759 140.716
3.83289 -16.290501 140.118
3.8707399 -16.4382 140.40601
3.6245401 -16.7997 139.83299
3.64377 -16.937201 140.08299
4.11413 -15.4131 140.61
4.2025499 -15.6085 140.95399
3.08373 -13.5411 137.755
2.8928001 -13.0624 137.302
3.0376799 -12.8143 137.964
2.8177299 -12.3376 137.552
2.90728 -12.1748 138.13901
2.69051 -11.7606 137.785
2.5651901 -11.4417 138
0.28549799 -12.46 142.384
0.551489 -12.8995 143.205
0.82170802 -12.3603 142.23599
1.10893 -12.7595 142.911
2.3631799 -12.3312 141.15401
2.15415 -11.9784 140.582
1.9598401 -11.6032 139.989
1.79476 -11.1951 139.356
1.61465 -10.7129 138.64301
1.4066401 -12.3585 142.062
1.6761301 -12.7492 142.70799
2.0084901 -12.4699 141.884
2.2496901 -12.8573 142.50101
2.79498 -13.0737 142.302
3.28299 -13.3541 142.119
2.57974 -12.6926 141.71899
3.0834401 -12.991 141.57001
0.55864102 -13.6754 144.47701
1.04909 -14.1952 145.297
0.91546601 -13.3735 144.13901
1.36225 -13.9194 145.093
1.4031399 -13.1931 143.811
1.75502 -13.6846 144.793
0.480064 -14.5561 145.453
0.743761 -14.3587 145.36501
0.151859 -13.9012 144.588
1.9689699 -13.1684 143.436
2.2119501 -13.5778 144.36301
2.5060401 -13.272 143.17799
2.7521501 -13.669 143.86301
-0.28329 -14.0304 144.504
0.152455 -14.7603 145.476
-3.66819 -14.3466 138.81
-2.6970501 -16.7229 139.132
3.1657701 -15.4491 137.989
3.0390899 -15.1879 137.67999
3.18397 -14.6824 137.88901
2.8933699 -14.8426 137.314
2.7585399 -14.5129 136.86
3.02162 -14.207 137.519
2.8655601 -13.8049 137.06599
3.0878999 -16.3417 138.177
2.9907899 -16.0641 137.873
2.75314 -16.609699 137.748
2.8615201 -15.7682 137.536
3.1623199 -16.600401 138.468
2.4493001 -17.056299 137.619
2.6033499 -15.1592 136.696
2.72172 -15.458 137.15199
3.0232699 -13.4837 142.92101
3.25404 -13.8942 143.53799
3.5055799 -13.7524 142.685
3.7862799 -14.206 143.25301
4.1354198 -14.3258 142.88901
4.3921299 -14.5041 142.617
3.9093101 -14.0041 142.46001
4.2252598 -14.295 142.261
3.68975 -13.6583 141.953
4.0047002 -13.9951 141.797
3.49244 -13.3271 141.436
3.8027 -13.6888 141.317
3.3940001 -17.274 139.588
3.39785 -17.4048 139.812
2.77057 -17.888 138.868
3.6705999 -17.052299 140.317
3.7051401 -17.152599 140.53
3.40469 -17.5163 140.021
3.4202001 -17.612801 140.211
4.14575 -16.099701 141.032
3.92381 -16.5543 140.68201
3.98546 -16.6523 140.935
-1.7181 -19.937599 142.636
-1.53009 -20.356199 142.959
-1.9572999 -19.8487 143.02699
-1.68814 -20.388599 143.485
-2.0599401 -19.8167 143.489
-1.77175 -20.381201 144.037
-2.0499899 -19.565701 144.407
-2.4734499 -18.810699 143.716
-2.1067801 -19.7003 143.94099
-2.4012101 -19.054701 143.21201
-2.1913199 -19.370399 142.858
-1.82346 -19.619301 142.36099
-1.36996 -19.7589 141.825
-0.84733301 -19.871201 141.351
-1.33211 -20.0315 142.15601
-0.854146 -20.094101 141.675
-0.82247299 -20.3533 141.972
-0.336835 -20.2903 141.498
-0.32892501 -20.076401 141.23399
0.17968901 -20.1665 141.09399
0.217115 -19.980301 140.855
0.76448202 -19.8179 140.552
1.30723 -19.5875 140.327
0.704301 -19.998501 140.782
1.24278 -19.7652 140.545
-1.63674 -20.233101 144.946
-1.86158 -19.4389 144.87801
-1.446 -20.112301 145.35201
-1.52432 -19.377701 145.414
-1.17371 -20.062401 145.763
-1.75641 -20.322599 144.519
-2.2326 -18.386999 144.698
-2.4063101 -18.5856 144.22501
-1.25433 -18.758699 145.97099
-0.76121998 -19.4505 146.521
-1.0684201 -18.527 146.244
-0.61861598 -19.2673 146.798
-0.85421801 -18.3048 146.50101
-0.44910601 -19.0819 147.071
-0.15881801 -17.9785 147.118
-0.80696702 -17.0165 146.196
-0.584813 -18.097799 146.763
-1.11417 -17.214899 145.987
-1.39469 -17.4223 145.763
-0.94302601 -19.9342 146.08099
-1.4018101 -19.029301 145.69099
-0.87971503 -19.66 146.261
-1.64884 -17.6439 145.52699
-1.8631099 -17.8927 145.289
3.4924099 -15.522 147.04601
3.7507801 -15.36 146.70599
3.01633 -15.0129 146.407
3.6094201 -14.708 145.19701
2.97682 -14.0659 144.679
3.2474 -14.7589 145.811
2.5834401 -14.0925 145.224
2.2370901 -14.2741 145.685
0.49417701 -17.391399 147.425
1.04775 -17.8748 148.092
0.68338901 -16.884501 147.42599
1.19899 -17.537701 148.127
1.09545 -16.6171 147.57401
1.48875 -17.33 148.26199
0.86763299 -18.134701 147.97701
0.354902 -15.7334 146.547
0.060616001 -16.0744 146.492
-0.20942 -16.4452 146.422
3.79445 -17.343201 140.88499
3.7453001 -17.247101 140.717
4.0994802 -16.8473 141.34399
4.0350399 -16.7586 141.142
4.14396 -15.1978 145.746
4.2757602 -15.1383 145.121
4.0910101 -14.7649 143.881
3.8566599 -14.4701 143.742
3.7491 -14.5862 144.423
3.45257 -14.2545 144.10899
3.8812699 -15.2113 146.21201
1.76336 -17.046801 148.187
1.59639 -15.9205 147.138
0.95639801 -15.1907 146.358
1.31125 -16.172501 147.32001
0.65053999 -15.4202 146.464
4.2811198 -15.0347 144.491
4.4114299 -15.1102 143.985
4.6090498 -15.3229 143.552
4.7505298 -15.5178 143.17
4.4625902 -15.0812 143.505
4.68292 -15.3069 143.19
4.6570802 -15.1616 143.142
4.6564999 -15.0372 143.073
4.4697299 -14.9493 143.377
4.5405898 -14.8707 143.241
4.21702 -14.7159 143.55099
4.3634 -14.7003 143.34399
3.1483901 -18.2104 140.289
3.1795299 -18.3078 140.427
2.75717 -18.6057 140.161
2.7690599 -18.707001 140.30299
2.3148401 -18.9757 140.13
2.3062799 -19.088499 140.286
2.3222201 -18.8785 139.978
2.7489901 -18.5147 140.01601
3.1254001 -18.121401 140.144
3.85729 -17.448099 141.039
3.48263 -17.7918 140.535
3.5302 -17.888599 140.679
4.44136 -16.508301 141.993
4.1631699 -16.978399 141.498
3.4460299 -17.702 140.381
-2.06552 -18.128 145.01601
0.380041 -18.4806 147.793
0.098751001 -17.5711 147.179
0.59700203 -18.222099 147.811
0.052014999 -18.746401 147.634
-0.51697701 -16.7386 146.312
-0.239603 -18.8869 147.338
2.20314 -16.534401 147.71201
1.89674 -15.7341 146.98599
2.46415 -16.372101 147.528
2.3165801 -15.6124 146.91499
2.7674699 -16.2838 147.45399
1.94988 -16.748199 147.92999
1.56253 -14.8126 146.14999
1.2460999 -15.0026 146.25301
-1.24044 -20.3563 142.476
2.5392699 -15.1939 146.63901
3.1491799 -15.6887 147.17101
2.97211 -16.010201 147.351
1.87972 -14.5303 145.96001
4.6175098 -15.978 142.338
4.7514 -15.7038 142.687
4.6507902 -16.1126 142.442
4.77525 -15.7873 142.80299
4.7785602 -15.5035 142.94501
4.2974 -15.7622 141.265
4.4011502 -15.4942 141.451
4.1360402 -14.5166 143.366
0.261774 -19.8186 140.597
-0.29639801 -19.8901 140.94
1.34656 -19.4646 140.132
0.81274998 -19.6738 140.325
1.82735 -19.307301 140.188
1.85122 -19.200001 140.01801
1.79549 -19.442301 140.366
4.0167799 -14.0635 141.201
4.2230902 -14.3736 141.646
4.3955598 -14.5973 142.039
4.5553899 -14.7847 142.351
4.4735198 -14.9243 141.82001
4.619 -15.1004 142.103
4.5898499 -15.3852 141.899
4.4665399 -15.2214 141.62601
4.5400701 -14.6816 142.834
4.6501598 -14.8285 142.952
4.6736302 -14.9328 142.56599
4.7399802 -15.0343 142.7
4.7190199 -15.2271 142.323
4.7785501 -15.3096 142.496
4.7256598 -15.5293 142.325
4.6757202 -15.4802 142.134
4.3369598 -14.5424 143.09
4.5087099 -14.7237 143.151
4.6556101 -15.7991 142.36501
4.71136 -15.6301 142.41
4.7460399 -15.579 142.65401
4.7562699 -15.4517 142.64301
4.75067 -15.3707 142.907
4.7256999 -15.2613 142.877
1.4191999 -18.663601 138.41499
1.3971601 -18.7904 138.64799
2.1324 -18.6322 139.09399
2.2321401 -18.463499 138.92101
1.47917 -18.901501 138.90199
1.6435699 -18.9296 139.093
1.89801 -18.814501 139.159
1.91438 -18.8137 139.091
1.96429 -18.886801 139.048
4.7792301 -15.4376 142.53101
4.7890301 -15.2499 142.62801
4.7827501 -15.3419 142.621
4.74227 -15.3218 142.711
4.6905799 -14.9196 142.92799
4.7507901 -15.0681 142.76401
4.6426802 -14.881 143.07401
4.6483998 -15.0204 142.98801
4.6532102 -14.9151 143.009
4.6893301 -15.185 142.862
6.1129498 -21.446199 145.399
6.0196199 -21.636299 145.44099
5.8695402 -21.8055 145.467
5.97578 -21.4755 145.263
5.8457298 -21.6514 145.284
5.8117099 -21.4946 145.121
5.85495 -21.299999 145.034
5.8646102 -21.1429 144.95799
5.9795399 -21.285801 145.149
5.9667802 -21.128901 145.058
6.0795202 -21.2689 145.258
6.0489898 -21.1427 145.17
6.1206102 -21.186501 145.297
6.2027402 -21.2577 145.47099
6.1826601 -21.327999 145.439
6.2976899 -21.631701 145.77299
6.2030802 -21.768499 145.772
6.1191902 -21.9324 145.86099
6.2141299 -21.544201 145.59801
6.1150198 -21.705299 145.61301
6.0040002 -21.881399 145.68401
6.2820301 -21.444201 145.65401
6.3152099 -21.3887 145.72501
6.3749099 -21.563801 145.869
6.4243598 -21.5387 145.98801
6.4905801 -21.681299 146.181
6.4966202 -21.815599 146.299
6.43467 -21.682199 146.03799
6.4478102 -21.7945 146.149
6.3601599 -21.714701 145.91701
6.3943801 -21.7812 146.022
5.8520799 -21.037201 144.896
5.8680401 -20.870001 144.78
5.9552398 -21.021 144.99899
5.9780598 -20.8528 144.888
6.03514 -21.051201 145.12399
6.0585399 -20.897499 145.02901
5.6990199 -21.3983 144.961
5.6261401 -21.33 144.868
5.7480602 -21.2264 144.903
5.5767398 -21.266001 144.80099
5.54357 -21.1709 144.70799
5.71802 -21.129 144.83099
5.71451 -20.9893 144.724
5.6321702 -21.5662 145.03101
5.4877601 -21.5865 144.946
5.5430298 -21.4582 144.886
6.9212499 -19.471001 144.30901
6.78651 -19.733101 144.39301
6.6222601 -19.984301 144.506
6.7511702 -19.575399 144.19901
6.6090498 -19.825701 144.29601
6.56845 -19.6644 144.105
6.5731902 -19.4674 143.972
6.54386 -19.335199 143.88499
6.7490802 -19.383699 144.069
6.7167301 -19.245199 143.97501
6.9094701 -19.2897 144.17
6.8820801 -19.172001 144.08701
7.0060201 -19.1544 144.217
7.09832 -19.1745 144.36301
7.0422902 -19.284 144.334
7.0907998 -19.5933 144.662
6.9756398 -19.7777 144.698
6.8846002 -19.956699 144.813
7.0165901 -19.5348 144.498
6.8828902 -19.759199 144.552
6.7578001 -19.979401 144.672
7.1156402 -19.363199 144.507
7.1697898 -19.2507 144.539
7.1782198 -19.450701 144.686
7.2300301 -19.3559 144.73399
7.2767801 -19.4827 144.92999
7.2950001 -19.6227 145.105
7.2219801 -19.5515 144.854
7.2367401 -19.659901 144.993
7.1438498 -19.6521 144.799
7.1754098 -19.6987 144.901
6.4869599 -19.2563 143.81799
6.34167 -19.1632 143.69099
6.66962 -19.153601 143.90601
6.5251198 -19.0256 143.752
6.8512602 -19.0741 144.03101
6.73733 -18.8528 143.845
6.4155898 -19.6113 143.957
6.3088002 -19.566401 143.868
6.4119201 -19.445801 143.853
6.2287698 -19.5277 143.80901
6.0885601 -19.4667 143.69099
6.3357301 -19.380501 143.785
6.18959 -19.305901 143.66499
6.3955402 -19.808701 144.114
6.2622199 -19.8895 144.12199
6.2738199 -19.723 143.97099
4.5636702 -22.677799 144.923
4.61132 -22.743099 145.03799
4.6714602 -22.8521 145.231
4.4983702 -22.734301 144.899
4.5414701 -22.840599 145.035
4.5830102 -22.9562 145.202
4.4127898 -22.8146 144.88499
4.4630599 -22.922199 145.028
4.5051098 -23.0396 145.196
4.5657501 -22.561701 144.85699
4.56494 -22.429001 144.79201
4.652 -22.600401 144.996
4.6777501 -22.4638 144.955
4.72262 -22.678301 145.17
4.75804 -22.5536 145.14301
4.79425 -22.6737 145.30901
4.80405 -22.8316 145.491
4.7530198 -22.841499 145.37801
4.6855698 -23.1752 145.588
4.6412702 -23.246201 145.604
4.5790801 -23.3186 145.60899
4.6814899 -23.0417 145.43401
4.6141 -23.1038 145.396
4.5455899 -23.178301 145.39301
4.3496699 -22.7048 144.763
4.2892499 -22.6089 144.67
4.4608202 -22.6077 144.787
4.4285698 -22.487801 144.7
4.7418699 -23.0417 145.56599
4.7876902 -23.0555 145.707
4.7192402 -23.2255 145.735
4.7515602 -23.275 145.89999
4.6911502 -23.427299 145.994
4.60706 -23.516199 145.994
4.6695399 -23.3543 145.815
4.5991101 -23.4359 145.82201
4.5781598 -22.318701 144.75
4.6679201 -22.1327 144.69701
4.7090502 -22.361099 144.94
4.8096399 -22.224701 144.94299
4.7986598 -22.467199 145.15199
4.9000502 -22.3463 145.17101
4.2460198 -22.539301 144.60699
4.2094002 -22.4645 144.52901
4.4098401 -22.3974 144.644
4.4138298 -22.283899 144.571
4.3294101 -22.906099 144.88901
4.25001 -22.989901 144.908
4.2489901 -22.817699 144.76801
4.1662998 -22.9193 144.79401
4.1691899 -22.747299 144.67799
4.08602 -22.871201 144.716
2.7931099 -23.2442 143.45599
2.7093101 -23.3626 143.44901
2.60725 -23.448 143.44
2.7182801 -23.1705 143.30901
2.6033299 -23.2971 143.298
2.6022699 -23.0935 143.175
2.8491299 -23.071199 143.42599
2.88276 -22.9114 143.397
2.84196 -23.3344 143.60201
2.9129701 -23.1709 143.593
2.95754 -23.027599 143.58501
2.88798 -23.422501 143.757
2.95945 -23.2619 143.74699
3.00612 -23.1434 143.752
3.01175 -23.2624 143.87399
2.9944799 -23.3799 143.979
2.95912 -23.3941 143.881
2.8824501 -23.604799 143.94299
2.8405399 -23.663601 143.948
2.79479 -23.7213 143.965
2.88463 -23.537701 143.86501
2.8166699 -23.6113 143.838
2.7520499 -23.7017 143.883
2.78249 -23.546301 143.72701
2.67907 -23.663401 143.763
2.65976 -22.9056 143.145
2.6835201 -22.758499 143.121
2.76547 -22.9806 143.25999
2.7896099 -22.8162 143.235
2.74543 -23.462999 143.592
2.6387999 -23.5597 143.591
2.9311399 -23.5177 143.967
2.95768 -23.5175 144.07899
2.89972 -23.624901 144.045
2.9094801 -23.6521 144.16701
2.8478799 -23.765301 144.217
2.7768199 -23.838301 144.21201
2.84882 -23.717501 144.08501
2.7867301 -23.7799 144.08
2.9010999 -22.804701 143.382
2.94238 -22.676399 143.355
2.98474 -22.9384 143.593
3.0450399 -22.842199 143.616
3.0374801 -23.077499 143.784
3.1090901 -23.0061 143.847
2.67729 -22.6462 143.089
2.6745999 -22.4748 143.01199
2.7970099 -22.700701 143.214
2.8157401 -22.5457 143.16499
2.5207 -22.9314 143.05901
2.4632399 -22.8221 142.989
2.5740299 -22.768101 143.03999
2.6103001 -20.569201 141.84399
2.6788099 -20.6084 141.90401
2.74137 -20.679199 141.961
2.5529399 -20.818501 141.94901
2.638 -20.8351 142.00301
2.70819 -20.878599 142.04401
2.5455899 -21.1008 142.10699
2.64065 -21.0945 142.14999
2.7100401 -21.098801 142.168
2.5462401 -22.657301 142.993
2.4163699 -22.737499 142.938
2.51895 -22.486 142.89799
2.3651099 -22.5725 142.83
5.4611902 -21.419399 144.812
5.3863602 -21.5826 144.883
5.3829098 -21.372499 144.72099
5.2259898 -21.622101 144.789
6.1759701 -19.7132 143.927
6.1620002 -19.9256 144.11501
6.04249 -19.678499 143.808
5.96946 -20.0707 144.10699
5.47752 -19.2798 143.118
5.3333502 -19.302601 142.979
5.29182 -19.345501 142.931
5.2232199 -19.023399 142.774
5.17416 -19.104401 142.752
5.1489902 -19.169399 142.733
5.0174999 -18.868601 142.537
4.99682 -18.952801 142.54401
4.9857302 -19.021601 142.54201
6.1101799 -21.1028 145.269
6.13592 -20.9583 145.203
6.20539 -21.190701 145.485
6.2476101 -21.048 145.526
6.35991 -21.282801 145.912
6.4735999 -21.479799 146.23199
6.3284202 -21.3466 145.783
6.4471698 -21.5177 146.077
6.5404501 -21.6581 146.464
6.5362301 -21.827101 146.61
6.51753 -21.676399 146.28799
6.5204401 -21.824699 146.41299
5.4954901 -21.726 145.089
5.5255599 -21.860901 145.26199
5.3890901 -21.7404 145.041
5.4296899 -21.885 145.235
5.2549901 -21.815599 145.008
5.3071699 -21.9664 145.22
5.6558499 -21.7054 145.17999
5.6702199 -21.8445 145.34399
5.5879598 -21.968901 145.44099
5.6838598 -22.0644 145.649
5.4957099 -22.010201 145.44099
5.6091199 -22.120501 145.7
5.3710399 -22.102699 145.45399
5.46773 -22.2558 145.862
5.7632599 -21.9678 145.57401
5.8556399 -22.1355 145.91
6.0430198 -22.1686 146.149
5.8055301 -22.1933 145.996
6.0145998 -22.2232 146.255
5.72615 -22.2824 146.201
5.9520998 -22.2943 146.46001
5.9176798 -22.0333 145.802
6.0699601 -22.072399 146.007
6.2849302 -21.813801 145.90601
6.3527198 -21.8521 146.035
6.2263999 -21.9403 145.985
6.30444 -21.9282 146.064
6.2023602 -22.1381 146.28999
6.3325901 -22.056499 146.34801
6.1893501 -22.1859 146.405
6.3322601 -22.0938 146.465
6.1469598 -22.240801 146.612
6.3141999 -22.131201 146.677
6.2067299 -22.0543 146.13699
6.31953 -21.992599 146.198
6.4373798 -21.944099 146.35201
6.4505501 -21.9678 146.46899
6.4531798 -21.987499 146.67799
6.40309 -21.900101 146.19701
7.0075402 -19.0637 144.2
7.0076599 -18.9083 144.157
7.1167798 -19.0956 144.37399
7.1515098 -18.9695 144.38
7.1965399 -19.1763 144.56599
7.2469101 -19.07 144.60001
7.2595501 -19.2945 144.776
7.3210402 -19.2099 144.84
7.3817401 -19.3787 145.09399
7.4094801 -19.561701 145.32401
7.3108602 -19.438299 144.994
7.33357 -19.596901 145.19299
6.2996101 -20.0427 144.313
6.34482 -20.173201 144.508
6.2186599 -20.0884 144.334
6.28263 -20.2187 144.54401
6.13801 -20.221001 144.422
6.2231202 -20.3409 144.64101
6.4344902 -19.9624 144.304
6.4529099 -20.1089 144.5
6.4059801 -20.250099 144.673
6.50207 -20.280001 144.84399
6.3531499 -20.306299 144.73599
6.4681702 -20.338499 144.942
6.2994199 -20.426901 144.847
6.4315901 -20.468901 145.158
6.5437698 -20.177099 144.702
6.6744099 -20.240601 145.026
6.8736401 -20.158501 145.189
6.66258 -20.2892 145.145
6.88311 -20.194799 145.31799
6.6719398 -20.349001 145.347
6.9134698 -20.233999 145.511
6.69663 -20.143299 144.856
6.8616199 -20.084299 145.00301
7.0580702 -19.7847 144.817
7.1320801 -19.7831 144.933
7.0011001 -19.9119 144.91299
7.0869598 -19.865601 144.978
7.0525699 -20.045 145.283
7.1884098 -19.9114 145.297
7.07792 -20.0679 145.41299
7.2235498 -19.9196 145.41901
7.1261101 -20.0902 145.59399
7.2873402 -19.9228 145.58701
7.0142298 -19.9965 145.09599
7.1338501 -19.891701 145.12601
7.3812099 -19.7449 145.494
7.3076801 -19.76 145.341
7.2683702 -19.768101 145.233
7.20614 -19.7763 145.084
4.8410301 -22.6049 145.34801
4.9447498 -22.494101 145.39799
4.8467698 -22.7945 145.575
4.9486899 -22.7148 145.78101
4.8484402 -23.042601 146.05299
4.7734098 -23.3015 146.252
4.8171501 -23.052401 145.82001
4.7699499 -23.295099 146.02699
4.6813998 -23.4764 146.336
4.56282 -23.5839 146.31799
4.6984501 -23.460199 146.123
4.6015301 -23.556499 146.116
4.10851 -22.698601 144.617
4.0178199 -22.843599 144.66701
4.0446701 -22.6506 144.537
3.9327199 -22.816799 144.591
4.0665698 -22.9688 144.79401
4.0869298 -23.076401 144.935
3.98915 -22.9611 144.763
4.0060201 -23.0945 144.94
3.87837 -22.9568 144.711
3.82932 -23.142599 144.97701
4.1626601 -23.0432 144.92
4.3875899 -23.006599 145.035
4.4342299 -23.118799 145.203
4.3105898 -23.0919 145.064
4.3641901 -23.204901 145.241
4.1486001 -23.228001 145.16299
4.2247901 -23.383499 145.41499
4.0762601 -23.268101 145.20399
4.16256 -23.4377 145.48399
3.94087 -23.3367 145.312
4.0418701 -23.507299 145.618
4.2262902 -23.1689 145.11301
4.2912102 -23.3009 145.325
4.30686 -23.494699 145.627
4.3989701 -23.552401 145.795
4.2563801 -23.5518 145.715
4.3623199 -23.605301 145.896
4.1508098 -23.6129 145.869
4.27668 -23.654699 146.069
4.4187002 -23.3088 145.416
4.46031 -23.3827 145.552
4.3600502 -23.404699 145.515
4.4338999 -23.4664 145.66701
4.5040798 -23.558201 145.92101
4.48317 -23.605 146.033
4.4208202 -23.6432 146.22301
4.5142002 -23.3624 145.58299
4.5165501 -23.473301 145.76801
4.48069 -23.241501 145.39
3.0455999 -23.214199 143.93201
3.1145201 -23.1605 144.037
3.0196099 -23.3594 144.06599
3.0676999 -23.346901 144.284
2.97313 -23.5597 144.39799
2.8950601 -23.7332 144.48199
2.9702401 -23.5207 144.17999
2.9104199 -23.6738 144.27299
2.8078799 -23.8703 144.51801
2.7111001 -23.9578 144.49001
2.8390601 -23.8001 144.32401
2.7593501 -23.882099 144.317
2.38184 -22.961 143.00101
2.32933 -23.136499 143.065
2.3075299 -22.891399 142.94299
2.2383599 -23.092899 143.01401
2.2254901 -22.719801 142.81799
2.0765901 -22.9095 142.856
2.4516399 -23.1252 143.11099
2.3463199 -23.3409 143.2
2.38884 -23.533001 143.42101
2.2555301 -23.3353 143.174
2.30656 -23.5473 143.414
2.11726 -23.285801 143.11501
2.1785901 -23.548599 143.392
2.4674201 -23.3228 143.23599
2.4919701 -23.498899 143.42599
2.4456999 -23.660801 143.616
2.5051601 -23.742701 143.78101
2.3716099 -23.685801 143.63
2.4428301 -23.773701 143.812
2.2491901 -23.7173 143.646
2.3295701 -23.8253 143.86301
2.5336399 -23.6215 143.60001
2.5780399 -23.712099 143.76401
2.5674 -23.7997 143.91701
2.6292 -23.8437 144.04401
2.51648 -23.841499 143.97701
2.5931799 -23.889999 144.125
2.4170201 -23.905899 144.062
2.5109 -23.961399 144.242
2.6103599 -23.9841 144.392
2.6756499 -23.9083 144.245
2.7020099 -23.8594 144.146
2.7207 -23.7901 144.011
2.6487999 -23.773899 143.91901
5.4727302 -19.6646 143.343
5.4282799 -19.6593 143.27299
5.3858199 -19.6528 143.19501
5.47226 -19.496599 143.23599
5.4080501 -19.4921 143.14799
5.3694501 -19.5096 143.084
2.60287 -21.392599 142.317
2.7032299 -21.3482 142.33701
2.7744601 -21.326401 142.338
2.7503901 -21.742201 142.638
2.8264 -21.5606 142.548
2.8812699 -21.508301 142.517
4.92102 -20.033001 143.198
4.8169198 -20.079399 143.14101
4.7564201 -20.1285 143.092
4.5145998 -19.6404 142.72701
4.4767499 -19.687201 142.714
4.4422302 -19.7593 142.69299
4.1613998 -19.269699 142.239
4.1250501 -19.361601 142.261
4.1151299 -19.447701 142.27
4.2820702 -18.9238 142.062
4.3374 -18.982 142.12199
4.3937201 -19.051001 142.179
4.1603799 -19.057199 142.07201
4.2420802 -19.105801 142.147
4.31814 -19.1581 142.203
4.2824202 -19.3048 142.332
4.3638101 -19.325701 142.366
3.74664 -19.034901 141.72
3.69807 -19.128599 141.72701
3.7316201 -19.236 141.8
3.59113 -19.054899 141.58299
3.5517499 -19.144899 141.595
3.5996301 -19.255199 141.689
3.3931799 -19.1691 141.45799
3.42434 -19.231199 141.534
3.4849999 -19.3242 141.63
3.1326499 -19.5786 141.592
3.2372899 -19.5392 141.63499
3.3185501 -19.6031 141.71899
3.11479 -19.8347 141.786
3.21277 -19.7983 141.823
3.2994101 -19.836201 141.88
3.1603701 -20.182899 142.071
3.2550199 -20.1555 142.114
3.3354101 -20.1562 142.13699
3.5660801 -21.1779 142.931
3.4737799 -21.139299 142.82001
3.4285901 -21.1455 142.75101
3.35395 -20.6577 142.509
3.32408 -20.7031 142.494
3.2971101 -20.765699 142.468
3.15026 -20.341299 142.146
3.1433799 -20.445101 142.168
5.0798001 -20.665001 143.72701
4.9320798 -20.7106 143.58099
4.85465 -20.6926 143.47501
5.05127 -20.3564 143.474
4.9521599 -20.4165 143.412
4.87889 -20.432699 143.33099
4.5622101 -19.616301 142.726
4.6178002 -19.601299 142.709
4.9262099 -19.913099 143.10899
4.9405799 -19.8622 143.047
4.0436001 -21.6031 143.556
4.0950899 -21.436399 143.435
4.0935798 -21.340599 143.34
4.3768501 -21.504601 143.791
4.3674898 -21.405899 143.653
4.3345499 -21.3041 143.48801
4.6588898 -21.3256 143.90601
4.6178899 -21.2693 143.77299
4.5652399 -21.181299 143.59
3.40413 -20.6273 142.51199
3.4760301 -20.601601 142.50999
3.62148 -21.0853 142.90401
3.6771901 -21.032 142.87801
3.4654901 -21.617201 143.101
3.4247799 -21.5501 142.99699
3.3959701 -21.496599 142.905
3.56129 -21.4624 143.07899
3.49613 -21.4118 142.97
3.4529901 -21.3766 142.879
2.9795599 -20.1357 141.877
2.99154 -20.257099 141.95
3.01162 -20.3654 142
2.8210599 -20.2377 141.80499
2.85378 -20.3284 141.87601
2.89534 -20.4196 141.936
3.16767 -21.7435 142.94901
3.1647601 -21.665001 142.866
3.1621001 -21.6113 142.791
3.32774 -21.7092 143.05299
3.3097601 -21.630301 142.957
3.2906301 -21.5686 142.86501
4.6273098 -18.794399 142.226
4.6457701 -18.8668 142.259
4.6792798 -18.943701 142.29601
4.4449902 -18.838499 142.123
4.4815898 -18.903999 142.17
4.5302401 -18.985001 142.22301
5.1815801 -20.0758 143.38699
5.1713901 -19.9946 143.299
5.1475501 -19.940901 143.20799
5.3380899 -19.9758 143.44
5.3075299 -19.9263 143.354
5.2649698 -19.8892 143.25999
3.2144599 -19.3902 141.49699
3.31319 -19.3627 141.547
3.3891301 -19.4412 141.642
3.79444 -21.4352 143.242
3.8520801 -21.3428 143.203
3.8821499 -21.2638 143.14
4.8838 -21.047001 143.87601
4.8070798 -21.021 143.73199
4.74086 -20.953501 143.55701
3.92296 -19.1028 141.929
3.8777201 -19.192699 141.937
3.89431 -19.2964 141.98199
2.69872 -20.3815 141.79601
2.74965 -20.446199 141.862
2.80884 -20.5355 141.931
2.99336 -21.749901 142.821
2.99698 -21.648001 142.726
3.0193999 -21.596201 142.66901
4.8203502 -18.7983 142.36099
4.81949 -18.8778 142.381
4.83144 -18.955299 142.399
4.2024102 -18.850401 141.966
4.10324 -18.7696 141.839
4.39957 -18.753799 142.052
4.3397298 -18.6527 141.953
4.61164 -18.696301 142.173
4.5905099 -18.5734 142.09801
5.4347701 -19.8283 143.42101
5.3919001 -19.805799 143.341
5.34097 -19.7808 143.245
3.7750599 -20.9716 142.87199
3.90677 -20.8888 142.881
4.02595 -21.1761 143.15401
4.2437301 -21.1243 143.272
4.0875301 -20.816799 142.957
4.4568 -21.008499 143.349
4.2737799 -20.7073 143.019
4.6251402 -20.8074 143.341
4.4331102 -20.539101 143.02499
4.7520599 -20.5748 143.291
4.5627799 -20.3549 143.011
4.6752901 -20.2255 143.049
4.3839102 -19.8738 142.664
4.29528 -20.012899 142.63901
4.0830798 -19.5522 142.263
4.03056 -19.675301 142.259
3.8464799 -19.412399 141.97701
3.7243099 -19.4592 141.89999
3.9164901 -19.762899 142.21899
3.6079199 -19.5347 141.851
3.78965 -19.857901 142.183
3.5055399 -19.6481 141.854
3.6684201 -19.969101 142.168
3.41872 -19.788799 141.897
3.5570099 -20.079201 142.16701
3.4360399 -20.1248 142.147
3.5871501 -20.553801 142.50999
3.7254701 -20.4841 142.52499
2.9747 -20.546801 142.036
3.0718901 -20.7428 142.188
2.88921 -20.692499 142.03999
2.98651 -20.8979 142.188
2.80743 -20.833799 142.058
2.8898301 -21.0263 142.189
2.7922299 -21.0744 142.17599
2.86605 -21.2957 142.341
2.9744401 -21.2318 142.349
2.96456 -21.472401 142.51601
3.0613301 -21.4076 142.51801
3.12079 -21.5326 142.66901
3.2458701 -21.4669 142.724
3.1760399 -21.3144 142.548
3.35624 -21.391399 142.77499
3.2819901 -21.2188 142.595
3.36747 -21.173201 142.67599
3.2521501 -20.8591 142.42799
3.18328 -20.9793 142.388
3.11538 -20.579201 142.175
5.1655502 -19.834101 143.112
5.0057101 -19.7152 142.903
5.2441101 -19.7241 143.088
5.0994601 -19.617701 142.884
5.31141 -19.6043 143.061
5.1931901 -19.5131 142.88699
5.25845 -19.4233 142.912
5.1082602 -19.255899 142.711
5.0341201 -19.357201 142.685
4.9441199 -19.0994 142.521
4.8734002 -19.1931 142.49899
4.7585201 -19.050301 142.37399
4.61584 -19.111401 142.31599
4.74646 -19.275101 142.463
4.4690499 -19.170601 142.27
4.60467 -19.335699 142.42999
4.4703002 -19.337299 142.392
4.6940298 -19.578501 142.67999
4.79498 -19.534401 142.659
4.9646401 -19.7992 142.97501
3.8740599 -20.3918 142.564
4.0262399 -20.2815 142.603
4.1711302 -20.152399 142.62399
3.0857301 -21.1154 142.36301
4.91927 -19.455799 142.664
-1.2219 -20.891899 143.278
-1.33907 -20.9891 143.93401
-1.37497 -21.0219 144.52
-0.73604298 -20.667101 142.23399
-0.314109 -20.541401 141.739
0.150901 -20.3827 141.31599
0.60524601 -20.234301 141.032
1.12799 -20.0327 140.814
0.655339 -20.476801 141.21899
0.269813 -20.9207 141.688
0.19038101 -20.605 141.493
-1.21416 -20.885799 145.466
-1.03343 -20.758301 145.83099
-0.80892497 -20.6605 146.13499
-1.32432 -20.988501 145.02499
-0.31168899 -20.121099 147.01601
-0.211703 -19.9648 147.302
-0.084385 -19.802401 147.592
-0.35808 -20.597401 146.633
-0.373016 -20.309299 146.772
4.02391 -15.9771 147.483
4.20262 -15.8182 147.241
4.39465 -15.74 146.944
1.49825 -18.357599 148.61501
1.65899 -18.1124 148.705
1.8797899 -17.894699 148.787
1.3332 -18.853001 148.476
1.3658201 -18.555201 148.49001
4.68291 -15.6203 146.076
4.74717 -15.5575 145.603
4.8147302 -15.5227 145.092
4.5302601 -15.6574 146.52299
2.0776801 -17.6485 148.74001
2.3157401 -17.4512 148.638
4.8051701 -15.4451 144.483
4.8036499 -15.4653 143.98599
4.83114 -15.6131 143.539
4.8278198 -15.829 143.05
3.21577 -18.4098 140.561
2.7848401 -18.812799 140.444
2.3048 -19.2064 140.439
3.9326999 -17.5648 141.17799
3.58622 -17.990999 140.815
4.5922999 -16.6474 142.198
4.25489 -17.121201 141.634
-0.61849302 -20.5658 146.349
0.84286898 -18.974701 148.31
1.06705 -18.8388 148.34399
0.28944901 -19.416901 148.086
0.55163699 -19.157801 148.20799
0.072371997 -19.613199 147.856
2.7711301 -17.070101 148.172
3.0216999 -16.958401 147.96001
3.34833 -16.9478 147.851
2.53196 -17.237301 148.41299
-0.24176 -20.841499 141.953
-0.106998 -21.2227 142.166
-0.577434 -21.0543 142.455
-0.338617 -21.517 142.65401
-0.42123201 -21.7955 143.145
-0.464681 -22.051201 143.868
-0.76986098 -21.2612 142.97301
-0.858078 -21.476801 143.61301
-1.05235 -20.768299 142.752
0.41694799 -22.6623 143.05299
0.39161199 -22.180599 142.573
0.464333 -21.7988 142.19701
0.80054098 -23.000401 143.09399
0.72672498 -22.5406 142.642
0.72477698 -22.1075 142.30099
1.12465 -23.2521 143.175
1.03636 -22.809099 142.73801
1.00081 -22.3484 142.35699
2.14693 -19.9928 141.092
2.1793599 -20.153999 141.24899
2.2434399 -20.288401 141.38901
1.8387001 -20.3454 141.214
1.89764 -20.536501 141.373
1.9948699 -20.682699 141.507
1.53929 -20.739401 141.386
1.64438 -20.944201 141.534
1.77888 -21.157301 141.681
1.58324 -21.5191 141.811
1.48063 -21.8542 141.97099
1.44032 -21.333799 141.70799
1.3038599 -21.715599 141.907
1.29356 -21.142599 141.593
1.1195199 -21.5427 141.827
1.2174 -23.6073 143.73399
1.30948 -23.8612 144.23
0.90866899 -23.4097 143.716
1.0116 -23.699301 144.28
0.60761601 -23.202801 143.761
0.72346503 -23.507401 144.33
0.46036899 -23.2661 144.308
0.195443 -22.972601 144.27299
0.270686 -22.8367 143.662
1.4037 -23.415199 143.244
1.67006 -23.504499 143.295
1.48996 -23.7391 143.731
1.75538 -23.790001 143.709
1.58877 -23.9613 144.159
1.85771 -23.9793 144.065
1.30593 -22.9918 142.82201
1.24887 -22.5331 142.43401
1.5759 -23.118401 142.911
1.4992501 -22.684 142.55099
1.78868 -22.818899 142.707
1.86944 -23.2174 143.021
1.94788 -23.5408 143.34801
1.02447 -21.9373 142.07899
1.2432801 -22.107 142.133
1.46306 -22.250099 142.22099
1.45662 -20.5189 141.217
1.1509 -20.932199 141.459
0.93026501 -21.3374 141.724
1.38419 -20.315701 141.049
1.01109 -20.733101 141.32899
0.74807 -21.1315 141.62199
-0.0084060002 -22.0543 142.84399
0.098572999 -21.7024 142.396
0.29707199 -21.4021 142.002
0.54917198 -21.001801 141.601
0.57156199 -21.4582 141.89
1.41219 -24.0513 144.694
1.54374 -24.189199 145.14101
1.099 -23.9074 144.804
1.21109 -24.0543 145.308
0.78541201 -23.7024 144.888
0.86953402 -23.840401 145.438
0.53297001 -23.552601 145.521
0.19644199 -23.1929 145.541
0.48584199 -23.437 144.92999
0.17891 -23.107401 144.918
1.71807 -24.2764 145.57001
1.9088399 -24.297899 145.933
1.37228 -24.148899 145.793
1.56582 -24.182699 146.20399
1.00621 -23.9286 145.967
1.19382 -23.9639 146.41299
0.80952197 -23.6364 146.548
0.420439 -23.2101 146.588
0.63810003 -23.6175 146.078
0.270136 -23.2232 146.10899
1.70656 -24.123699 144.56
1.98068 -24.111401 144.39799
1.8507 -24.2397 144.94299
2.1227601 -24.2017 144.711
2.08182 -24.2467 146.19
2.2146499 -24.163601 146.37801
1.76143 -24.1523 146.48599
1.9184099 -24.093599 146.64999
1.41836 -23.9501 146.72301
1.6496 -23.9282 146.91499
2.0238099 -24.310699 145.304
2.27964 -24.253401 144.99699
2.2048199 -24.317699 145.606
2.44086 -24.246099 145.22701
2.5925801 -24.1635 145.386
2.7139699 -24.0278 145.547
2.3642199 -24.2507 145.82201
2.4647 -24.158001 146.013
2.1209199 -23.9135 143.95599
2.22943 -24.0166 144.215
2.34986 -24.085899 144.455
2.0273499 -23.766701 143.67599
-0.15505999 -22.7616 145.472
-0.53826302 -22.2519 145.27699
-0.153861 -22.697201 144.817
-0.51883298 -22.201599 144.61301
-0.113843 -22.555799 144.105
0.029847 -22.7003 146.508
-0.367015 -22.129 146.295
-0.100784 -22.754499 146.041
-0.489494 -22.217199 145.843
2.6083 -24.101101 144.82001
2.73456 -24.0123 144.901
2.8464601 -23.866301 144.91901
3.0506599 -23.581699 145.326
2.87377 -23.760799 145.936
2.6650901 -23.8311 146.437
2.8838601 -23.807899 145.423
2.74248 -23.9039 145.97099
2.5385301 -23.9356 146.44501
2.59021 -24.0474 146.064
2.39569 -24.0411 146.476
2.4779 -24.1203 144.66499
1.04545 -23.625099 146.886
1.32339 -23.6415 147.08701
0.65863103 -23.18 146.95
0.998191 -23.197599 147.213
0.49854901 -22.554899 147.112
0.060178 -21.9181 146.875
0.24378499 -22.6259 146.86099
-0.171233 -22.020901 146.632
1.68448 -23.840799 147.075
1.86175 -23.8382 147.073
1.49353 -23.582199 147.22501
3.0102301 -23.8533 147.049
3.2759399 -23.848801 146.651
3.5355899 -23.762699 146.26199
3.16415 -23.8437 147.338
3.4299901 -23.865801 146.951
3.68347 -23.813101 146.564
3.35832 -23.771799 147.618
3.62784 -23.816999 147.228
3.8718801 -23.7973 146.82899
4.0932002 -23.732 147.06
4.30195 -23.6138 147.314
3.84601 -23.723 147.479
4.01583 -23.606001 147.72501
3.5726199 -23.653299 147.868
3.7620599 -23.5205 148.086
3.0453801 -23.6448 148.01601
2.6745999 -23.403299 148.379
2.8509099 -23.725901 147.73801
2.48069 -23.4939 148.09599
2.70033 -23.751301 147.448
2.33865 -23.535 147.79601
2.25506 -23.541201 147.536
2.20014 -23.544201 147.35201
2.60588 -23.7299 147.186
2.54092 -23.7073 146.998
2.9066701 -23.803101 146.776
2.8303599 -23.753201 146.569
2.2393301 -23.018101 148.646
1.7625099 -22.492599 148.75101
2.05459 -23.1318 148.347
1.59591 -22.6346 148.429
1.92908 -23.1994 148.032
1.48706 -22.730499 148.103
1.43716 -22.7976 147.83501
1.41078 -22.8493 147.64799
1.86054 -23.235399 147.767
1.81832 -23.262899 147.58099
3.2624099 -23.5187 148.243
3.44803 -23.395901 148.39799
2.9065199 -23.268999 148.59399
3.15501 -23.1541 148.73399
3.8127699 -23.6299 145.894
3.9430201 -23.7124 146.174
4.1005502 -23.73 146.409
3.1624401 -23.765301 146.356
3.0701599 -23.686899 146.12
3.41695 -23.6455 145.95
3.3062401 -23.5392 145.688
3.57477 -23.346901 145.302
3.6991301 -23.483101 145.58299
1.26922 -21.8512 148.653
0.78243899 -21.162399 148.39799
1.1226701 -22.009001 148.314
0.65533298 -21.323999 148.05701
1.0305099 -22.1283 147.98
0.57476902 -21.4589 147.72701
0.55412298 -21.585899 147.47501
0.56922698 -21.7068 147.323
0.99958998 -22.226 147.717
0.99193299 -22.3048 147.543
2.47421 -22.8641 148.87199
2.76507 -22.7677 148.998
1.99281 -22.306601 149.013
2.3610599 -22.162901 149.205
1.71865 -21.4083 149.142
1.1696301 -20.711399 148.895
1.45989 -21.6434 148.93401
0.94355798 -20.9566 148.683
4.7169299 -23.2915 147.252
4.8600602 -23.068399 147.15199
4.98878 -22.8594 147.052
4.6004701 -23.225401 147.767
4.75877 -23.028099 147.67799
4.8828301 -22.852501 147.586
4.4060202 -23.0986 148.243
4.5671301 -22.923901 148.158
4.6865602 -22.771099 148.06599
3.7697101 -22.5954 149.078
3.5752001 -22.771601 149.02
3.4187601 -22.958401 148.90401
4.1304102 -22.899099 148.696
3.93979 -23.0529 148.675
3.7758 -23.1686 148.61099
4.2093501 -23.248699 148.259
4.0108099 -23.360001 148.244
4.2941399 -22.734699 148.634
4.41716 -22.5956 148.55099
3.94052 -22.435699 149.039
4.0703802 -22.308201 148.97
2.82652 -21.5923 149.416
2.57127 -21.811701 149.36301
3.326 -22.158899 149.32899
3.1107399 -22.3556 149.267
2.97087 -22.6052 149.127
4.4102201 -23.387899 147.8
4.2003999 -23.4953 147.834
4.5439401 -23.4736 147.28999
4.4731698 -23.6152 146.726
4.6361599 -23.490499 146.755
4.7636199 -23.308399 146.69901
4.2876902 -23.696301 146.59399
2.3018401 -20.9259 149.31799
1.7820801 -20.231199 149.078
2.0124199 -21.1394 149.27499
1.47729 -20.448299 149.028
3.1942599 -22.9867 148.905
3.50969 -22.007 149.295
3.6431301 -21.8951 149.23
3.0241599 -21.451799 149.37601
3.15748 -21.358999 149.314
4.6104202 -21.908199 149.256
4.4092498 -22.0448 149.12601
4.2616301 -22.144699 149
4.95714 -22.2174 148.854
4.7560301 -22.346399 148.709
4.60396 -22.4363 148.578
5.2356501 -22.416 148.386
5.0324202 -22.5354 148.226
4.8754401 -22.6136 148.092
5.6707201 -22.520901 147.411
5.91324 -22.393 147.567
6.1483202 -22.193001 147.744
5.4709802 -22.5208 147.911
5.70116 -22.3659 148.063
5.8857398 -22.1791 148.226
5.45788 -22.243799 148.52
5.6513801 -22.0525 148.627
3.6587901 -20.910801 149.631
3.47047 -21.0818 149.492
3.3393099 -21.203899 149.36099
4.1740899 -21.4704 149.52499
3.97609 -21.622499 149.395
3.8343799 -21.733299 149.267
5.1821299 -22.048201 148.95
5.3702002 -21.8887 148.992
4.8552599 -21.7397 149.321
5.1154399 -21.596701 149.326
5.8348098 -22.418301 146.882
6.05899 -22.331699 147.03101
6.26683 -22.188 147.11501
6.5523901 -21.7707 147.49001
6.4636302 -21.6542 147.95599
6.2961602 -21.471701 148.394
6.4040298 -21.989401 147.625
6.3018999 -21.860701 148.11
6.1256099 -21.667 148.54201
6.0865598 -22.0109 148.242
5.9239898 -21.818199 148.63699
5.2595401 -22.618601 147.74899
5.0939398 -22.681499 147.617
5.4489102 -22.586901 147.23801
5.2621698 -22.6362 147.092
5.3845701 -22.479 146.46899
5.6055498 -22.447701 146.67101
4.4310799 -21.2904 149.58501
4.7435999 -21.1761 149.567
3.92483 -20.702299 149.71001
4.3284001 -20.534599 149.702
3.6140599 -19.7624 149.7
2.9720299 -19.073299 149.53101
3.3221099 -20.0215 149.67
2.7179799 -19.3395 149.479
3.0857699 -20.2575 149.565
2.50735 -19.5802 149.35699
2.35958 -19.782499 149.211
2.27985 -19.948099 149.097
2.9154201 -20.445299 149.41901
2.80322 -20.581499 149.28799
5.1735001 -21.394899 149.408
5.3957801 -21.345301 149.308
4.9607301 -20.9795 149.547
6.3930101 -21.252701 148.164
6.4288201 -21.035299 147.88499
6.0571499 -21.2265 148.814
6.1817198 -21.0163 148.608
6.2586498 -20.8148 148.353
5.7344198 -20.8909 149.168
