# .PCD v.7 - Point Cloud Data file format
VERSION .7
FIELDS x y z
SIZE 4 4 4
TYPE F F F
COUNT 1 1 1
WIDTH 1612
HEIGHT 1
VIEWPOINT 0 0 0 1 0 0 0
POINTS 1612
DATA ascii
1.86896 -38.700001 29.7801
1.35668 -38.0825 28.7318
-1.42969 -38.326401 30.986401
-1.8662699 -37.811199 29.8013
-0.52062601 -38.643799 30.6495
-0.992428 -38.103199 29.494499
-1.11251 -37.089699 27.200001
-1.57851 -36.5896 26.294001
-2.0177901 -36.186501 25.4007
-0.370377 -37.065498 26.989401
-0.84220898 -36.565102 26.0977
-1.27911 -36.158298 25.215401
0.34779799 -36.9114 26.803801
-0.128712 -36.4123 25.9279
-0.55792803 -35.996799 25.059
1.7487299 -36.195099 26.4589
2.32991 -36.738899 27.3666
2.90834 -37.367802 28.3405
1.05917 -36.625 26.631201
1.5851901 -37.184799 27.547701
2.1177599 -37.800098 28.524599
0.846793 -37.477299 27.7379
-2.7095301 -36.7225 27.711399
-3.13993 -36.2243 26.7724
-3.47155 -35.7971 25.817301
-1.8951 -36.981201 27.4431
-2.34674 -36.481899 26.5217
-2.75021 -36.070202 25.607201
0.113709 -37.631901 27.9417
-0.642322 -37.652901 28.1695
-4.3336902 -35.6996 28.253599
-4.63557 -35.212799 27.2505
-4.9559202 -34.774799 26.237101
-3.53684 -36.296902 27.9911
-3.89622 -35.7948 27.018
-4.21557 -35.365002 26.027599
-1.44595 -37.536098 28.429199
-2.2878101 -37.265301 28.7136
-1.45268 -38.753399 33.915798
-2.41892 -38.005798 34.161598
-1.92632 -38.296902 32.5812
-2.85304 -37.5849 32.8605
-3.2502401 -37.148602 31.6049
-3.6226399 -36.689899 30.403299
-2.3559999 -37.831501 31.313299
-2.7573099 -37.343498 30.1133
4.8354802 -38.700901 30.2847
5.1609998 -39.6833 31.4083
5.4433098 -40.635399 32.572102
2.6313901 -38.455898 29.548901
3.4516599 -38.122002 29.3556
0.56807202 -36.132198 25.7745
0.145583 -35.708801 24.9284
1.2194 -35.728901 25.621401
0.78237802 -35.338799 24.8256
2.89394 -34.8512 26.047199
3.72824 -35.430099 26.966999
4.7532301 -36.191399 28.0548
2.3830199 -35.606602 26.272301
3.0578101 -36.122299 27.1861
3.7923 -36.864201 28.186501
3.41592 -33.069901 25.461599
4.1323299 -33.415699 26.2486
4.9081001 -33.763 26.984699
3.25931 -34.016998 25.7635
4.0533199 -34.470798 26.612801
4.9332199 -34.9319 27.4422
1.7835701 -35.194901 25.437901
1.26432 -34.8792 24.641199
2.2358501 -34.499199 25.221399
1.66572 -34.291698 24.4568
4.37533 -31.5413 26.312
5.0690498 -31.716299 26.8985
5.7444201 -31.986601 27.3398
4.71556 -32.626202 26.6161
5.4580302 -32.882198 27.225401
6.19207 -33.177399 27.7099
5.7304001 -34.0653 27.617701
6.56355 -34.354301 28.1371
6.8298602 -35.5527 28.6425
7.0040598 -36.828499 29.284901
5.8783998 -35.2505 28.097799
5.9156799 -36.419102 28.6919
4.02033 -32.358299 25.9279
3.37834 -32.108002 25.189501
3.7374499 -31.359301 25.661501
3.15295 -31.194901 24.965
2.73856 -30.371 24.801701
2.10888 -29.614 24.7066
3.27637 -30.443899 25.455099
2.5977499 -29.5944 25.325199
3.8762 -30.520599 26.067101
3.1547401 -29.558399 25.898701
2.7659099 -32.7798 24.6693
2.1653199 -32.580502 23.8515
2.7914 -31.9083 24.425699
2.25384 -31.775299 23.611799
2.6213601 -31.070801 24.2376
2.1230199 -31.0128 23.443001
2.5515001 -33.635101 24.9506
1.95578 -33.4842 24.1471
4.5503998 -30.574301 26.622601
3.79883 -29.4599 26.4179
5.2034898 -30.7651 27.017599
4.4335899 -29.3967 26.7689
1.24928 -28.9156 24.675699
0.18548 -28.253201 24.628599
1.68203 -28.789 25.279301
0.58319902 -28.0548 25.2771
2.16908 -28.6502 25.826401
0.99823898 -27.815201 25.835199
1.45201 -27.5159 26.303101
1.8343101 -27.052 26.620001
2.7207301 -28.4459 26.3062
3.2213399 -28.171301 26.6029
2.2461801 -30.3253 24.111401
1.76533 -30.346201 23.342899
1.64753 -29.662399 24.0429
1.17777 -29.7724 23.295
6.4212799 -37.5639 29.5966
5.31955 -37.348701 29.136499
-4.2638402 -34.711102 38.743599
-4.6248798 -34.297901 37.172501
-4.9916902 -33.934601 35.788399
-3.5908501 -35.9613 38.499001
-3.9755499 -35.520699 37.137001
-4.3715901 -35.148102 35.794899
-2.83778 -37.1759 38.340199
-3.24789 -36.732899 37.0452
-3.6730101 -36.345798 35.744701
-2.8623099 -37.459801 35.640598
-2.3915 -37.877102 36.9384
-1.94537 -38.332001 38.2248
-5.7708802 -32.088001 36.892899
-6.0355301 -31.730301 35.665699
-4.9930401 -33.431198 38.3251
-5.2424402 -33.133801 37.027302
-5.5545702 -32.7845 35.730598
-6.1828799 -31.1555 36.850201
-6.4068198 -30.7834 35.629799
-4.4387498 -35.631802 33.219501
-5.0960102 -34.460201 33.268101
-5.6771202 -33.245098 33.244202
-4.7957401 -35.258598 31.983801
-5.44207 -34.1106 32.0299
-6.00879 -32.912998 31.975
-5.1337299 -34.872501 30.7959
-5.76162 -33.769199 30.857
-6.2754002 -32.652401 30.811001
-7.75595 -26.384399 28.899
-7.5124402 -26.504999 30.412399
-7.55269 -25.645201 28.038099
-7.3698301 -25.590599 29.5818
-7.1928201 -25.658199 30.866699
-7.13131 -25.004499 27.247101
-7.0478601 -24.8543 28.6327
-6.87221 -24.8076 30.040899
-6.4834099 -24.2181 28.744301
-5.9117699 -23.9842 27.9925
-6.52281 -24.377899 27.771
-5.8457899 -24.172701 27.042299
-6.5225 -24.5797 26.5238
-5.7828102 -24.424999 25.8918
-5.7073002 -24.7554 24.660801
-5.6178999 -25.1451 23.4154
-6.4847798 -24.877701 25.179199
-6.41469 -25.244699 23.8283
-7.1549201 -25.273701 25.799801
-7.1243801 -25.6224 24.3503
-7.80583 -27.137199 29.3388
-7.7035198 -27.990299 29.680201
-7.5316401 -27.450199 30.8813
-7.4275899 -28.4191 31.189501
-7.0781002 -26.9375 33.808399
-7.0148001 -26.354401 33.796101
-7.15588 -26.170601 32.3195
-7.05408 -25.5776 32.358101
-7.6364598 -25.891199 26.535801
-7.6473498 -26.2647 25.0226
-7.89852 -26.574499 27.493099
-7.9366798 -27.173599 25.9737
-7.0179501 -25.222 31.2276
-6.9226098 -29.8944 32.894901
-7.2185102 -29.457701 31.3909
-7.4997201 -29.014 29.776501
-6.60711 -30.945499 33.052898
-6.90732 -30.5802 31.561701
-7.1658902 -30.3263 29.8426
-6.97967 -31.217699 29.188999
-6.6915498 -32.102001 28.8813
-6.7097702 -31.586399 30.521099
-6.4980798 -32.362801 29.828199
-7.9161201 -27.5007 28.0298
-6.9186101 -31.7404 27.826799
-7.0686202 -31.5819 26.704599
-6.25249 -33.0928 28.7551
-6.4972301 -32.7248 27.721399
-6.7171502 -32.4482 26.6779
-5.7003999 -34.066502 28.631201
-5.9713202 -33.6432 27.6147
-6.2533598 -33.251999 26.6383
-3.98334 -36.201599 29.287901
-5.05126 -34.9496 28.465599
-4.7582898 -35.412601 29.519899
-4.4201598 -35.856098 30.6401
-5.4333801 -34.48 29.681101
-6.01473 -33.4403 29.773399
-7.5223999 -29.6245 28.0488
-7.69526 -29.411699 26.325001
-7.2522898 -30.700001 27.957399
-7.4018502 -30.5431 26.547001
-6.4990301 -31.738199 31.8123
-6.18643 -32.0644 33.169701
-5.3407602 -34.483601 27.4526
-5.6593299 -34.038502 26.445801
-3.14591 -36.823399 29.0089
-5.1447501 -23.9688 27.405701
-4.11378 -24.2313 26.898701
-5.0387802 -24.255699 26.434799
-4.09057 -24.6469 25.919701
-4.9649501 -24.5704 25.3619
-4.0618901 -25.0079 24.931
-4.03194 -25.3759 23.9165
-4.0001001 -25.771 22.878
-4.8941698 -24.930099 24.2383
-4.81951 -25.332899 23.096901
-6.5700998 -24.332001 29.9597
-6.1933198 -23.985201 29.6772
-6.0721998 -23.9209 28.759501
-2.8726001 -25.087299 26.2017
-1.64338 -26.058701 25.834
-3.0034001 -25.3846 25.4601
-1.83828 -26.3232 25.1908
-3.05725 -25.7104 24.6091
-1.9682 -26.594601 24.4541
-2.0863099 -26.8486 23.66
-2.2088499 -27.091499 22.802099
-3.09254 -26.048 23.7111
-3.12239 -26.405199 22.7721
-5.3947101 -23.7645 28.2253
-5.63872 -23.684099 29.2694
-4.6326699 -23.752701 27.787001
-4.9334002 -23.4198 28.849199
-0.29747599 -27.0159 25.7819
-0.66183197 -27.284201 25.194599
-0.879273 -27.4447 24.5152
-3.59653 -24.164101 27.179899
-3.11537 -24.0299 27.658199
-2.5202799 -24.906401 26.6663
-2.0534999 -24.6833 27.209299
-1.26436 -25.800501 26.327499
-0.87080097 -25.459101 26.857
-0.128566 -28.358299 23.917801
-0.38283601 -28.4895 23.1052
-1.07673 -27.6106 23.7621
-1.27964 -27.7789 22.9303
0.825782 -29.0725 24.012699
0.385003 -29.153999 23.2218
0.35872799 -26.204901 26.666599
-4.00983 -23.615499 28.1413
1.636 -31.045401 22.557501
1.7414 -31.737 22.722601
1.6622 -32.584301 22.975401
1.41479 -33.481602 23.327801
1.09962 -34.2924 23.7686
-0.68510699 -28.584499 22.187599
0.049564999 -29.214899 22.3188
0.67029202 -29.871799 22.396999
1.2765599 -30.451 22.4701
-2.3282199 -27.3568 21.883301
-1.49761 -27.9582 22.019899
-5.5232902 -25.570101 22.195101
-4.7445698 -25.772301 21.9618
-3.9657099 -26.2024 21.8253
-3.1512799 -26.774799 21.8008
-7.9245 -27.451599 23.9751
-7.6191201 -26.6049 23.445801
-7.0637398 -25.9911 22.9359
-6.3275599 -25.6418 22.5177
-2.3125501 -35.894501 24.4482
-3.00459 -35.7761 24.629999
-3.7335501 -35.505798 24.8104
-4.4938202 -35.071999 24.9687
-5.2701001 -34.445301 25.1206
-0.90983802 -35.689899 24.139
-1.64697 -35.8778 24.2873
-5.9846501 -33.643799 25.3783
-6.5655398 -32.805199 25.6882
-7.07757 -31.769699 25.6614
-7.4753799 -30.6476 25.180201
-7.7680602 -29.5214 24.7376
-7.928 -28.5042 24.328199
-7.9022498 -28.289801 26.1038
0.530375 -34.954102 24.0156
-0.17207 -35.3596 24.031799
5.33957 -41.4296 33.8288
4.3682299 -37.758301 29.216
5.4282298 -42.4897 35.841801
4.7512898 -41.510601 34.412899
-6.31359 -31.3419 34.4006
-6.6493402 -30.3512 34.309399
-4.0672898 -35.987301 34.471199
-4.7416101 -34.802502 34.514301
-5.3388 -33.587799 34.503899
-5.86972 -32.4235 34.464298
-3.6952701 -36.682598 33.0802
-3.2955401 -37.069599 34.350899
-4.0691099 -36.277401 31.837099
-7.7748499 -28.478701 27.9855
0.096222997 -26.6987 26.2621
0.434706 -34.4748 22.965099
0.011067 -34.509602 21.6518
-0.144034 -34.6241 20.4209
0.92447799 -33.5872 22.4077
0.47016001 -33.783401 21.2992
0.289543 -33.921101 20.1306
1.22876 -32.709202 22.013399
0.76710403 -32.9837 20.9594
0.56771898 -33.150501 19.850901
1.16195 -31.155899 21.588301
1.31091 -31.8724 21.7488
-1.12708 -35.515099 23.129601
-1.22449 -35.4902 22.0215
-1.32539 -35.625 20.8473
-0.382155 -35.113701 23.014299
-0.58123499 -35.082298 21.8582
-0.69857198 -35.199902 20.6586
0.75872201 -31.375299 20.5091
0.47247499 -31.4986 19.3913
0.76589 -30.555201 21.468901
0.43613201 -30.6544 20.381399
0.12858599 -30.802 19.282101
0.298421 -29.9063 21.387699
-0.064285003 -30.021799 20.3234
-0.44139501 -30.0982 19.2017
-1.02253 -28.6667 21.2439
-0.320867 -29.292801 21.3211
0.87615001 -32.1786 20.709801
0.62273401 -32.306198 19.584299
-0.76497799 -29.3148 20.2735
-1.20169 -29.371799 19.184099
-1.4847701 -28.6567 20.3302
-2.11746 -28.5832 19.2903
-2.41641 -27.6471 20.9778
-1.72148 -28.1471 21.0835
-2.34498 -28.0292 20.1833
-3.1712799 -27.139999 20.8398
-3.1489401 -27.5469 19.917101
-3.12571 -27.9811 18.959299
-3.9361801 -26.659599 20.7918
-3.9403801 -27.074499 19.8071
-3.9706099 -27.497299 18.818501
-5.45398 -26.022301 21.024599
-4.6907902 -26.24 20.860001
-5.4340301 -26.5007 19.9165
-5.45856 -26.9617 18.8559
-6.25629 -26.066799 21.2703
-6.2260699 -26.5257 20.0979
-6.2242098 -26.999701 18.9806
-7.0042701 -26.383101 21.590401
-6.9677701 -26.816799 20.338301
-6.94769 -27.2687 19.1591
-7.9137802 -27.7668 22.372
-7.5819302 -26.9639 21.972799
-4.6809201 -26.7159 19.810801
-4.72299 -27.1427 18.795099
-5.4808602 -35.1409 21.6509
-4.8116102 -35.5247 21.6395
-4.07411 -35.8386 21.540001
-5.4855499 -34.7812 22.659599
-4.7594099 -35.201801 22.749001
-3.99686 -35.553299 22.664801
-5.58811 -34.334999 23.775
-4.68852 -34.997002 23.8449
-3.89343 -35.419102 23.751101
-2.4521999 -35.761398 23.4226
-3.15292 -35.6656 23.5944
-6.98387 -32.215599 24.4582
-7.2520399 -32.189301 22.759399
-7.47719 -32.278198 21.2265
-6.3278999 -33.375599 24.1861
-6.7104101 -33.245201 22.8416
-7.0427098 -33.225399 21.4415
-6.1535501 -34.128201 22.690701
-6.5464501 -34.050701 21.5173
-3.25565 -35.766399 22.516001
-3.3369 -36.0238 21.3976
-2.54971 -35.827599 22.3472
-2.63394 -36.046902 21.219801
-1.78443 -35.7131 23.2647
-7.8088298 -29.778601 23.2453
-7.8989201 -29.969 21.780899
-7.9861598 -30.183901 20.3472
-7.51686 -30.900999 23.8172
-7.6335001 -31.1049 22.3263
-7.7932801 -31.2323 20.814699
-7.90731 -28.112101 20.9564
-7.9127402 -28.437201 19.6513
-7.9682598 -28.715 22.7733
-8.0109901 -28.964899 21.328899
-8.0459404 -29.247101 19.9615
-7.5505199 -27.367599 20.6271
-7.5335798 -27.762699 19.384501
-1.87822 -35.736698 22.181101
-1.96898 -35.909901 21.0322
-1.30743 -36.563801 11.2883
-1.19414 -36.3036 12.3152
-1.0616 -36.033298 13.4489
-1.7857 -37.2043 11.4479
-1.67744 -36.9604 12.4654
-1.55215 -36.701199 13.6006
-2.34708 -37.687 11.5688
-2.2402401 -37.467098 12.5717
-2.1197901 -37.216499 13.7144
-3.6054499 -38.195099 11.6674
-3.69979 -38.360699 10.9296
-3.7606101 -38.561699 10.3523
-2.94875 -38.010899 11.6438
-3.0383 -38.1679 10.8935
-3.09603 -38.357498 10.2959
-2.43926 -37.8396 10.7981
-2.5022199 -38.0215 10.1715
-0.82423401 -34.959499 10.8322
-0.706191 -34.664001 11.9076
-0.560597 -34.375702 13.0669
-0.96584302 -35.800301 11.0828
-0.85078901 -35.5228 12.1268
-0.71278602 -35.242802 13.2672
-1.88194 -37.377102 10.6419
-1.95385 -37.559601 9.9844198
-1.40086 -36.790798 10.4277
-1.48219 -36.978298 9.7360802
-1.30414 -33.272701 10.2756
-1.1654 -32.926498 11.4613
-0.98029798 -32.614899 12.6978
-0.93549299 -34.095299 10.5462
-0.80868798 -33.779099 11.6722
-0.64808297 -33.482399 12.8651
-1.05367 -36.072498 10.1769
-1.13668 -36.293098 9.4264402
-0.91249299 -35.255001 9.8842697
-0.98500001 -35.551701 9.0498695
-2.68942 -31.990299 9.8668203
-2.55374 -31.533001 11.1589
-2.3619001 -31.0142 12.6812
-1.91093 -32.554901 10.0613
-1.76367 -32.1632 11.3045
-1.55316 -31.805799 12.6122
-1.03029 -34.417702 9.5344896
-1.1036299 -34.7477 8.6287403
-1.40941 -33.624699 9.1865396
-1.50064 -33.980099 8.0957298
-4.3933501 -31.369301 9.4448299
-4.3413801 -30.8384 10.64
-4.2937698 -30.289801 11.9138
-3.5543101 -31.6071 9.6521902
-3.4644201 -31.1119 10.8905
-3.3900599 -30.590401 12.2044
-2.0227499 -32.933201 8.9633303
-2.1372499 -33.2631 7.9956102
-2.7899499 -32.406898 8.7726898
-2.8906901 -32.7728 7.8194399
-5.7516499 -31.190701 9.1600199
-5.7416101 -30.603201 10.333
-5.71983 -29.9988 11.6194
-5.1165299 -31.233601 9.2803898
-5.0899501 -30.6705 10.4559
-5.05441 -30.0907 11.7308
-3.62622 -32.0634 8.5821199
-3.7068901 -32.473499 7.5875401
-4.4394202 -31.858601 8.3812704
-4.4906201 -32.319901 7.3726201
-6.90976 -31.4014 9.0066099
-6.9064999 -30.812099 10.2342
-6.9142199 -30.200399 11.5511
-6.3520598 -31.2386 9.0542202
-6.3467398 -30.6441 10.2572
-6.34091 -30.0284 11.5591
-5.1508999 -31.752501 8.1891298
-5.1788602 -32.257999 7.1930499
-5.78056 -31.734699 8.0398197
-5.7976499 -32.270302 7.0542998
-7.7971802 -32.113499 9.1472397
-7.7880201 -31.569401 10.3752
-7.79741 -31.008499 11.7052
-7.4071498 -31.6943 9.0346899
-7.40274 -31.122499 10.2728
-7.4161801 -30.5305 11.6002
-6.3724799 -31.8018 7.9355402
-6.3850002 -32.353298 6.961
-6.9271698 -31.967699 7.8910799
-6.9384799 -32.5214 6.9267602
-3.4860899 -37.987701 12.6558
-3.3554001 -37.733501 13.8258
-4.3336 -38.244202 11.6473
-4.2048998 -38.014301 12.6531
-4.0632401 -37.750801 13.8402
-5.0855999 -38.151402 11.5881
-4.9524598 -37.889801 12.6219
-4.8036199 -37.6157 13.8259
-6.4821901 -37.486801 11.3845
-6.5808001 -37.747101 10.5247
-6.6784902 -37.943401 9.8737602
-5.8115902 -37.887001 11.5079
-5.92624 -38.103901 10.7015
-6.0237699 -38.307301 10.0911
-5.2040801 -38.332699 10.8324
-5.2932601 -38.543999 10.2473
-2.83726 -37.808102 12.632
-2.7147601 -37.5588 13.7867
-4.4402599 -38.417801 10.9091
-4.5144601 -38.627399 10.3356
-6.3600798 -37.207298 12.4505
-6.22475 -36.9128 13.6822
-7.0783701 -36.967201 11.2087
-6.9734602 -36.674301 12.292
-6.85567 -36.365002 13.537
-7.5724201 -36.331299 10.9652
-7.4868202 -36.017601 12.0668
-7.3884001 -35.687199 13.3267
-8.1550398 -34.799599 10.2895
-8.1942196 -35.160099 9.3433399
-8.2375898 -35.497898 8.4746103
-7.93713 -35.590099 10.6474
-7.9865599 -35.9142 9.7209702
-8.0300798 -36.217499 8.9249401
-7.63691 -36.624599 10.0608
-7.6949201 -36.9035 9.2916899
-5.6792698 -37.616501 12.5571
-5.53267 -37.332901 13.7757
-7.1609602 -37.239399 10.3265
-7.2400999 -37.482101 9.6013899
-8.1008902 -34.416199 11.428
-8.0372 -34.022202 12.7201
-8.2214098 -34.020901 9.93396
-8.1808004 -33.592499 11.0855
-8.1362104 -33.155899 12.3886
-8.1715803 -33.295101 9.6165504
-8.1450901 -32.821499 10.78
-8.1209202 -32.34 12.0925
-7.8243399 -32.638199 8.0423603
-7.83922 -33.158401 7.0931802
-8.0408297 -32.652302 9.34939
-8.0798302 -33.136799 8.2564297
-8.1004801 -33.624599 7.31568
-8.2172804 -33.732899 8.5617704
-8.2455301 -34.179901 7.62959
-7.8684001 -35.245899 11.7685
-7.7873998 -34.887699 13.0452
-8.2616701 -34.416698 8.9468298
-8.2995195 -34.812801 8.0239897
-8.0250101 -32.140598 10.5426
-8.0204496 -31.617001 11.8659
-7.4270301 -32.2467 7.9229298
-7.4389501 -32.7896 6.9665699
-7.28755 -35.348099 14.6821
-6.73703 -36.0467 14.8806
-6.0898399 -36.611599 15.0148
-7.1855998 -35.014 16.070999
-6.6201 -35.732899 16.260401
-5.96135 -36.314999 16.384399
-5.8396702 -36.032001 17.743401
-5.7088299 -35.762699 19.106899
-6.50143 -35.437 17.6304
-6.37047 -35.155899 18.9965
-7.07692 -34.703499 17.448601
-6.9408498 -34.438099 18.832399
-7.6203699 -34.169899 15.8128
-7.9106698 -33.255901 15.5077
-7.7035298 -34.524101 14.4142
-7.9714699 -33.631199 14.1016
-8.0565395 -32.334999 15.1876
-8.0887499 -31.455999 14.8979
-8.0924301 -32.733299 13.7787
-8.1002598 -31.8815 13.4889
-7.5346198 -33.843601 17.196501
-7.4214301 -33.5741 18.5923
-7.8548398 -32.911999 16.8925
-7.7793002 -32.6241 18.287901
-5.3864799 -37.043598 15.0959
-4.6536498 -37.335201 15.1302
-5.24962 -36.759102 16.4517
-4.5132599 -37.058498 16.467501
-4.3867302 -36.794102 17.786699
-4.2586298 -36.5317 19.1001
-5.1251502 -36.486301 17.793501
-4.99718 -36.218899 19.1355
-8.0285702 -30.660601 14.676
-7.8281698 -29.976601 14.5141
-8.0197897 -31.1196 13.2678
-7.8085899 -30.472099 13.1092
-8.0298595 -31.971001 16.5655
-7.99085 -31.657301 17.9398
-8.08815 -31.0688 16.2651
-8.0809097 -30.7265 17.6082
-8.06744 -29.875799 17.347799
-7.8930402 -29.132 17.148701
-8.0495596 -30.2458 16.0333
-7.8610101 -29.5306 15.8607
-6.7803798 -34.188702 20.2038
-7.2628298 -33.366501 20.0208
-7.65519 -32.4179 19.7353
-5.5862498 -35.453701 20.437099
-6.2212501 -34.880299 20.3505
-6.02633 -34.673801 21.650299
-2.7493501 -36.318901 20.0247
-2.85747 -36.6362 18.834299
-2.09374 -36.157001 19.844299
-2.21487 -36.460899 18.674801
-1.46347 -35.845501 19.6563
-1.5979 -36.1334 18.503599
-0.99283803 -35.662102 18.319099
-0.45966899 -35.0452 18.105499
-0.85125202 -35.394299 19.4576
-0.29862201 -34.822102 19.247
-2.95788 -36.942001 17.6329
-3.08442 -37.196999 16.369699
-2.32269 -36.766701 17.506399
-2.4534299 -37.021999 16.2749
-1.72308 -36.4203 17.3505
-1.85929 -36.675701 16.1506
-3.44275 -36.326801 20.198099
-4.1571798 -36.1917 20.353001
-3.54425 -36.6586 18.981501
-3.65326 -36.948799 17.729601
-3.7794399 -37.206902 16.4368
-4.8794398 -35.904598 20.449499
-0.064278997 -34.297199 17.862301
0.158005 -33.479301 17.627001
0.137036 -34.144901 19.0203
0.35559499 -33.302898 18.7209
-1.13967 -35.9076 17.1656
-1.2808599 -36.157299 15.9945
-0.62408298 -35.251701 16.959499
-0.77254403 -35.490501 15.8132
-0.40219501 -34.7094 15.6165
-0.217631 -33.859798 15.4184
-0.24082001 -34.484798 16.742901
-0.036956999 -33.6507 16.530899
-3.21842 -37.465 15.085
-2.5847399 -37.291302 15.0208
-1.99146 -36.946999 14.9258
-1.41837 -36.427898 14.7945
-0.91891402 -35.756802 14.632
-3.91784 -37.477402 15.1237
-0.56067997 -34.966702 14.4473
-0.39446399 -34.104099 14.2535
-6.9485002 -27.666 18.0236
-6.9422202 -28.085501 16.862499
-7.5243902 -28.130501 18.1922
-7.5051098 -28.5201 16.988701
-7.90978 -28.773199 18.398001
-8.0662603 -29.5474 18.645901
-8.0482302 -30.4335 18.960899
-6.9268699 -28.5438 15.6313
-6.9138699 -29.0497 14.3193
-7.4735098 -28.9506 15.7283
-7.4433098 -29.4296 14.3964
-6.24792 -27.4221 17.8929
-5.5052099 -27.398199 17.804001
-6.2680502 -27.8652 16.7693
-5.5522199 -27.8515 16.7101
-5.5952101 -28.3295 15.5385
-5.6378298 -28.8444 14.2835
-6.2817402 -28.341101 15.5684
-6.2971702 -28.8598 14.2824
-4.7813401 -27.576799 17.7637
-4.03404 -27.9161 17.7876
-4.8450098 -28.021299 16.6875
-4.1124902 -28.3353 16.709
-7.9156299 -31.4091 19.350901
-6.9130802 -29.6063 12.9378
-7.4268098 -29.9599 12.9995
-6.3207102 -29.426701 12.925
-5.6823401 -29.4055 12.9583
-4.9618602 -28.9785 14.3225
-4.23564 -29.2321 14.4083
-5.0114999 -29.5193 13.0379
-4.2651 -29.745701 13.1803
-4.9060202 -28.4832 15.542
-4.1836901 -28.767 15.584
-0.75116402 -30.2337 18.089701
-1.00258 -30.4072 16.998301
-1.49634 -29.561199 18.043301
-1.70899 -29.799 16.9252
-2.34004 -28.9242 18.007799
-2.4984901 -29.2481 16.8571
-3.3180101 -28.753599 16.7759
-3.2133501 -28.3727 17.882099
-2.58284 -30.3671 13.7597
-2.66993 -29.9261 14.721
-1.80109 -30.8983 13.8972
-2.0224199 -30.319401 14.7867
-1.44651 -30.775 14.9022
-2.6103799 -29.5763 15.764
-1.87609 -30.0508 15.844
-1.22114 -30.5914 15.9349
-0.92494601 -31.4039 14.9574
-0.49748901 -32.157001 15.075
-1.2325 -31.579 13.8297
-0.74668902 -32.3629 13.9132
-0.25153801 -32.992199 15.2335
-0.456958 -33.219601 14.0671
-0.66973901 -31.2365 16.037399
-0.42930999 -31.0791 17.1014
-0.26284099 -31.978701 16.1721
-0.02775 -31.8232 17.240801
-3.4192801 -30.052099 13.4092
-3.4396999 -29.5674 14.5467
-0.045462999 -32.798599 16.3382
0.16860899 -32.632099 17.414
-0.16462199 -30.937099 18.1814
0.215719 -31.6616 18.3083
0.383169 -32.452202 18.480101
-3.4008601 -29.143 15.6653
-2.5450499 -38.2449 9.62918
-3.1312799 -38.591499 9.7846203
-3.79791 -38.809799 9.8609304
-1.54668 -37.203602 9.1285295
-2.0074301 -37.781101 9.4088402
-4.5671301 -38.8857 9.8464098
-5.36484 -38.8041 9.7462397
-1.06274 -35.792 8.37817
-1.21021 -36.523899 8.7883301
-7.8334298 -33.665901 6.2450199
-7.43819 -33.312698 6.1157699
-6.9444098 -33.051399 6.0718999
-8.2445803 -34.636299 6.7895899
-8.0953503 -34.107899 6.4723601
-6.3951402 -32.8806 6.0964999
-5.81037 -32.785301 6.1768098
-8.2538099 -35.8983 7.63976
-8.3044796 -35.243198 7.1833301
-7.75106 -37.164799 8.64505
-8.0659599 -36.566002 8.1386204
-6.76193 -38.1833 9.3261099
-7.3144898 -37.714802 9.0204201
-6.1066098 -38.5588 9.5698404
-3.01917 -33.116299 6.8885498
-2.31341 -33.483002 7.1055598
-1.76853 -33.9356 7.2006998
-4.5257902 -32.7808 6.4681702
-3.7823901 -32.890202 6.6660399
-1.38103 -34.4846 7.3997698
-1.1448801 -35.0765 7.8977799
-5.1960602 -32.750702 6.30301
-3.0999899 -36.8316 0.577806
-2.80548 -36.9678 0.428473
-2.7119701 -37.013302 0.364811
-3.0726299 -37.1022 0.27480099
-2.80615 -37.132999 0.254888
-2.6868801 -37.133202 0.243305
-2.74018 -37.469501 -0.022895999
-2.65976 -37.326302 0.092918999
-2.6215799 -37.265099 0.130918
-2.33969 -36.921501 0.631414
-2.4196899 -37.010101 0.44735199
-2.4553399 -37.042301 0.373465
-2.70064 -36.817699 0.66496801
-2.6300199 -36.9338 0.48852199
-2.5912001 -37.007801 0.38244599
-7.12222 -36.446499 1.63641
-7.1725302 -36.311699 1.6601
-7.2968998 -36.2621 1.70469
-7.0465598 -36.230801 1.8339601
-7.14744 -36.1651 1.8741
-7.2929001 -36.1381 1.92127
-7.05407 -36.054699 2.0517399
-7.15734 -36.033699 2.0883801
-7.29286 -36.0354 2.1312301
-7.1184502 -35.948299 2.22262
-7.2724099 -35.978001 2.27071
-7.2356901 -35.924801 2.3642001
-7.4147401 -35.986801 2.4895501
-7.4447799 -36.039299 2.3652101
-7.4642301 -36.0993 2.2047901
-7.5767798 -36.112301 2.5618701
-7.5911102 -36.155102 2.43262
-7.6048002 -36.2127 2.2730501
-7.6577802 -36.2677 2.51737
-7.6554999 -36.333 2.3298299
-7.6662998 -36.445099 2.3640001
-7.6261802 -36.614399 2.1054399
-7.6395602 -36.4776 2.0980699
-7.6039 -36.328201 2.05654
-7.5143199 -36.710899 1.80572
-7.6044002 -36.598202 1.84812
-7.5898299 -36.453999 1.83039
-7.5566902 -36.566399 1.65978
-7.51159 -36.616299 1.56754
-7.5086398 -36.665699 1.65123
-7.4689202 -36.201 1.98891
-7.4640698 -36.326801 1.76422
-7.4470801 -36.452999 1.59025
-7.2941999 -36.387001 1.54896
-7.4114399 -36.548698 1.51168
-7.30615 -36.473701 1.48191
-7.2265201 -36.472801 1.53206
-2.2897601 -37.531101 0.032712001
-2.4200599 -37.4044 0.078031003
-2.47012 -37.3013 0.12976401
-2.0427499 -37.470402 0.144943
-2.2483599 -37.365398 0.15561301
-2.33425 -37.303101 0.165466
-2.1328199 -37.213402 0.35210699
-2.27368 -37.193901 0.30070201
-2.37602 -37.171902 0.26772901
-2.5315101 -37.148102 0.248918
-8.1596804 -37.347 3.0183401
-8.1097202 -36.972801 3.41764
-8.0247297 -36.540401 3.72786
-8.0531702 -37.146198 2.5704801
-8.0051298 -36.8578 2.85952
-7.9116998 -36.556801 3.0453601
-7.9513602 -37.0495 2.2789199
-7.8885298 -36.8652 2.39165
-7.7892098 -36.6175 2.5287299
-8.0362396 -36.2211 4.2947102
-8.07131 -35.863998 4.7678499
-7.8521199 -36.200298 3.39942
-7.8647699 -35.847401 3.9100299
-7.8879199 -35.435699 4.43611
-7.6452198 -35.966202 3.0574
-7.6168699 -35.5494 3.5501399
-7.5677099 -35.031101 4.0975599
-6.9611702 -35.597198 2.55178
-7.1483002 -35.8241 2.4354601
-7.3331099 -35.7071 2.8398499
-7.37712 -35.896301 2.6193199
-7.5846801 -36.0714 2.72068
-8.2262802 -37.654301 3.57042
-8.2181902 -38.064602 4.1574402
-8.1807604 -37.2342 4.0553799
-8.1869001 -37.6017 4.7133899
-8.1389399 -36.778099 4.4338698
-8.1713305 -37.039501 5.2853298
-7.7593598 -36.318901 2.8580501
-7.8527002 -37.1991 1.92681
-7.6276302 -37.350101 1.47482
-8.0093098 -37.4147 2.17045
-7.91787 -37.682598 1.7649
-8.1577797 -37.680401 2.56299
-8.1243801 -38.0075 2.1306801
-6.7448602 -36.716599 1.13827
-6.93821 -36.646599 1.3337899
-7.0167999 -36.564201 1.49076
-6.5826602 -36.341 1.37034
-6.77953 -36.333302 1.51757
-6.8924899 -36.284302 1.67913
-6.5043702 -36.105999 1.5662
-6.62293 -36.046398 1.73165
-6.7812901 -35.973099 1.9581701
-7.2926998 -35.361599 3.2119701
-7.2259402 -34.968399 3.6089101
-6.9049902 -35.2328 2.9348099
-6.8642802 -34.8843 3.32601
-6.4082499 -34.763802 3.1921401
-5.8719101 -34.656898 3.1768601
-6.44912 -35.1106 2.7700601
-5.9194298 -35.0065 2.72086
-6.5305099 -35.4589 2.4100399
-6.0130601 -35.394001 2.27191
-6.4670901 -35.704102 2.08359
-6.8192 -35.769299 2.23733
-6.9598498 -36.039799 2.02016
-7.0156999 -35.889599 2.23579
-6.8629699 -34.312698 4.1542101
-6.86551 -34.6059 3.7248001
-7.2393799 -34.586498 4.1368999
-8.1548996 -36.379601 5.0265298
-8.1905098 -36.716801 6.14467
-8.2290401 -36.328701 6.8859501
-8.2174301 -36.074799 5.7097001
-8.2741699 -35.6782 6.41995
-8.1399899 -35.503101 5.3596601
-8.2083197 -35.084499 6.0351
-8.0527697 -34.575802 5.7171898
-7.7920399 -34.150398 5.4865198
-7.9714499 -35.018501 5.0422502
-7.7032299 -34.604301 4.79638
-8.1043997 -38.5494 4.7534699
-7.8905501 -39.033901 5.3398099
-8.0760803 -38.1115 5.37569
-7.8523402 -38.630001 5.99859
-8.05721 -37.684299 6.0334201
-7.8164301 -38.251598 6.6768498
-8.2549896 -38.025799 3.03824
-8.2508202 -38.379902 2.54861
-8.2518196 -38.4603 3.5936301
-8.2669401 -38.823799 3.04565
-8.1461096 -39.345699 3.6196201
-7.9387898 -39.849602 4.1374502
-8.1338701 -38.9534 4.1503301
-7.92169 -39.433701 4.7069502
-7.5497999 -37.613899 1.19513
-7.50561 -37.845501 0.98483801
-7.8534598 -37.9631 1.4529001
-7.8066301 -38.237499 1.19987
-8.0745802 -38.329102 1.77378
-8.0277796 -38.649399 1.47112
-6.71982 -36.9688 0.909729
-6.6925602 -37.167301 0.72699302
-7.19946 -37.091 1.19313
-7.1617999 -37.286201 1.00755
-7.1292901 -37.482899 0.82990903
-7.7599602 -36.999901 1.94056
-7.6943998 -36.833302 2.04039
-7.5531902 -37.0797 1.5618401
-7.5233102 -36.918301 1.68407
-5.99124 -40.467602 7.0099001
-6.07972 -40.848999 6.3575902
-6.13064 -41.337002 5.5369501
-5.4725699 -40.6287 7.16149
-5.4833498 -41.029202 6.49543
-5.4974899 -41.366299 5.74051
-4.9580202 -40.694901 7.2027102
-4.9152699 -41.0453 6.5222802
-4.8669901 -41.416302 5.6596198
-5.1148801 -40.3344 7.7062302
-5.4436102 -39.903801 8.1234798
-5.7899199 -40.194199 7.5562901
-4.3710899 -40.631302 7.26548
-3.7648301 -40.479698 7.27561
-4.4659801 -40.257401 7.8315601
-3.7939999 -40.122398 7.8372698
-4.5886202 -39.886002 8.3120699
-3.8338799 -39.764198 8.342
-3.8443601 -39.4193 8.8674898
-3.82428 -39.097698 9.3829899
-4.6211901 -39.520901 8.8452396
-4.6041598 -39.185501 9.3667097
-5.4432101 -39.462502 8.7228699
-5.4169202 -39.108799 9.2574501
-5.9431701 -41.7103 4.9453802
-5.862 -42.0256 4.5125899
-5.4823899 -41.6777 5.0765901
-5.4749098 -41.999001 4.60289
-5.0286598 -41.7015 5.02704
-5.0959702 -41.987499 4.64186
-6.57442 -41.977798 4.2696199
-6.2184901 -42.013199 4.4314599
-6.42137 -41.655701 4.81286
-6.26756 -39.5564 7.9807301
-6.93817 -39.166199 7.6525102
-6.4225101 -39.865299 7.3662701
-7.0430899 -39.489399 7.0046401
-6.5838699 -40.174702 6.7459002
-7.15587 -39.8246 6.3485799
-3.20665 -40.275002 7.2039099
-2.69677 -40.020199 7.0481801
-3.19225 -39.904301 7.7511802
-2.6574399 -39.6008 7.5788798
-3.19225 -39.536301 8.2535
-2.6328199 -39.207298 8.0632896
-4.32967 -40.9473 6.5883098
-4.2779298 -41.264999 5.8330698
-3.7579 -40.791 6.6086702
-3.737 -41.102501 5.8808398
-7.2631502 -40.6236 5.05758
-7.2274299 -40.193802 5.6946402
-7.6517501 -40.265598 4.6239901
-7.6312699 -39.8377 5.2266998
-7.58671 -39.452999 5.8754201
-8.2554102 -39.2076 2.5826001
-8.2364197 -39.600601 2.1760199
-8.1574202 -39.741199 3.12356
-8.1741505 -40.151001 2.6406901
-7.9533501 -40.2971 3.62623
-7.9837599 -40.834801 3.11835
-8.2171698 -38.7384 2.1408999
-8.1788797 -39.104401 1.78974
-7.66644 -40.742802 4.0707998
-7.6789298 -41.277 3.5729401
-7.2923498 -41.123001 4.4426599
-7.3297601 -41.6423 3.87082
-6.2227201 -35.9697 1.57736
-5.7822099 -35.8237 1.6020401
-6.22262 -36.2089 1.31859
-5.7601199 -36.059101 1.32341
-6.2518601 -36.483101 1.07186
-5.75032 -36.3032 1.06875
-5.7257099 -36.532398 0.83952802
-5.6878099 -36.744598 0.62662101
-6.2388501 -36.7146 0.85661298
-6.2098699 -36.916302 0.66430902
-7.2375102 -36.931499 1.34769
-7.2595 -36.806 1.4923
-3.18222 -39.1875 8.7762499
-2.6089399 -38.841 8.5833502
-3.15745 -38.868599 9.2934799
-2.5782101 -38.516102 9.1130304
-1.59999 -37.482201 8.5552902
-2.0508299 -38.0536 8.8619404
-2.0885301 -38.3894 8.3074303
-2.1193299 -38.784302 7.7715602
-1.63948 -37.8325 7.9688601
-1.63758 -38.277401 7.3352499
-1.29984 -37.5368 7.04498
-1.12954 -36.896099 6.6103902
-1.30841 -37.163601 7.62397
-1.13313 -36.491798 7.2293901
-1.26932 -36.811401 8.2015495
-1.11312 -36.1022 7.7904902
-2.23599 -39.698299 6.8214302
-1.85329 -39.355701 6.5675998
-2.1724 -39.2318 7.3285599
-1.77157 -38.880299 6.99334
-3.2321 -40.597801 6.55335
-3.2402599 -40.9231 5.8470898
-2.7458501 -40.370098 6.4156399
-2.77654 -40.719299 5.7321701
-1.56366 -38.9883 6.3715501
-1.33708 -38.594101 6.1138301
-1.4411 -38.383099 6.6722898
-1.1476099 -38.095501 5.79316
-1.02649 -37.5783 5.3680801
-1.23101 -37.811401 6.39853
-1.09103 -37.243 5.9790201
-2.2880599 -40.1078 6.2024002
-2.3315101 -40.490898 5.5152998
-1.86891 -39.8162 5.9502301
-1.86901 -40.264999 5.1311598
-3.68066 -41.4174 5.1655698
-3.61994 -41.774899 4.7214298
-3.2193899 -41.257198 5.1511402
-3.17419 -41.6628 4.71029
-2.7787299 -41.075699 5.0678201
-2.74474 -41.512001 4.6456399
-4.5773201 -41.659599 5.03372
-4.4398899 -41.935001 4.6827102
-4.1508198 -41.5439 5.1354098
-4.0579801 -41.8605 4.71246
-5.8169398 -33.2561 5.40973
-5.8202801 -33.660999 4.7481198
-5.8263402 -34.012402 4.1746101
-6.3971901 -33.362701 5.3418798
-6.3903699 -33.778999 4.6946301
-6.3819199 -34.134499 4.1412601
-6.9349098 -33.5401 5.3235202
-6.9052601 -33.967499 4.6826
-7.4107699 -33.803699 5.3626299
-7.3457599 -34.242199 4.7035098
-8.0534201 -37.324001 6.7494898
-7.7881899 -37.894199 7.3550601
-8.0566301 -36.9687 7.4493699
-7.7662201 -37.536999 8.0186596
-6.82374 -38.479 8.8172703
-7.3530798 -38.0341 8.4954004
-7.3941302 -38.3913 7.87291
-7.4488702 -38.738499 7.2156401
-6.8647399 -38.821602 8.2920704
-6.16993 -38.857201 9.0719995
-6.6869001 -40.539101 6.0936198
-6.7492199 -40.977901 5.4036002
-6.8399901 -41.464199 4.7118602
-6.9594402 -41.8395 4.0950098
-4.7716398 -41.9585 4.6829801
-3.45751 -35.6609 2.1498301
-4.0447502 -35.6474 1.94998
-4.6696801 -35.667301 1.78334
-3.4128799 -35.361801 2.66344
-4.0229998 -35.359001 2.3998499
-4.6715498 -35.402699 2.17471
-3.36147 -35.049 3.21136
-3.99225 -35.061699 2.90446
-4.6634002 -35.127399 2.61326
-4.65202 -34.813599 3.0838399
-4.6571102 -34.5023 3.52595
-3.9895899 -34.7379 3.4149001
-4.0736799 -34.398201 3.86867
-3.3407099 -34.708801 3.79076
-3.42384 -34.274399 4.43471
-2.6477499 -34.462502 4.8355598
-2.03707 -34.709499 5.1937099
-2.7339101 -34.7892 4.1398201
-2.2488201 -34.959202 4.3822298
-2.82549 -35.104198 3.50003
-2.39853 -35.2122 3.7460301
-2.90832 -35.414398 2.9209299
-2.5034001 -35.497898 3.1475301
-2.9750099 -35.706402 2.3639801
-2.5766799 -35.778801 2.5875299
-1.74474 -35.530499 4.2409101
-1.5787801 -35.905701 3.8961799
-1.46596 -36.2229 3.5195999
-1.87366 -35.748798 3.5292301
-1.69306 -36.067402 3.2289901
-1.9457099 -35.970402 2.9706299
-1.85226 -36.508499 1.91913
-2.19173 -36.398102 1.69871
-2.5410199 -36.328098 1.54685
-1.91708 -36.239601 2.4732499
-2.24193 -36.1297 2.2445099
-2.58743 -36.051102 2.04478
-2.23842 -35.8652 2.7802899
-1.64326 -34.7794 5.9277802
-1.3801301 -34.886299 6.71139
-1.83315 -35.1213 4.7999101
-1.54211 -35.219101 5.4461598
-1.30243 -35.456299 6.1080699
-1.4556 -35.660099 4.9063001
-1.23873 -35.931301 5.5149598
-1.17119 -36.343201 4.9461098
-1.1004 -36.722401 4.39007
-1.35502 -36.060501 4.4152999
-1.26235 -36.4254 3.9276299
-2.16294 -35.601601 3.36497
-2.0610001 -35.320599 4.0029402
-5.2567301 -35.722698 1.66748
-5.2905502 -35.4837 2.0106599
-5.8546901 -35.614498 1.90809
-5.3246899 -35.2304 2.3996699
-3.44291 -35.956001 1.71456
-3.3800499 -36.245701 1.32292
-4.0265498 -35.929199 1.56661
-3.9734299 -36.203999 1.22308
-4.6505899 -35.926998 1.44503
-4.6140199 -36.181198 1.14231
-2.9723699 -35.995899 1.8724
-2.91659 -36.283798 1.4281501
-3.23511 -33.873501 5.2633801
-3.12836 -33.4916 6.0487499
-2.5574 -34.105202 5.5602899
-2.45926 -33.77 6.29387
-1.99103 -34.375301 5.9081101
-1.93276 -34.087101 6.5064001
-1.61055 -34.4007 6.6353698
-1.5241899 -39.423599 5.7571998
-1.4559799 -39.8433 5.0232401
-1.26048 -38.963299 5.51577
-1.1365 -39.436001 4.81213
-1.01387 -37.111301 4.88446
-1.07385 -36.743599 5.4792399
-1.1188 -36.351898 6.0901299
-1.1433001 -35.9063 6.7185602
-1.16484 -35.431198 7.3130999
-1.06151 -38.465199 5.1862302
-0.93845499 -38.9296 4.5102901
-0.94586998 -37.970299 4.7737899
-0.83929098 -38.426399 4.1338902
-0.84109902 -37.957401 3.70928
-0.91808301 -37.541 3.28088
-0.93368602 -37.516701 4.3130398
-1.00973 -37.125099 3.8498001
-1.6511101 -40.513 4.3839102
-1.5015 -40.816502 3.9460299
-1.33235 -40.195999 4.2704101
-1.19451 -40.5625 3.74036
-1.02364 -39.854 4.0475798
-0.90280598 -40.250599 3.4618199
-2.0332 -41.152199 4.3102102
-1.76895 -40.982201 4.1454701
-2.0055399 -40.7411 4.6072502
-0.79566801 -39.4785 3.7646899
-0.70449197 -39.886398 3.1172299
-0.72249597 -38.947201 3.43979
-0.60776198 -39.498402 2.7586801
-2.3654499 -40.885601 4.8898602
-2.3585 -41.320999 4.5039601
-6.2114201 -39.196499 8.5487204
-7.51793 -39.085201 6.5440898
-4.6188102 -34.219601 3.94276
-4.61766 -33.935101 4.39047
-4.0473499 -34.0331 4.4451399
-4.5725799 -33.6087 4.9725699
-4.5486898 -33.220699 5.66889
-3.9123399 -33.697399 5.0989599
-3.84407 -33.309799 5.8403101
-5.2741799 -34.5723 3.29863
-5.24193 -34.260502 3.7701199
-5.84132 -34.3354 3.66243
-5.2263999 -33.944302 4.2673998
-5.3052101 -34.9011 2.8378501
-6.38907 -34.450199 3.6484201
-5.2044501 -33.206902 5.5226302
-5.21174 -33.601601 4.8478699
-0.750067 -38.437599 3.06197
-0.66827703 -38.927299 2.41168
-0.835989 -37.971298 2.6661201
-0.771559 -38.387199 1.97516
-0.87530601 -37.856701 1.76741
-1.0419 -37.492901 1.45202
-0.94663 -37.559399 2.32972
-1.12359 -37.223701 2.01074
-1.04726 -37.188999 2.8884399
-1.24288 -36.9025 2.53702
-1.15452 -36.8069 3.4251499
-1.35996 -36.561298 3.04968
-5.2336102 -35.965 1.36488
-5.2094998 -36.206501 1.09235
-6.3076701 -35.811798 1.8311599
-4.5588598 -36.428001 0.85667002
-4.4930301 -36.664902 0.58682799
-5.1725101 -36.440498 0.839517
-5.12468 -36.662601 0.60123903
-3.2687399 -36.534302 0.94591397
-3.88764 -36.472801 0.89466101
-3.78634 -36.735199 0.58427203
-8.1300602 -41.563499 1.99523
-8.02458 -42.306198 1.68748
-7.9928899 -42.035 2.30879
-7.87749 -42.7868 2.1468699
-7.8255 -42.356998 2.66506
-7.7111802 -43.1106 2.55847
-7.3176098 -42.706501 3.3436501
-7.3839798 -42.076599 3.4532199
-7.6096101 -42.542702 3.0160999
-7.6949902 -41.844002 3.1411099
-7.9378099 -41.562801 2.8545401
-8.1208401 -41.095901 2.4737999
-8.2069702 -40.534 2.15832
-8.2267704 -39.997501 1.7874399
-8.2077398 -41.0033 1.70453
-8.21523 -40.430599 1.4045399
-8.1858101 -40.935799 1.03137
-8.1222 -40.2752 0.81689698
-8.1363201 -39.8587 1.1390899
-7.9737802 -39.6758 0.63284302
-7.9781799 -39.313599 0.91045099
-7.7516298 -38.8167 0.71207702
-7.4579401 -38.366299 0.54799402
-7.75352 -39.164299 0.45251501
-7.4562998 -38.702202 0.28917301
-7.20435 -43.512501 3.2323401
-6.95015 -42.858501 3.6289101
-6.8741798 -43.6623 3.4600401
-6.5078502 -43.113499 3.8510499
-6.5334001 -43.900501 3.58585
-7.4874802 -43.3442 2.9200001
-6.6021199 -42.394299 3.9529099
-7.0057302 -42.262199 3.7278099
-5.8031902 -43.053398 4.2443399
-5.6908998 -43.9482 4.1021099
-5.4668999 -43.0961 4.38412
-5.3947401 -44.010601 4.28052
-5.1089802 -43.145699 4.5055299
-5.0794702 -44.0765 4.4433699
-4.2249298 -43.359402 4.7132902
-4.3459101 -42.5019 4.58532
-4.7093501 -43.208801 4.6100602
-4.7449002 -42.476501 4.5471301
-5.1116099 -42.460999 4.4844398
-6.21314 -44.0256 3.71296
-6.1436501 -43.0284 4.0861201
-5.97084 -43.928001 3.9105999
-5.4826198 -42.445301 4.4014602
-5.8538799 -42.433498 4.2919898
-0.121492 -42.283298 3.4764199
0.059675999 -41.9827 3.1157501
-0.40786201 -41.312599 3.3887501
-0.27025601 -40.424599 2.15674
-0.53509402 -39.853298 2.2987499
-0.32097501 -40.757401 2.86376
-0.57509601 -40.273399 2.8253601
-0.73259902 -40.6744 3.27543
-3.3113401 -43.263599 4.7734399
-2.9712901 -44.147598 4.7863598
-2.86724 -43.040901 4.7761402
-2.65904 -43.947102 4.85744
-2.36955 -42.987701 4.7641902
-2.28461 -43.943199 4.8756599
-3.2853301 -44.2327 4.7026601
-2.6215601 -42.141499 4.5761499
-3.05372 -42.279202 4.6247201
-3.4983001 -42.398602 4.6217399
-4.3592601 -37.1124 0.078947999
-4.4266601 -36.890202 0.33186001
-3.6003499 -37.247898 0.024011999
-3.7111001 -36.985699 0.30246499
0.108269 -41.3134 2.1858399
-0.0057859998 -40.892101 1.63537
-0.69471002 -39.217999 0.88312399
-0.72803599 -38.847401 1.47561
-0.46066999 -39.826302 1.50389
-0.59799099 -39.400002 1.83165
0.071304001 -41.564201 2.6965899
-1.94047 -43.748001 4.7737699
-1.73132 -42.372002 4.3548298
-1.9292901 -41.7188 4.2424898
-2.0253899 -42.620602 4.56036
-2.25104 -41.931301 4.4320998
-0.234497 -40.3755 1.11752
-0.52692401 -39.814999 0.49668401
-0.83907402 -39.255699 0.064107001
-1.13316 -38.7733 -0.17474601
-0.87043101 -38.905102 0.36703199
-1.06508 -38.595001 0.060564999
-1.04204 -38.386501 0.23431399
-1.01817 -38.1861 0.38666999
-0.8865 -38.578999 0.51764703
-0.88456202 -38.313202 0.587758
-0.798338 -38.669701 0.91830802
-0.821181 -38.364601 0.88910401
-5.6022 -37.143002 0.205584
-5.5579801 -37.348701 -0.017574999
-6.14429 -37.3125 0.266056
-6.1113501 -37.528599 0.049828
-6.6411099 -37.5812 0.33497199
-6.6187601 -37.824402 0.113578
-6.6656499 -37.364601 0.53942603
-6.1770401 -37.111401 0.470238
-5.6455302 -36.945099 0.41839099
-4.28859 -37.340801 -0.184435
-5.0169802 -37.075699 0.14224
-4.9589801 -37.285301 -0.097227998
-2.71387 -37.814899 -0.35592499
-3.5197201 -37.5214 -0.27438101
-5.0722198 -36.871498 0.37220699
-6.2207799 -42.428101 4.14434
-3.9014001 -44.2635 4.7101898
-3.77595 -43.208801 4.7189498
-3.5880401 -44.129902 4.7016101
-4.3446298 -44.288101 4.6792498
-3.9320199 -42.455101 4.6059799
-4.7318401 -44.141602 4.5843801
-1.46391 -43.1759 4.35883
-1.45899 -42.168301 4.1568098
-1.23321 -43.005402 4.13131
-1.10954 -42.029301 3.9742401
-0.977193 -42.969898 3.9391699
-1.7088 -43.408199 4.5865898
-1.34825 -41.295898 3.8469999
-1.6447099 -41.510201 4.0503898
-8.1511497 -41.626701 1.30914
-0.77527499 -41.605099 3.71297
-0.445153 -42.427898 3.7099299
-0.70388699 -42.749401 3.8413701
-1.02641 -40.996399 3.6102901
-2.0685101 -37.866501 -0.16822
-1.58786 -38.1465 -0.18474001
-2.0381501 -38.140301 -0.38323399
-1.52485 -38.4142 -0.32972601
-1.28034 -38.373199 -0.121078
-2.8143301 -36.570702 1.00941
-2.4491701 -36.6194 1.06862
-0.80186403 -38.362598 1.31529
-7.9955702 -38.9748 1.18793
-8.15275 -39.4739 1.46096
-7.4758201 -38.089001 0.77647901
-7.7709198 -38.514599 0.95930302
-7.0831599 -37.9412 0.42592201
-7.1020598 -37.695702 0.63923001
-7.07271 -38.230999 0.18688001
-1.62032 -36.375702 2.7332399
-1.51739 -36.678799 2.2276599
-1.41878 -36.958401 1.65211
-1.32139 -37.232601 1.13421
-1.76372 -36.781502 1.36335
-1.66257 -37.060101 0.88050997
-2.0021801 -36.966599 0.73096699
-2.1071701 -36.677898 1.17907
-0.99047601 -37.712299 0.99756801
-0.96657699 -37.889599 0.669294
-1.2471 -37.4799 0.74292898
-1.19955 -37.674198 0.49894401
-1.56655 -37.3293 0.52502
-1.47869 -37.573002 0.28557
-1.7555 -37.5028 0.201662
-1.87567 -37.249401 0.410808
-0.857786 -38.005901 1.22049
-0.86278498 -38.1078 0.81693798
-1.92865 -37.7579 -0.034556001
-1.76756 -37.686699 0.063295998
-1.5495501 -37.990101 -0.041997001
-1.4801199 -37.873199 0.082186997
-1.25709 -38.197899 0.044151001
-1.2334501 -38.0667 0.188522
-7.6839099 -36.291401 2.6347401
-7.6974101 -36.521702 2.4119
-7.0623999 -36.504799 1.60166
-6.9718099 -36.263199 1.77827
-7.6448302 -36.721901 2.0894499
-7.5022898 -36.8078 1.78141
-7.27001 -36.7174 1.60455
-7.2969699 -36.650101 1.63999
-7.3525801 -36.607201 1.56276
-1.53354 -37.702702 0.133949
-1.35164 -37.704201 0.266626
-1.41485 -37.759102 0.18106601
-1.36782 -37.8759 0.192733
-1.01665 -37.904598 0.54676402
-1.17545 -37.7738 0.41929701
-0.93174797 -38.0798 0.55918097
-1.06735 -38.056801 0.452106
-0.98640001 -38.014301 0.54603302
-1.22112 -37.9944 0.306463
-1.47302 -46.435699 -1.36356
-1.62176 -46.5802 -1.36575
-1.8159 -46.6875 -1.3426
-1.65185 -46.346001 -1.4088399
-1.83359 -46.459 -1.402
-1.8519599 -46.239101 -1.4397
-1.7606601 -46.053299 -1.44558
-1.7106301 -45.894402 -1.44232
-1.60622 -46.138901 -1.41707
-1.5808001 -45.966202 -1.4137599
-1.47392 -46.213799 -1.37828
-1.47614 -46.061298 -1.37677
-1.38879 -46.185001 -1.33538
-1.28843 -46.3591 -1.27513
-1.34745 -46.387699 -1.31864
-1.26442 -46.837002 -1.25129
-1.40605 -46.916199 -1.26433
-1.51967 -47.071499 -1.22699
-1.35892 -46.6493 -1.30514
-1.50949 -46.755001 -1.31339
-1.65776 -46.9025 -1.2807
-1.23765 -46.623699 -1.25421
-1.16038 -46.632801 -1.1927201
-1.1357501 -46.861099 -1.18767
-1.04206 -46.924702 -1.11057
-0.98172599 -47.1605 -1.05669
-0.99549401 -47.331799 -1.0280401
-1.07818 -47.062901 -1.1392
-1.07807 -47.2155 -1.10941
-1.19724 -46.998199 -1.2084301
-1.16099 -47.1175 -1.17435
-1.69733 -45.776402 -1.4392
-1.65219 -45.587502 -1.46691
-1.56466 -45.8484 -1.4084001
-1.51086 -45.663799 -1.43486
-1.46461 -45.962799 -1.36739
-1.41067 -45.798401 -1.38776
-1.964 -46.047699 -1.46085
-2.03036 -45.9254 -1.4644099
-1.86735 -45.897202 -1.45816
-2.06862 -45.827499 -1.46164
-2.0887699 -45.694801 -1.47396
-1.87621 -45.7757 -1.45614
-1.85654 -45.608299 -1.4772201
-2.0700099 -46.198299 -1.44479
-2.23353 -46.130501 -1.44157
-2.15136 -46.012402 -1.4609801
-0.31042999 -44.514702 -1.8295799
-0.50953299 -44.726799 -1.7931499
-0.71797901 -44.9417 -1.71652
-0.543791 -44.4888 -1.8661799
-0.73844099 -44.698502 -1.81108
-0.77485901 -44.458 -1.87703
-0.73462498 -44.235802 -1.90898
-0.734433 -44.080299 -1.91256
-0.51081401 -44.2701 -1.8958
-0.51268297 -44.105701 -1.90088
-0.293336 -44.296501 -1.86543
-0.296251 -44.154499 -1.8733701
-0.133247 -44.245098 -1.83018
-0.007338 -44.366798 -1.7697001
-0.115101 -44.4179 -1.8041
-0.086461 -44.8503 -1.6858
-0.25289199 -44.981701 -1.6689399
-0.367053 -45.161301 -1.6015199
-0.185693 -44.693901 -1.7547899
-0.37842 -44.861698 -1.72816
-0.53776199 -45.066399 -1.65535
-0.021592 -44.594799 -1.73429
0.086595997 -44.5424 -1.69549
0.060357999 -44.778702 -1.6578
0.164259 -44.748001 -1.6116199
0.220946 -44.967999 -1.52707
0.238529 -45.178799 -1.4509799
0.115599 -44.961899 -1.58531
0.13154501 -45.127399 -1.524
-0.016067 -44.986198 -1.62725
0.027922999 -45.087601 -1.5809
-0.77479899 -43.966801 -1.90888
-0.940422 -43.7118 -1.97612
-0.53859597 -43.9865 -1.89695
-0.68951201 -43.711102 -1.95509
-0.30036199 -44.042198 -1.86588
-0.37829599 -43.725498 -1.89253
-0.93804097 -44.2976 -1.89063
-1.04307 -44.187901 -1.8859299
-0.90821201 -44.112999 -1.90837
-1.11641 -44.1064 -1.87438
-1.27792 -43.905602 -1.92335
-0.974006 -43.9981 -1.90635
-1.14422 -43.764301 -1.96842
-0.98211801 -44.530899 -1.83331
-1.12822 -44.564602 -1.78804
-1.1023901 -44.3559 -1.84667
-3.5151 -46.716 -1.44813
-3.4615901 -46.843399 -1.41996
-3.3892801 -47.052399 -1.36211
-3.6044199 -46.729099 -1.45559
-3.5653 -46.8983 -1.42895
-3.5209999 -47.092499 -1.38369
-3.7182 -46.761002 -1.4559799
-3.67114 -46.9366 -1.4296499
-3.6269 -47.132801 -1.38545
-3.4857299 -46.5919 -1.44398
-3.45193 -46.454399 -1.43204
-3.37904 -46.722198 -1.40747
-3.3117099 -46.6026 -1.38978
-3.2908199 -46.899101 -1.35431
-3.2153001 -46.798801 -1.3363
-3.17857 -46.994499 -1.28939
-3.1760199 -47.221802 -1.2345901
-3.26331 -47.150299 -1.29424
-3.3942399 -47.507198 -1.2613699
-3.4579899 -47.559399 -1.2600501
-3.5416701 -47.601799 -1.25824
-3.3926401 -47.315701 -1.30822
-3.49084 -47.3241 -1.32863
-3.58354 -47.362099 -1.32942
-3.7683001 -46.592899 -1.4600199
-3.8115301 -46.4534 -1.4506201
-3.62151 -46.560398 -1.45909
-3.6276801 -46.4132 -1.45024
-3.2952099 -47.4081 -1.24449
-3.2137799 -47.512901 -1.17285
-3.33707 -47.639999 -1.19634
-3.2755301 -47.782501 -1.11768
-3.3624899 -47.938099 -1.0907201
-3.47421 -47.984798 -1.0902801
-3.4091401 -47.771801 -1.17388
-3.5032899 -47.820499 -1.17114
-3.40712 -46.351002 -1.42053
-3.2672501 -46.202202 -1.42537
-3.2453001 -46.524399 -1.37211
-3.0975599 -46.448299 -1.3625799
-3.13955 -46.7491 -1.3128999
-2.9926801 -46.693699 -1.29872
-3.8405499 -46.355 -1.44072
-3.8672199 -46.245201 -1.44313
-3.6244299 -46.308399 -1.44072
-3.59745 -46.181999 -1.44534
-3.8285799 -46.812302 -1.44988
-3.9270999 -46.867401 -1.43232
-3.9022901 -46.6572 -1.45243
-4.0088801 -46.728901 -1.43578
-3.9724 -46.533699 -1.44154
-4.0846 -46.629101 -1.42537
-5.8226099 -45.869099 -1.73894
-5.9491501 -45.9338 -1.74851
-6.0773301 -45.9683 -1.73414
-5.9096498 -45.711399 -1.76088
-6.06809 -45.772202 -1.75848
-6.0444899 -45.504501 -1.79073
-5.70925 -45.735901 -1.71376
-5.6203899 -45.6077 -1.68177
-5.7653599 -46.032902 -1.70945
-5.6357002 -45.922199 -1.68259
-5.5367498 -45.821499 -1.64897
-5.7062502 -46.2001 -1.6708601
-5.5780301 -46.091 -1.64571
-5.48349 -46.0168 -1.61506
-5.4858398 -46.177799 -1.58946
-5.51337 -46.322899 -1.5617599
-5.58637 -46.268002 -1.61456
-5.7220602 -46.443199 -1.62613
-5.7818198 -46.480499 -1.6258
-5.84021 -46.522701 -1.61531
-5.7197099 -46.348099 -1.64912
-5.82023 -46.371498 -1.6621701
-5.8985901 -46.450199 -1.63683
-5.86269 -46.249802 -1.68792
-5.9888802 -46.334499 -1.65773
-5.9365501 -45.329201 -1.78907
-5.8690701 -45.188 -1.77364
-5.8059702 -45.5471 -1.74189
-5.7319002 -45.391102 -1.72352
-5.9085302 -46.100201 -1.71926
-6.0422502 -46.1474 -1.70196
-5.6328502 -46.403999 -1.5971
-5.5685301 -46.475601 -1.53613
-5.6780701 -46.522202 -1.57594
-5.6366501 -46.6166 -1.51139
-5.7210302 -46.7159 -1.49571
-5.8159399 -46.7509 -1.4931
-5.74793 -46.6026 -1.56352
-5.8304701 -46.631699 -1.56078
-5.5625601 -45.5238 -1.65513
-5.4802899 -45.422298 -1.64079
-5.47047 -45.766201 -1.61896
-5.3677001 -45.721699 -1.59557
-5.4155402 -45.993401 -1.58183
-5.2989802 -45.993801 -1.5474401
-5.8470502 -45.057701 -1.76363
-5.8271298 -44.823502 -1.7848901
-5.6897602 -45.275501 -1.70867
-5.6396599 -45.096699 -1.71938
-6.1185098 -45.2192 -1.81471
-6.1658201 -45.033199 -1.81751
-6.0174499 -45.0746 -1.80593
-5.86059 -41.562199 -1.87621
-5.7927198 -41.690201 -1.91658
-5.7445502 -41.844101 -1.96682
-5.9467201 -41.923698 -1.91655
-5.86027 -42.0261 -1.95315
-5.8010802 -42.135899 -1.99821
-5.9768901 -42.3937 -1.95797
-5.8719702 -42.468899 -1.99007
-5.8058901 -42.513802 -2.02633
-6.0239201 -44.9217 -1.79897
-6.2017598 -44.892601 -1.81195
-6.0373402 -44.656601 -1.82204
-6.24615 -44.610901 -1.83339
-2.2311599 -45.9216 -1.45675
-2.3415301 -46.067501 -1.43362
-2.3108599 -45.814899 -1.46407
-2.5305099 -46.004799 -1.43569
-1.19791 -44.3004 -1.825
-1.23183 -44.5644 -1.75412
-1.34167 -44.1744 -1.83184
-1.46262 -44.623299 -1.71332
-2.10202 -42.8936 -2.2244699
-2.33061 -42.691399 -2.29456
-2.4177401 -42.652302 -2.3328199
-2.4526899 -42.1399 -2.3308599
-2.5429599 -42.167599 -2.3483801
-2.6052699 -42.190498 -2.37293
-2.72773 -41.6143 -2.3385601
