# .PCD v.7 - Point Cloud Data file format
VERSION .7
FIELDS x y z
SIZE 4 4 4
TYPE F F F
COUNT 1 1 1
WIDTH 1736
HEIGHT 1
VIEWPOINT 0 0 0 1 0 0 0
POINTS 1736
DATA ascii
8.1946697 43.2995 19.2801
9.6016903 42.2743 17.0737
9.4192495 42.318699 18.235201
9.2491703 42.2477 19.2924
9.2534199 41.846901 20.493999
8.2131004 42.883701 20.6134
7.1532798 43.7215 20.8009
9.2881298 41.260899 21.8461
8.3070202 42.243698 22.0256
7.3066802 42.995098 22.2605
4.9621401 45.2864 20.625401
5.9225502 44.958599 20.053699
4.7772102 45.815701 19.8811
5.6085701 45.6819 19.1304
6.3122401 45.475201 18.1861
4.5841699 46.321499 19.254499
5.2540498 46.3433 18.399799
5.7815599 46.310902 17.3927
6.7409701 45.354 16.9244
6.95259 45.1745 15.4418
6.1003098 46.249802 16.1945
6.1672201 46.134998 14.755
10.4347 41.248699 17.758301
10.2217 41.186901 19.103901
11.2631 39.941502 18.698799
11.3436 39.2729 20.129499
10.2944 40.6441 20.328199
11.3021 38.643799 21.5131
10.2948 40.0411 21.6752
7.9650602 43.744499 14.6026
8.8777704 42.972599 15.0698
9.8652401 42.0252 15.6228
8.9538002 42.688702 13.4406
6.9931302 44.8489 13.7603
5.96701 45.889599 13.0248
11.8666 5.7483201 20.557199
12.0747 6.5274 21.273899
12.2864 7.2933602 21.969999
12.5345 8.0892696 22.682699
12.8122 8.9313602 23.3927
6.0872598 44.270699 21.242701
5.0075598 44.656399 21.6616
6.2340202 43.539799 22.587799
5.0721698 43.917301 22.9265
3.84252 44.1637 23.187901
3.87763 44.909199 21.962799
4.0198998 45.5257 20.9139
2.6835101 44.293201 23.377899
2.7509601 45.038399 22.176901
2.9820499 45.7831 21.0049
3.8724999 46.152699 20.066401
5.1381698 42.998699 24.405701
3.86093 43.238499 24.6257
2.6668999 43.353401 24.7889
5.1795001 41.826698 26.148001
3.8774199 42.0695 26.334801
2.66468 42.1828 26.4727
1.68014 42.202 26.556801
1.69169 43.374599 24.8946
1.71498 44.324501 23.5131
0.83807701 42.1959 26.5839
0.85340703 43.369202 24.9314
0.86593699 44.3228 23.5658
0.87590998 45.071098 22.450001
1.76142 45.070999 22.371901
0.88409901 45.692799 21.553499
1.80706 45.696301 21.4361
7.4228601 42.0867 23.861
6.3386998 42.6161 24.136499
7.50386 40.915901 25.671801
6.4049301 41.437099 25.920799
14.4137 32.8204 21.6087
13.7702 34.175499 21.4939
13.0315 35.6642 21.424801
14.1483 32.4282 22.8092
13.563 33.592899 22.731899
12.8864 35.004501 22.742701
13.941 31.919399 24.0942
13.411 32.789001 24.1241
12.7831 34.123699 24.267099
12.0629 35.505299 24.4519
12.1347 36.445099 22.8246
12.2109 37.1628 21.4203
11.2038 36.900398 24.6866
11.2431 37.898102 22.995199
13.1904 36.240799 20.137199
14.0017 34.6619 20.2761
14.7094 33.191299 20.376499
13.3318 36.865898 18.783899
14.212 35.1409 19.1103
12.2872 37.7784 20.1038
12.329 38.373901 18.8421
13.8681 31.114599 25.445299
13.3386 31.805599 25.6712
12.7522 32.905701 25.9587
13.8919 29.7728 27.0385
13.3472 30.649401 27.389799
12.7398 31.5275 27.7752
14.9496 31.9807 22.1619
14.6287 31.624001 23.209101
14.3416 31.1793 24.3899
15.0481 30.6563 23.8405
14.6988 30.349501 24.7686
14.3292 30.0989 25.7523
15.2874 32.207802 21.2558
13.925 36.434502 17.916401
12.7685 38.305901 17.678101
13.3392 37.847801 16.918301
11.7409 39.660198 17.5625
10.8249 40.923801 16.5767
15.7778 27.878099 25.7059
15.4385 29.4097 24.6943
15.3613 27.7085 26.2094
15.039 29.1742 25.4216
15.0899 18.565701 29.214399
15.1272 20.157 29.0702
14.6917 17.7899 29.0819
14.7675 19.289499 29.1271
14.7692 20.704 29.339899
15.0244 21.6597 28.976101
14.716 22.046301 29.5413
14.8707 23.0972 28.9995
13.8564 14.1431 27.785101
14.1094 15.4234 28.1752
13.7606 12.9727 26.8237
14.0237 13.9608 27.585501
14.2643 14.9824 28.400801
14.334 16.661501 28.705099
14.4538 15.995 29.253099
14.5085 17.932699 29.323099
14.3749 12.4506 27.9352
14.9582 27.4011 26.98
14.6437 28.8463 26.3878
14.6267 26.8449 27.9352
14.3034 28.2756 27.5522
16.4597 25.959101 26.6819
16.0324 26.097099 26.8064
15.6113 26.0275 27.0886
15.2183 25.778799 27.5739
14.8853 25.347799 28.281601
14.4732 25.8836 28.9118
14.1841 27.164801 28.865299
13.8148 28.3423 28.909401
14.4291 24.573601 29.941099
14.1409 25.7428 30.2314
13.7397 26.8211 30.610001
13.2561 27.792299 31.0527
13.3194 29.314699 29.2416
12.7003 28.694401 31.5163
12.7149 30.217699 29.6731
12.6358 24.841801 34.860802
13.1302 23.825199 34.3451
13.6052 22.8253 33.6688
12.6888 26.938499 33.240501
13.2075 26.017599 32.738602
13.6709 25.0501 32.186401
14.3461 20.1399 32.2934
14.0109 21.7488 32.944698
14.2903 17.5336 33.2379
13.964 18.888599 34.047798
13.5242 19.9422 34.966999
11.507 26.372601 35.7827
12.1261 25.527901 35.393398
11.4352 28.610901 34.1511
12.1139 27.776199 33.710999
11.3628 30.428699 32.394699
12.0755 29.5655 31.9585
12.9823 21.0819 35.866299
12.4174 22.495199 36.408901
9.3306503 40.477299 23.400299
9.3829603 39.394798 25.1702
10.2875 39.280998 23.1926
10.2987 38.239101 24.9261
11.205 35.5569 26.597799
10.3397 36.829102 26.8995
9.44907 37.937401 27.189699
11.2393 33.956699 28.6033
10.4022 35.1478 28.9734
9.5183401 36.2033 29.3139
8.4734697 40.2645 25.4191
8.3969603 41.3965 23.6178
8.5406103 38.785301 27.4639
7.5552702 39.434101 27.721001
8.5872097 37.045898 29.613001
7.5672798 37.711601 29.877001
12.0222 34.235298 26.285601
12.0205 32.718102 28.210899
6.4346399 39.9622 27.9573
5.18887 40.362999 28.1632
6.4195299 38.251499 30.111601
5.1595602 38.659901 30.309799
9.5756598 34.324001 31.365601
8.6024704 35.1591 31.6964
7.5329199 35.839901 31.978001
9.6108599 32.3591 33.291199
8.57763 33.184601 33.656601
7.45191 33.870499 33.9645
6.2434001 34.410599 34.225498
6.3550801 36.385201 32.221699
4.9784002 34.794701 34.439999
5.0897198 36.788799 32.423401
7.1675801 29.352699 37.724499
8.4278297 28.679399 37.342499
9.6155596 27.8748 36.883301
7.3239498 31.795401 35.834099
8.51404 31.1126 35.496201
9.6203804 30.2967 35.093498
10.6618 27.061199 36.356201
11.6576 23.536501 37.139999
10.7395 23.9872 38.0331
9.6113796 24.799999 38.710602
8.3358603 25.59 39.2617
7.0023699 26.2404 39.7141
10.6023 29.437599 34.629902
10.541 31.4104 32.859501
10.4724 33.324299 30.9774
11.2948 32.219101 30.5494
5.8962498 29.851101 38.043301
6.0880499 32.316399 36.120602
4.6436601 30.161501 38.302799
4.82621 32.6674 36.3545
2.3638599 30.3228 38.6441
3.4372201 30.296 38.5019
2.4632001 32.916901 36.665401
3.5838201 32.8493 36.535999
2.5414701 35.130501 34.7173
3.70384 35.022202 34.603699
5.6940699 26.7083 40.0802
4.4428501 26.9823 40.367001
3.87287 40.618401 28.328501
2.6521499 40.744701 28.447001
3.8426499 38.924599 30.4641
2.6268301 39.062801 30.5709
1.6636699 40.774899 28.5158
0.81965798 40.773701 28.5361
1.64147 39.106098 30.6306
0.79866499 39.110901 30.6476
3.7883 37.0448 32.577202
2.5929201 37.178001 32.682301
1.5876 35.1651 34.783798
1.6182899 37.223099 32.7416
0.76034498 35.171101 34.804699
0.77913898 37.230598 32.758801
3.27631 27.075701 40.580101
2.25422 27.074301 40.726601
13.3989 10.4628 25.0623
13.6922 11.2142 25.8657
13.9784 11.9959 26.7202
13.1018 9.7209101 24.258699
14.5674 17.216101 30.0623
14.611 19.2666 29.7579
14.594 18.4091 30.747
14.6273 20.5488 30.1826
14.2486 12.8143 27.6679
14.467 13.6311 28.6779
14.5267 19.481899 31.413
14.3637 22.885099 31.110701
14.5489 21.7707 30.613899
14.6077 23.3405 29.7323
14.5987 14.4329 29.6978
14.6413 15.4432 30.7092
14.0627 24.0275 31.6213
14.6015 16.3249 31.5769
14.5087 16.667601 32.347198
11.3008 4.1340098 18.923
11.621 4.9286098 19.7675
2.6675401 2.7357199 8.8940201
3.7344301 2.5905299 8.8510799
4.7426901 2.51157 8.9207001
5.6456699 2.5461299 9.1291103
10.3657 2.8889699 17.1842
10.879 3.44368 18.0564
14.6945 24.5149 28.9736
12.0421 31.1061 30.101
9.78473 2.4825301 16.315201
1.48352 30.318199 38.7314
1.54194 32.9314 36.7439
0.71712899 30.315701 38.761002
0.74017203 32.9328 36.769901
1.41717 27.061199 40.814499
0.68911302 27.0581 40.8442
0.84792298 33.9856 2.1173301
1.70041 34.075199 2.1837599
0.61019701 8.0524702 5.9513998
1.69555 7.9575901 5.8520699
1.59747 2.8794501 8.9944696
0.53157401 2.94873 9.0524302
6.5553398 25.6283 -0.39834499
7.79635 23.825899 -0.244175
6.4397402 23.670099 -0.55884397
7.6585798 22.081699 -0.19206101
7.4596601 20.1672 0.145519
7.2321301 18.549801 0.59483403
6.2230501 21.519501 -0.43669799
5.9972801 19.617201 -0.052508
7.0784502 17.0478 1.3440599
7.0490799 15.5179 2.41939
5.85567 17.966299 0.67856902
5.82269 16.3932 1.76656
5.1147299 25.1131 -0.70808399
4.8829002 22.4508 -0.68911898
4.6785498 20.2209 -0.356695
5.2286601 27.4835 -0.34231099
18.010599 15.5891 28.2582
18.1471 17.1409 27.3351
17.6642 17.159901 28.7502
17.7959 18.6915 27.8393
17.3389 18.477301 29.0749
17.4354 20.075199 28.2941
18.353001 13.8835 27.6756
18.1745 12.5315 28.4594
17.814199 14.2839 29.037399
17.741899 11.2511 29.0109
17.467501 12.9942 29.454399
17.1623 14.5121 29.408701
17.4554 15.9284 29.457001
17.142 17.210199 29.321199
16.8064 11.3998 29.006201
16.1562 10.0788 28.4625
17.045401 9.8640203 28.9237
16.365 8.5462198 28.2526
15.6613 7.49999 27.5387
15.47 9.0334797 27.8647
14.9815 6.7189202 26.719
15.9293 11.5222 28.642099
16.532801 12.8754 29.073601
13.5269 3.22293 23.7892
14.0414 4.2277799 24.7864
14.4377 5.4386401 25.6849
12.4022 1.81016 21.6761
12.9523 2.3966501 22.735701
11.6593 1.60674 19.5249
11.9698 1.5908999 20.5714
9.2448597 8.72999 7.51196
10.3243 6.78935 9.3247499
11.1202 5.16748 11.1778
8.2214899 9.4474297 7.0062399
9.8222103 7.2781401 8.8981104
9.8603401 5.5532098 10.4965
9.7089596 4.2385302 12.0664
11.0889 3.98527 12.7755
10.9167 3.1491599 14.2201
7.77035 8.6625795 7.4578199
8.5885296 6.9253802 8.8425598
7.0931301 8.1874704 7.56673
8.3805904 5.1417198 10.3311
8.2793598 10.6581 6.1392298
7.1968098 11.5487 5.6143599
7.5310302 12.3889 4.9134402
6.3285298 13.2918 4.3091402
7.12748 13.9785 3.6573
5.92346 14.8711 3.0267
5.2000098 14.0295 3.6586499
5.7059798 12.4001 4.8547902
6.15768 10.7122 5.9377198
5.64116 9.5691204 6.4422102
5.6633501 8.0795603 7.2167201
4.66642 17.184999 1.11656
4.8116002 15.5929 2.39817
7.1658502 6.4679098 8.6763096
4.6113701 18.5802 0.24141
11.3103 2.08217 17.216
11.4605 1.78247 18.4426
11.0686 2.5268199 15.7552
-0.83061999 43.631599 8.3882303
0.107527 44.072201 8.2490501
0.99007601 44.597 8.2671299
4.4816399 46.592098 11.0855
5.1153202 46.831699 12.6359
5.48348 46.977699 14.236
5.5378098 47.024101 15.5847
5.3047099 47.033199 16.7397
4.8544102 47.0079 17.755301
4.2351699 46.9203 18.667101
3.49389 46.749199 19.4988
2.6702099 46.5215 20.2146
1.78417 46.348999 20.6658
0.89133102 46.2687 20.8342
2.8077099 45.872601 9.2045298
3.658 46.290401 9.9627504
1.9259599 45.252602 8.5943604
15.3321 10.5558 28.1677
17.0261 19.1744 29.020201
16.8846 25.2995 26.396601
17.0369 23.1066 27.5749
17.071501 21.037399 28.458099
18.4844 15.4678 26.7321
-4.4748802 38.535702 4.7131801
-3.84203 39.654701 5.58636
-3.26349 38.430199 4.6693101
-2.8695199 39.507702 5.4707499
-2.24721 38.268299 4.6185498
-2.0543399 39.312801 5.3993201
-7.0045199 38.931301 5.4144201
-6.2491798 39.962002 6.2544799
-5.7810998 38.6926 4.9172301
-4.96979 39.787701 5.7972498
-13.9993 32.387299 18.5923
-13.4339 33.532902 18.903
-13.6331 33.8302 17.0791
-13.1032 34.9613 17.8137
-13.2108 35.315201 15.8872
-12.7276 36.207901 16.861799
-14.0753 32.047798 20.182301
-9.1438198 39.507702 7.4116201
-8.5411797 40.495998 8.3467197
-8.2725496 39.234798 6.25875
-7.5415602 40.2188 7.1024098
-10.7431 39.4888 10.3924
-10.0633 40.478401 11.5531
-9.9924603 39.648102 8.8347301
-9.3334999 40.647701 9.8864403
-13.9096 31.1301 22.955601
-14.2902 31.1064 22.289
-14.3676 29.767 24.055901
-14.7765 29.519501 23.5998
-14.7643 28.136499 25.3088
-15.1893 27.679701 24.963699
-14.3905 21.263901 29.0907
-14.0555 22.713301 28.747999
-13.7796 24.062 28.540199
-14.4683 22.954901 28.547701
-14.0798 24.333099 28.1285
-14.428 24.538799 27.8687
-13.7901 14.0948 28.787001
-13.386 14.0449 28.495001
-12.9171 13.6691 28.0133
-14.0096 15.6404 29.089199
-13.5699 15.5259 29.0483
-13.1414 15.126 28.624399
-14.2139 17.3706 29.303301
-13.7321 17.211599 29.320801
-13.3262 16.529499 29.000999
-14.9403 20.768801 29.122801
-15.4062 20.128 28.9781
-14.348 19.239799 29.4119
-15.003 18.9461 29.3454
-15.4785 18.421801 29.237801
-14.8226 17.034 29.284599
-15.564 16.434 29.325899
-14.5056 15.2473 29.0854
-15.0045 14.4229 29.0734
-14.166 13.7211 28.791401
-14.5185 12.9742 28.736799
-14.0561 12.1104 28.401199
-13.5958 11.592 27.904301
-13.67 12.8242 28.336599
-0.90992802 17.0847 0.99891502
-2.1440201 17.1478 1.08855
-0.74721003 18.526199 0.13542099
-1.98923 18.566999 0.216562
-0.73830599 20.3762 -0.45728701
-1.97919 20.3417 -0.38133499
-0.77108502 23.0851 -0.75405997
-2.1231599 22.8498 -0.68975401
-0.70609403 26.255899 -0.54089803
-2.26369 25.8267 -0.61450303
-1.05603 12.5174 4.16435
-2.97332 11.4199 5.2460299
-0.905608 14.0041 3.31548
-2.5966699 13.2047 4.1254001
-0.905065 15.0252 2.7402301
-2.4974599 14.7263 2.9861
-0.94141799 15.9711 1.94812
-2.3916099 15.979 1.9833601
-8.2648001 1.99784 18.191299
-8.2079096 2.1682601 17.544399
-8.1613998 2.2888 16.6679
-8.8969402 2.1770301 18.985201
-8.8242903 2.3805799 18.3367
-8.7676401 2.5329399 17.4886
-9.5051098 2.5705199 19.823
-9.41646 2.7899599 19.164499
-9.3489504 2.9486001 18.3298
-10.5571 4.0936499 21.7365
-11.0837 3.8896899 22.431601
-11.8891 3.6849101 23.1103
-10.0714 3.22458 20.7589
-10.5217 3.0007801 21.414801
-11.3217 2.8040199 22.063
-9.9657202 2.3504 20.4389
-10.7599 2.16485 21.0485
-6.9209099 2.039 16.352501
-6.8959398 2.1370599 15.7106
-6.8887601 2.18436 14.8057
-7.6122699 1.97091 17.357401
-7.57866 2.1066 16.717699
-7.5495801 2.18963 15.8224
-9.4681797 1.97453 19.575001
-10.2724 1.80195 20.153299
-9.0087004 1.81754 18.761499
-9.8564196 1.78105 19.1259
-1.62726 6.2540998 6.5528698
-1.65224 4.8182302 7.5562901
-1.64169 3.5794699 8.4514303
-2.6721301 5.0736098 8.14606
-2.7223201 4.3218799 7.8378
-2.7175 3.3948801 8.3752499
-3.6366999 4.0173202 9.8801003
-3.6874001 3.37027 9.6174297
-3.71153 3.1595199 8.7188301
-5.3082299 2.7355299 13.2391
-6.5697598 3.08535 13.3492
-8.1190701 3.4737401 13.3676
-4.4967299 3.26564 11.5706
-5.5878301 3.7193501 11.6171
-6.9447198 4.1842699 11.5595
-4.42661 4.5852699 9.9009504
-5.81317 5.0321999 9.9127998
-2.94033 5.8013201 8.23353
-4.3209901 6.3243299 8.2591896
-1.56172 7.2297802 6.55407
-2.46838 8.1947002 6.51123
-11.2143 6.1866899 23.6231
-12.0361 6.1025 24.3792
-12.783 5.88589 25.029699
-10.9311 5.1076102 22.705099
-11.5936 4.9509902 23.4328
-12.3875 4.74194 24.1208
-9.9577303 3.4277401 20.0765
-9.8708696 3.55041 19.2255
-10.4135 4.2583499 21.0303
-10.3026 4.3171 20.148399
-5.3242798 2.4049599 12.8861
-5.3516202 2.4015701 11.9449
-6.1245298 2.3336999 14.8816
-6.1271901 2.2284601 14.3934
-6.14081 2.24682 13.4777
-8.5387602 1.90592 17.7654
-9.4766197 1.96021 18.004499
-8.0012798 2.18523 16.5163
-9.0814304 2.27563 16.738501
-4.5325999 2.7300401 11.3169
-4.5623598 2.67574 10.3602
-7.3454599 2.5691099 15.0301
-8.6238604 2.73523 15.239
-11.0184 6.2406101 22.872299
-10.8668 6.1351099 21.913601
-11.4904 7.2775102 24.466999
-11.2294 7.2436299 23.6786
-11.0655 7.03475 22.676701
-11.8216 8.42484 25.2656
-11.4331 8.2625504 24.440599
-11.2653 7.9337401 23.4069
-12.409 10.9417 26.721901
-13.0653 11.2962 27.377199
-12.1278 9.6516504 26.018299
-12.9195 9.92278 26.7663
-13.5961 10.1995 27.447001
-12.7272 8.5386696 26.065701
-13.5774 8.4475603 26.830099
-10.7589 5.2230701 21.9785
-10.6256 5.2059202 21.060499
-12.4241 7.2730498 25.247299
-13.152 6.98734 25.8647
-0.550349 29.2437 0.15780599
-2.12116 28.761801 -0.047858998
-0.28124401 31.878599 1.11341
-0.38799801 9.5798998 5.0372601
-0.82817799 11.0619 4.6326599
-2.56108 9.9135904 5.7722602
-0.52590102 6.5493302 6.7167902
-0.54861802 5.0785298 7.6974602
-0.55017698 3.74457 8.5965796
-14.8396 24.4659 27.799
-15.2796 24.063601 27.653799
-14.9145 22.636299 28.651199
-15.3731 22.0028 28.4597
-12.1044 37.9603 13.3971
-11.5334 38.829498 14.5971
-11.4401 38.915501 11.9464
-10.7987 39.841499 13.1486
-12.6995 36.724998 14.6966
-12.1825 37.572102 15.8405
-1.38712 38.034599 4.4871202
-1.27347 39.159302 5.3151798
-0.57779199 37.826401 4.3371
-0.51049799 39.058399 5.2065501
0.21300501 38.840099 5.0398102
0.166576 37.481098 4.1342001
0.085029997 35.899899 3.17887
-11.6622 9.3422604 25.1905
-11.5002 8.8793402 24.148001
-11.9106 10.4939 25.919399
-11.7608 9.8900995 24.885799
-12.0287 10.9659 25.599701
-12.2962 12.0731 26.2418
-12.1636 11.7163 26.616501
-12.4138 12.9989 27.2829
-12.6709 12.2783 27.381901
-3.6651599 40.526798 6.58038
-3.7602 41.2127 7.7731299
-2.9597099 40.233799 6.4461298
-3.07881 40.903702 7.49085
-2.23364 40.038101 6.3452902
-2.41482 40.6931 7.2702699
-1.56125 39.9515 6.2570901
-1.87445 40.6525 7.1820998
-0.89328301 39.970402 6.1470699
-1.29835 40.700401 7.0332699
-0.69212002 40.804001 6.85815
-0.231015 39.9119 5.95683
-3.8595099 41.952301 9.0806799
-3.9971001 42.6745 10.1465
-3.2121 41.602699 8.5852098
-3.31599 42.3988 9.4001999
-2.5337701 41.297798 8.1211796
-2.4602799 42.112099 8.7100897
-4.3842802 40.868198 6.7842598
-5.4618502 41.012501 7.2764702
-4.3924298 41.583698 8.1618204
-5.00982 41.9967 8.6639996
-5.0096598 42.781399 10.437
-4.9939899 43.5172 12.1844
-4.4424 42.353901 9.6953297
-4.5101399 43.089699 11.0236
-7.9551001 41.389801 9.3496199
-7.1367898 42.228001 10.4385
-6.7537498 41.1707 8.0836496
-5.9428501 42.211498 9.3716698
-6.4904299 42.966599 11.7996
-6.2951598 43.456902 13.0102
-5.6330099 43.128101 11.0614
-5.5651202 43.555199 12.6282
-8.6560898 41.541199 10.9959
-9.3228903 41.3699 12.8344
-7.93575 42.323898 12.0154
-8.4208002 41.979 13.8543
-10.9743 39.355301 15.6664
-10.4486 39.680199 16.5235
-10.142 40.515202 14.3414
-9.5174799 40.861401 15.3126
-5.38978 2.3865499 10.5905
-6.1666498 2.23002 12.1407
-6.8888302 2.1826601 13.4732
-7.5313601 2.21594 14.5241
-8.1335096 2.34479 15.4281
-1.83297 41.317799 7.8657198
-1.2201 41.587502 7.7355199
-1.5451699 42.470501 8.3871603
-5.9987898 44.2029 16.1604
-6.9045401 43.369701 16.582399
-7.86233 42.4244 17.0182
-5.6973801 44.407299 17.6401
-6.6560998 43.496201 17.946699
-7.6865301 42.465698 18.180901
-5.22932 44.468201 19.204901
-6.4519401 43.425301 19.2337
-7.5244198 42.3918 19.2391
-7.54318 41.991199 20.440701
-7.59654 41.405998 21.7924
-6.48598 43.009998 20.5667
-6.5998502 42.371799 21.9781
-5.4131298 43.829498 20.761299
-5.5882502 43.105801 22.219299
-3.10795 45.1404 20.7481
-2.9133699 45.444801 20.153601
-2.7988901 45.696999 19.692499
-4.1103501 44.889999 20.1285
-3.7848301 45.2733 19.4335
-3.55796 45.5681 18.941
-4.53087 45.074001 18.4888
-4.1932702 45.398201 18.0261
-5.0220799 44.864601 17.2885
-4.6644001 45.152302 16.9438
-5.3309102 44.531101 15.9068
-4.9657698 44.765202 15.6595
-8.7171898 41.4133 17.697399
-9.5738602 40.120499 18.632601
-8.5138502 41.3479 19.044399
-9.6749802 39.453499 20.062799
-9.6530199 38.823898 21.446501
-8.6036396 40.8064 20.2682
-8.6228704 40.203701 21.615101
-6.18502 43.8661 14.5577
-7.1138101 43.110001 15.019
-7.18436 42.827301 13.3893
-8.1209097 42.179798 15.5657
-5.4964199 44.0644 14.3156
-5.0913701 44.2122 14.0841
-10.747 5.8503299 20.5842
-10.9411 6.6227798 21.305401
-11.1401 7.3835001 22.0044
-11.376 8.1754303 22.7183
-11.6412 9.0134802 23.427601
-4.3406601 44.360401 21.210199
-4.5084901 43.632099 22.5536
-3.22879 44.685799 21.6646
-3.3425 43.989601 22.8999
-2.1104801 44.214901 23.169399
-0.95064801 44.324501 23.367001
-2.0906601 44.9235 21.9704
-0.99764103 45.071899 22.165899
-2.1476099 45.377399 21.0331
-1.1236 45.685299 21.084499
-2.0079401 45.7533 20.3515
-3.43366 43.072399 24.3778
-3.5062001 41.901402 26.1194
-2.1539099 43.290199 24.6063
-2.20135 42.121799 26.3148
-0.95915002 43.384602 24.777201
-0.98773903 42.214199 26.460699
-0.0035620001 42.216499 26.5513
0.015595 43.389 24.8894
0.0174 44.339199 23.508499
-0.0089520002 45.0872 22.367599
-0.037884999 45.714401 21.431999
-5.7301898 42.199699 23.818501
-5.8427901 41.030701 25.628099
-4.6388502 42.7104 24.1007
-4.73667 41.532902 25.8843
-12.8648 33.054798 21.5221
-12.6138 32.658199 22.724199
-12.4265 32.1437 24.0123
-12.1974 34.398701 21.4114
-12.0081 33.812698 22.6507
-11.8797 33.0056 24.044001
-11.4328 35.874401 21.347099
-11.3074 35.212399 22.665899
-11.2289 34.330101 24.1905
-10.4863 35.6991 24.379601
-9.6048899 37.079201 24.619801
-10.5316 36.6399 22.752501
-9.6162996 38.077301 22.9286
-10.5865 37.3587 21.3479
-11.5736 36.453602 20.058599
-11.6956 37.080898 18.7045
-12.4128 34.888901 20.1922
-12.6074 35.3713 19.025101
-13.1462 33.430698 20.288099
-10.6439 37.975498 20.031
-10.6675 38.571499 18.7691
-12.3811 31.333401 25.369101
-12.4439 29.9848 26.9736
-11.8391 32.016998 25.5959
-11.884 30.854601 27.323799
-11.2332 33.1092 25.8848
-11.2611 31.725401 27.709
-13.4185 32.224499 22.0718
-13.1117 31.8615 23.122
-13.5547 30.8992 23.754101
-12.8443 31.4084 24.3081
-13.2209 30.582701 24.6882
-12.8649 30.3225 25.6786
-13.7466 32.457298 21.163601
-12.2906 36.659801 17.833099
-11.1006 38.511002 17.602301
-11.6743 38.062801 16.8389
-10.0493 39.847401 17.493299
-9.10536 41.095001 16.513399
-14.3512 28.128099 25.6285
-13.9446 27.946199 26.1406
-13.9756 29.656799 24.611
-13.589 29.409901 25.345501
-13.8409 18.7759 29.2213
-13.4509 17.9813 29.1061
-13.8528 20.3659 29.071199
-13.504 19.476801 29.1446
-13.486 20.885599 29.348301
-13.4141 22.2271 29.541401
-13.7266 21.8638 28.9709
-13.5513 23.297199 28.986099
-12.6589 14.2889 27.816799
-12.5604 13.0796 26.8549
-12.8934 15.5641 28.2013
-12.8113 14.0655 27.615999
-13.04 15.0846 28.4291
-13.2189 16.095501 29.277901
-13.1016 16.7953 28.722601
-13.2603 18.0781 29.346901
-13.218 12.6505 27.941401
-13.554 27.6271 26.9219
-13.2395 27.058201 27.8892
-13.2085 29.070999 26.320801
-12.8878 28.4884 27.4965
-15.0716 26.222601 26.604601
-14.6461 26.348101 26.738001
-14.2307 26.2663 27.0299
-13.8465 26.005699 27.526501
-13.5257 25.561399 28.246201
-13.1089 26.083401 28.879299
-13.0911 24.7563 29.924601
-12.7975 27.364599 28.823999
-12.7855 25.925301 30.208
-12.4069 28.541 28.8612
-12.368 27.0016 30.5814
-11.8696 27.9694 31.0203
-11.2997 28.867201 31.4811
-11.8949 29.509001 29.1901
-11.275 30.405899 29.620001
-11.3047 24.9548 34.873402
-11.3251 27.087799 33.227299
-11.8102 23.938499 34.361401
-11.8564 26.1695 32.728802
-12.296 22.9408 33.687599
-12.3325 25.204599 32.180199
-13.0647 20.249701 32.320999
-13.0219 17.5858 33.2784
-12.7133 21.865601 32.966202
-12.6862 18.9468 34.0877
-12.2383 19.996901 35.006599
-10.1608 26.478001 35.789902
-10.0469 28.751801 34.133202
-9.93293 30.589899 32.356098
-10.7887 25.636 35.404099
-10.7383 27.921801 33.695301
-10.6606 29.733101 31.9212
-11.6879 21.133801 35.905399
-11.1128 22.5571 36.441601
-7.6623802 40.623299 23.3456
-8.6382904 39.4436 23.132
-7.7445202 39.542 25.114599
-8.6784 38.402199 24.864901
-9.6412802 35.736099 26.5308
-9.7180004 34.134701 28.540501
-8.7561502 36.993301 26.837799
-8.8604803 35.313099 28.9135
-7.8484998 38.086201 27.1334
-7.9595299 36.354198 29.258301
-6.8218198 40.396 25.369499
-6.7144399 41.526299 23.569099
-6.9273601 38.9184 27.4135
-7.0166702 37.180401 29.562799
-5.9326601 39.550201 27.676901
-5.9878502 37.8284 29.832899
-10.4802 34.427898 26.2146
-10.521 32.906898 28.146
-4.8046398 40.058899 27.920401
-4.8326201 38.3484 30.075001
-3.5534999 40.438301 28.1343
-3.5671 38.7351 30.2813
-8.0613298 34.474499 31.315701
-8.1446505 32.5023 33.2528
-7.0718498 35.2952 31.65
-7.0931001 33.315601 33.619701
-5.9919701 35.957699 31.937401
-5.9489398 33.987301 33.929798
-4.7306399 34.507198 34.196499
-3.4610901 34.868801 34.417599
-4.80686 36.482399 32.187901
-3.5362899 36.8638 32.397301
-5.7685699 29.440701 37.713799
-5.8717198 31.900999 35.810501
-7.04568 28.773399 37.335899
-7.0815802 31.2281 35.474201
-8.2490702 27.9723 36.882
-8.2041702 30.4221 35.0728
-10.3442 23.6015 37.167301
-9.3082895 27.1604 36.360699
-9.4217396 24.046801 38.057701
-8.2858496 24.858801 38.729599
-7.0012999 25.648001 39.2743
-5.6581101 26.2962 39.720699
-9.2006798 29.5716 34.610699
-9.0933704 31.563601 32.820599
-8.9767704 33.487 30.9251
-9.8193903 32.391899 30.495899
-4.4802499 29.929899 38.0303
-3.2112801 30.2281 38.289299
-4.6154799 32.4095 36.097
-3.34761 32.738998 36.335999
-0.928868 30.3508 38.6385
-0.98245198 32.946999 36.657799
-1.0207601 35.161701 34.707802
-2.0019701 30.3424 38.492401
-2.10342 32.898998 36.5233
-2.1840701 35.073799 34.588001
-4.3397899 26.7603 40.081799
-3.0785501 27.028299 40.364899
-2.23438 40.671101 28.3083
-2.24685 38.977001 30.444201
-1.01245 40.776199 28.434799
-1.02953 39.094299 30.559
-0.024063 40.789501 28.510201
-0.04397 39.120602 30.625099
-2.23176 37.097099 32.558998
-1.03492 37.209499 32.671299
-0.066798002 35.1796 34.779499
-0.059958 37.237598 32.7365
-1.90224 27.1134 40.575901
-0.87518603 27.0993 40.723099
-12.2067 10.5381 25.100401
-12.4897 11.2855 25.904301
-12.7657 12.0627 26.758101
-11.92 9.7997303 24.295099
-13.3189 17.325701 30.092501
-13.3324 18.5242 30.7766
-13.3455 19.4181 29.7794
-13.3456 20.703199 30.198
-13.0261 12.8762 27.703699
-13.2361 13.6888 28.710699
-13.0527 23.0417 31.1141
-13.2535 19.599199 31.440201
-13.2519 21.927299 30.622801
-13.2876 23.522301 29.7239
-13.3612 14.4879 29.7276
-13.3946 15.5032 30.744499
-12.7373 24.183901 31.619301
-13.3464 16.386999 31.614799
-13.2478 16.7218 32.386902
-10.2129 4.2505598 18.9368
-10.5171 5.0381398 19.788401
-1.60522 2.76774 8.8910198
-2.6721201 2.6394501 8.8453999
-3.67941 2.57653 8.9120903
-4.5799599 2.6247301 9.1181602
-9.3052397 3.0129399 17.1852
-9.8058701 3.56514 18.0634
-13.3528 24.7141 28.950701
-10.5865 31.2871 30.047199
-8.7341499 2.6066 16.311001
-0.04902 30.331301 38.728802
-0.061404999 32.9454 36.740299
-0.038722001 27.072701 40.812901
-0.0047909999 34.089802 2.17804
-0.47597501 7.9762502 5.84517
-0.53464103 2.89499 8.9934301
-4.99159 25.727501 -0.43500799
-4.91679 23.762501 -0.58993101
-6.2643499 23.946699 -0.28882
-6.1569099 22.200399 -0.235928
-6.0141201 20.2651 0.1199
-4.7734098 21.5825 -0.44250399
-5.83847 18.621401 0.59085399
-4.61024 19.6507 -0.034972001
-5.7209101 17.103399 1.35097
-4.5056801 17.9851 0.70485198
-5.7153602 15.5717 2.4249699
-4.4920301 16.4123 1.78891
-3.58219 25.1803 -0.728347
-3.4426 22.491699 -0.68555999
-3.2957699 20.228001 -0.33272099
-3.63361 27.5597 -0.37044999
-16.8013 15.8849 28.158899
-16.433399 17.445801 28.665899
-16.0896 18.7544 29.0028
-16.9048 17.4405 27.2295
-16.533001 18.981701 27.7472
-16.154301 20.3564 28.2138
-17.1674 14.1887 27.562799
-17.0172 12.8339 28.347799
-16.610201 11.5453 28.9051
-16.632099 14.5747 28.945101
-16.309601 13.2771 29.369301
-15.9792 14.7829 29.341801
-16.249599 16.2082 29.3815
-15.9152 17.479601 29.258499
-15.6722 11.6691 28.9286
-15.937 10.1456 28.824301
-15.0402 10.3345 28.3922
-15.2748 8.8151302 28.159599
-14.5841 7.75495 27.453699
-13.9117 6.9593601 26.642599
-14.3681 9.2754002 27.8043
-14.7912 11.7683 28.5923
-15.374 13.1319 29.014999
-12.5006 3.4469099 23.7059
-13.0041 4.4605098 24.6998
-13.3839 5.6729598 25.605
-11.387 2.01458 21.600599
-11.9336 2.61064 22.656401
-10.634 1.79831 19.4541
-10.9514 1.78786 20.4986
-8.0212803 8.8783503 7.45714
-6.9825401 9.5780802 6.9579601
-9.1454096 6.9566498 9.2629299
-8.6322803 7.4367099 8.83951
-9.9808598 5.3488002 11.1108
-8.7102003 5.71279 10.4375
-8.5914097 4.3957801 12.0083
-9.98001 4.1663098 12.7086
-9.8313704 3.32745 14.1542
-6.5479298 8.7856102 7.4123502
-5.87959 8.2989397 7.5255399
-7.40452 7.0627999 8.7917805
-7.2367201 5.2759199 10.2815
-7.0140901 10.7895 6.0906701
-6.2358398 12.485 4.8860998
-5.91394 11.6588 5.5744901
-5.0240698 13.3547 4.2976799
-5.8122301 14.0446 3.6512499
-4.6048002 14.9045 3.0357499
-3.8928299 14.0649 3.6589401
-4.4112601 12.4714 4.8329601
-4.8905602 10.8072 5.9026399
-4.3969698 9.6553698 6.4103298
-4.4496799 8.16646 7.1846099
-3.32741 17.162399 1.14984
-3.49418 15.5989 2.4176099
-5.9888902 6.5809498 8.6345396
-3.2494299 18.5618 0.27366099
-10.2622 2.26754 17.147499
-10.4254 1.97054 18.3731
-10.0036 2.70789 15.6883
-1.78561 43.356499 8.6796999
-2.6972799 43.198101 9.0987396
-4.93541 43.965801 12.5379
-5.0086098 44.485298 13.989
-4.8768401 45.012699 15.4309
-4.56036 45.4076 16.637699
-4.0837002 45.659401 17.6532
-3.4511199 45.839802 18.541
-2.6712999 45.979301 19.304501
-1.77757 46.094299 19.946699
-0.84312499 46.186798 20.448601
0.044250999 46.276199 20.722601
-4.0867 43.528702 10.494
-4.5936298 43.694401 11.3795
-3.4813001 43.288101 9.7239599
-14.2084 10.7908 28.128401
-15.7662 19.441601 28.958799
-15.5027 25.5734 26.310101
-15.7018 23.380501 27.496901
-15.7774 21.3088 28.3887
-17.265499 15.775 26.618601
0.75383198 45.559399 8.3030195
-0.111772 44.973701 8.2678404
-1.0633 44.497299 8.4148703
0.46206301 46.522301 8.1862898
-0.39076999 45.919601 8.1389704
-1.34175 45.424 8.2670298
0.079594001 47.4645 7.8413401
-0.75708002 46.875801 7.7937398
-1.70044 46.382301 7.9053898
2.4103401 46.740501 9.1832504
1.57976 46.189602 8.6202803
1.94789 47.642101 8.9430704
1.1890301 47.114201 8.4493103
1.38508 48.534599 8.50179
0.780168 48.035599 8.0843601
4.7668099 47.841999 16.0644
4.9450202 47.866699 14.9854
4.8101902 47.8577 13.7225
4.0307999 48.841801 15.3103
4.1944098 48.8885 14.3044
4.1197 48.820999 13.1582
3.2449901 49.912899 14.5257
3.4095199 50.0028 13.5916
3.3949001 49.913101 12.5903
3.1100199 49.808998 11.2565
3.79355 48.628399 11.8459
4.4008498 47.711498 12.2765
2.66398 49.490601 10.0062
3.2902501 48.341099 10.5923
3.8664 47.433701 10.9418
3.75279 47.699799 17.9555
4.3473601 47.7967 17.0499
3.09131 48.602901 17.173599
3.63748 48.753399 16.273701
2.2174001 49.662498 16.3209
2.7590699 49.858101 15.4101
2.28934 47.328499 19.4207
3.046 47.5327 18.7647
1.7076 48.192799 18.5709
2.4339499 48.418098 17.9387
0.92366701 49.232899 17.572399
1.56652 49.521301 16.9772
1.52226 47.138802 19.8661
0.91548002 47.962601 19.0289
0.210719 49.0284 17.9666
0.69342899 46.9566 20.099701
0.190833 47.6922 19.317801
-0.55416101 48.754002 18.2451
-1.60641 50.239101 16.8564
-0.680866 50.514301 16.597
0.26960599 50.535198 16.3169
1.02668 50.799099 15.5173
1.61239 51.132198 14.4113
2.36692 51.126099 13.4026
2.5827501 51.2299 12.028
2.2429299 51.231602 10.5097
1.8319499 50.851002 9.2259703
1.33706 50.323898 8.3571196
2.0829201 49.060101 9.0986605
0.84583598 49.723801 7.83917
2.6624701 48.020302 9.6301098
3.1856 47.144501 9.9273901
0.282179 49.071602 7.5671401
-0.422912 48.433701 7.4464698
-1.24369 47.9048 7.4177098
-2.1727901 47.441601 7.5212498
-2.9676199 44.0933 9.0692101
-3.2642701 45.021301 8.8796902
-3.6203201 45.943298 8.4752703
-2.04634 44.216599 8.6746302
-2.33444 45.139999 8.5088196
-2.6919501 46.0821 8.1300201
-4.3134098 44.254601 10.3947
-4.64501 45.0172 10.0762
-4.9971399 45.889 9.5880098
-3.7474899 44.110001 9.6715002
-4.03826 44.990501 9.4008799
-4.3885102 45.905102 8.9572496
-4.1875701 45.9519 17.253
-4.5567298 46.368599 16.6933
-5.0839801 47.092499 15.8764
-4.6912899 45.695702 16.2766
-5.0625901 46.132099 15.759
-5.56672 46.9058 14.9794
-5.0287499 45.320202 15.1411
-5.3601899 45.8619 14.6363
-5.7692199 46.625702 13.9927
-5.76759 46.344398 12.7121
-5.6282802 46.060699 11.4293
-5.4509602 45.551701 13.2819
-5.3396702 45.274101 11.9497
-5.1619 44.8862 13.7741
-5.05266 44.5756 12.3775
-2.7334299 46.315701 18.859301
-3.0580299 46.839001 18.244101
-3.63183 47.613701 17.436199
-3.52895 46.147499 18.116699
-3.87222 46.615299 17.522301
-4.4323902 47.388302 16.6789
-0.91190702 46.616199 19.8941
-1.36079 47.197399 19.2043
-2.12185 48.071301 18.2467
-1.83207 46.472401 19.4632
-2.1993101 47.036499 18.803801
-2.9300101 47.864498 17.9093
-0.065595999 46.744301 20.131599
-0.57331198 47.422901 19.3771
-1.35623 48.431301 18.3176
-2.4953001 49.7911 16.9471
-3.2155001 49.150398 16.9981
-4.2021999 48.7075 16.504299
-5.1846199 48.416302 15.5792
-5.6941199 47.886299 14.7706
-5.9602599 47.475601 13.6039
-6.02948 47.2271 12.237
-5.9095702 46.912201 10.946
-5.5985999 46.777401 9.9021502
-5.1768999 46.764801 9.1157703
-5.3787298 45.894901 10.4036
-5.05969 45.1059 10.8879
-4.7551098 44.3946 11.2546
-4.6793499 46.8204 8.5174799
-4.0469398 46.939899 8.0561199
-3.1415701 47.122601 7.73701
-2.6999099 51.977901 15.4657
-1.60553 52.2505 15.1772
-0.30673799 52.1334 14.6915
-3.5413201 53.688301 14.2102
-2.5156901 54.187698 13.7339
-1.55042 54.464901 12.9146
-4.9847102 54.756699 13.1756
-4.29847 55.406502 12.4871
-3.45158 55.790001 11.4804
0.551314 52.761299 13.0923
1.2933199 52.690399 11.6059
-0.81670898 54.627602 11.6125
-0.31959099 54.442501 10.1484
-2.64046 55.803799 10.1677
-2.0831699 55.385601 8.7275696
1.07258 52.687901 9.7029495
0.77752101 52.1987 8.3794298
0.42820701 51.523998 7.58639
0.012712 50.849998 7.1407399
-0.26769501 53.886002 8.6369305
-0.49024501 53.1782 7.4846802
-1.90403 54.626499 7.4732499
-2.0706301 53.7533 6.5177102
-0.45259801 50.209202 6.9128699
-1.02836 49.563599 6.86234
-0.84651899 52.426601 6.7572899
-1.25265 51.729301 6.37146
-2.44663 52.9184 5.9525099
-2.8197999 52.1562 5.6999698
-1.82016 48.8894 6.9607902
-2.7277601 48.451302 7.07372
-1.68549 51.133202 6.1882801
-2.18309 50.5583 6.1764498
-3.27332 51.5672 5.5968299
-3.6352701 51.000801 5.6902399
-2.83393 49.930698 6.3170199
-3.46158 49.226799 6.6624799
-4.1413698 50.388 5.89744
-4.6852498 49.739601 6.2597899
-3.9121301 53.876499 5.60677
-3.7387199 54.9744 6.4324498
-3.90062 55.856098 7.59619
-4.98243 56.473099 10.2775
-5.6802301 56.305901 11.3855
-6.3720398 55.7948 12.1436
-4.3938599 56.345402 8.9268904
-4.35116 52.0098 5.2105598
-4.1956201 52.843899 5.2410202
-6.0357199 50.0951 6.02353
-5.4468298 50.690899 5.5855498
-4.77637 51.277401 5.3126898
-3.7018499 51.387402 15.532
-4.6255102 50.352901 15.4207
-4.4490099 53.0173 14.3504
-5.63521 53.866501 13.5392
-5.27459 52.038101 14.209
-6.2969098 52.901199 13.4439
-5.55092 49.7104 14.4129
-6.1002202 48.677799 13.3805
-6.0686998 50.990601 13.6007
-6.9837699 51.841 12.9105
-6.6178098 49.953701 12.6682
-7.4569302 50.727699 12.0738
-6.3274002 48.221298 11.7974
-6.2193098 47.8256 10.5024
-5.8734002 47.593102 9.5474195
-5.4123902 47.5382 8.7994204
-6.8024702 49.1217 11.4825
-7.5531101 49.7122 11.0247
-6.6540699 48.507801 10.2578
-7.3459702 48.988098 9.9088402
-4.8998098 47.609699 8.2040997
-4.3123999 47.8111 7.7114201
-6.28125 48.2038 9.2670202
-6.9327502 48.635799 8.9349298
-5.7990398 48.123001 8.5128498
-6.4342198 48.509602 8.2105398
-3.6434801 48.131302 7.2986598
-5.3057899 48.1824 7.9435
-6.0574698 48.5326 7.69803
-4.7460499 48.372398 7.4825201
-5.63486 48.709099 7.2760501
-4.0826001 48.701698 7.06671
-5.21137 49.162498 6.7468801
-8.4326 49.48 9.6990805
-8.6399803 50.314899 10.7346
-8.5374002 51.381599 11.6824
-7.5784402 53.8325 12.6008
-6.9994202 54.950199 12.5567
-8.1456003 52.591801 12.3237
-7.3442202 48.924801 7.8639698
-7.9830699 49.064499 8.6884699
-6.5461798 49.573898 6.57336
-6.85746 49.120201 7.1499801
6.5123 2.0534599 9.7713699
7.2995 2.13411 10.5031
7.9993901 2.0775101 11.8416
8.6312799 2.1165299 12.9342
9.2283802 2.24944 13.8905
11.8167 5.3794298 18.906099
12.0256 6.0269098 19.5748
12.2366 6.6247201 20.2551
12.4784 7.1209798 21.125299
12.7513 7.6471901 22.0044
14.2987 15.1578 34.315701
13.9507 16.138901 35.3414
13.4562 17.144501 36.470501
12.7997 18.2617 37.5354
11.937 19.9659 38.359901
10.815 20.405001 39.5909
9.6105299 21.1583 40.417198
8.2679501 21.878599 41.076099
6.8738699 22.4608 41.6175
5.5329599 22.8664 42.046101
4.2803702 23.099899 42.364101
3.1396 23.2001 42.572498
2.1557901 23.205999 42.7089
13.3561 8.7304201 23.631001
13.6692 9.26717 24.4471
13.9831 9.8203402 25.339899
13.0473 8.1884699 22.8283
14.2873 10.4008 26.3631
14.539 10.9811 27.477301
14.6856 11.7027 28.9603
14.7409 12.4176 30.326
14.7202 13.1572 31.516001
14.6438 13.7761 32.5322
11.2636 3.97984 17.3888
11.5733 4.6772199 18.176701
2.6247599 1.93241 9.1350498
3.68942 1.8375601 9.1244202
4.7146502 1.81135 9.2175303
5.6526499 1.8947099 9.4454603
10.3773 2.8674901 15.6969
10.8638 3.3662901 16.558399
9.8196898 2.4960401 14.8092
1.35427 23.1998 42.791401
0.65705502 23.198799 42.8204
1.5704 2.0370901 9.1957903
0.52696699 2.0903399 9.2336998
6.7450199 1.48023 9.90588
7.5634198 1.68467 10.35
8.3016195 1.9064 10.826
6.8979902 1.41243 9.7778301
7.7420101 1.61099 10.2467
8.5016603 1.8338799 10.7537
7.0602298 1.4864 9.5076303
7.9404001 1.66354 10.0059
8.7360001 1.87256 10.5542
9.5393896 2.34326 11.7768
8.9584904 2.1270599 11.3046
9.3852901 2.4545801 11.6706
8.7879496 2.2468801 11.2096
8.1366796 2.0466499 10.7666
9.1681299 2.0624499 11.2676
9.7353802 2.28265 11.7637
9.4250898 2.0734701 11.1416
9.9733801 2.13045 11.8248
10.5171 2.81896 12.7843
10.0534 2.5625601 12.2513
10.4651 3.0067799 12.7447
9.94734 2.6872599 12.1728
4.8536801 1.21338 9.2467804
5.8466001 1.3153 9.5275297
4.9551201 1.16733 9.0710096
5.9741201 1.25902 9.3779402
5.0615501 1.19399 8.83463
6.1059499 1.3172899 9.1203203
7.41079 1.84313 10.3279
6.6082301 1.65019 9.91535
10.2119 2.4929099 12.2366
10.6339 2.7328899 12.7583
10.4077 2.1435399 12.4611
10.7756 2.20701 13.1386
11.3228 3.4967401 14.141
10.9439 3.13715 13.4227
11.3104 3.98808 14.1603
10.9235 3.4558001 13.4107
8.9840899 1.43656 10.807
9.71766 1.5059299 11.6117
10.2897 1.64814 12.3446
7.2224002 1.35475 9.4156599
8.1416502 1.39044 10.0582
12.3189 4.6448698 17.8528
12.533 4.82271 18.554899
12.7696 5.0615201 19.312
12.4695 3.6928 18.2703
12.7584 3.9123499 19.1854
12.7428 2.6910999 18.8722
13.3779 5.4993501 21.3379
13.0575 5.2466302 20.2369
13.3789 6.9781299 21.3634
13.0723 6.61941 20.2272
12.7839 6.2901001 19.2264
12.5212 5.9744301 18.3449
12.2866 5.6782298 17.5291
13.083 3.89534 20.148001
13.4314 4.0439301 21.2715
13.1483 2.50144 20.0275
13.5333 2.45895 21.2127
13.9027 2.6282301 22.4876
13.7881 4.2677698 22.5396
13.7155 5.7944899 22.607201
14.2586 2.8554399 23.880501
14.1431 4.5432 23.969299
14.0587 6.1403999 24.0655
14.0184 7.81568 24.121201
13.6965 7.3673902 22.648001
12.1218 4.3563099 17.116199
12.268 3.28859 17.5352
12.483 2.5079501 17.992901
11.9012 4.0709901 16.24
12.0301 3.0904701 16.6789
12.2273 2.45383 17.1471
12.4947 1.82652 17.7283
12.8524 1.86199 18.8804
11.639 3.7750499 15.2002
11.4181 2.9159701 14.6161
11.7493 3.00331 15.6787
11.5798 2.2890201 15.097
11.9371 2.3575301 16.1754
12.0792 5.3704901 16.716
11.8681 5.05867 15.8121
14.5788 9.5885401 35.159901
14.1489 10.2138 36.605801
13.5492 10.8299 38.2691
14.7361 7.3144202 35.381802
14.2824 7.5830598 37.084801
13.664 7.8404498 38.7556
14.8733 4.96174 35.681599
14.4048 5.06638 37.4076
13.7876 5.1512699 39.0681
11.8695 12.1199 41.142101
12.7771 11.4889 39.805199
11.8533 15.8263 39.965
12.7417 14.9429 38.7878
13.4701 14.0398 37.537701
12.8907 8.2701998 40.362499
11.9917 8.6751804 41.756401
13.0382 5.20684 40.541
12.1735 5.26547 41.840302
9.7098198 13.2126 43.208801
10.8581 12.6901 42.265999
9.6258698 17.1532 41.9659
10.8158 16.4545 41.065498
14.9938 8.6820698 32.752499
14.8521 9.1145401 33.905499
15.1731 6.5771198 32.666
15.027 6.9422698 33.915798
15.335 4.5964799 32.550499
15.1798 4.8376198 34.016499
14.0243 13.1537 36.216099
14.4157 12.3205 34.931702
10.9954 9.0444498 42.9426
9.90096 9.3761597 43.9324
11.2127 5.4463 43.0546
10.1906 5.6111002 44.072201
6.9684701 13.294 44.944
8.3963499 13.5985 44.0392
6.8439002 18.252199 43.3717
8.2667999 17.7915 42.7229
13.8925 2.2344601 39.020401
13.1761 2.1602399 40.434601
12.3677 2.07621 41.661598
14.9855 2.31584 35.7271
14.5051 2.28037 37.407001
4.2267399 14.4919 45.705101
5.4965401 14.2794 45.331501
4.22258 18.927999 44.175201
5.4737 18.715599 43.825298
8.7466097 9.5903397 44.7444
7.7407899 9.2493 45.432899
9.1650105 5.7185798 44.8792
8.2623501 5.6474099 45.496399
3.10957 14.4552 45.976601
2.15713 14.3598 46.148899
4.2747102 10.0703 46.762798
3.1535699 9.9744902 47.042999
2.1953499 9.8498297 47.210999
4.3385601 5.7053399 47.262901
3.2096801 5.5611 47.5294
2.24002 5.4219799 47.674301
0.691329 14.2668 46.271702
1.3762701 14.2947 46.2463
0.67352498 18.849001 44.710201
1.35724 18.866301 44.679298
2.1403999 18.9062 44.583801
6.6686101 9.3596201 45.988998
5.5037298 9.9892597 46.3671
6.6726999 5.6728001 46.398102
5.56112 5.7794299 46.854099
3.10008 18.9566 44.422199
1.40579 9.7713699 47.298302
0.71036202 9.73839 47.3116
1.43934 5.3400202 47.739498
0.733401 5.3084798 47.735199
4.38765 1.3831 47.1446
3.2522199 1.20524 47.374802
2.2722199 1.06546 47.4856
6.7848301 1.69731 46.252602
5.6156201 1.56416 46.751301
14.6649 11.6151 33.7607
14.8051 11.0435 32.698601
14.514 14.5302 33.376701
15.4772 2.3812399 32.560799
15.3086 2.3550601 34.115601
15.0309 8.2867203 31.622499
15.1975 6.2508798 31.4729
15.3576 4.3053999 31.285801
14.9848 7.8882399 30.3985
15.1281 5.9277401 30.2129
15.2762 4.0233302 29.9862
14.8881 3.4050901 26.9907
14.773 5.2086301 27.204399
14.6738 6.9934802 27.3979
15.1173 3.71666 28.542601
14.9876 5.5739598 28.7803
14.8695 7.45123 28.9841
11.0399 2.82708 13.6118
11.1793 2.23402 14.0477
11.6201 4.5693698 14.9596
11.776 1.61856 15.5069
12.1812 1.67418 16.681299
10.8289 1.68701 13.2661
11.3133 1.61172 14.3349
2.65344 1.20823 9.0206203
3.7657001 1.18617 9.0851297
2.7034299 1.15214 8.7732601
3.83972 1.1429501 8.8725796
2.76846 1.09082 8.5510702
3.9237599 1.1237 8.6526003
5.7285099 1.48932 9.5608702
4.7604699 1.39103 9.3063698
3.7054999 1.3752199 9.1819801
2.6229401 1.4144 9.1590595
5.1596498 1.2961 8.5332699
6.23383 1.3229899 8.9051304
2.8066101 1.1813101 8.2037201
3.9902301 1.2236 8.33249
13.253 1.6812 20.029301
13.6548 1.57434 21.2612
14.0334 1.50148 22.5399
14.3875 1.4406101 23.8904
14.3914 6.54667 25.7083
14.4822 4.8605099 25.559799
14.5944 3.1161001 25.406
14.718 1.37845 25.333599
15.0112 1.40072 26.818001
15.2503 1.6816601 28.323299
15.4208 1.96569 29.7633
14.5925 8.9280396 27.5007
14.3311 8.3455896 25.790001
7.4885402 5.81671 45.965599
11.4795 2.00579 42.738098
10.5428 1.94418 43.663898
9.5940399 1.87695 44.435699
8.6704798 1.82909 45.1185
1.68646 1.1569 8.1226501
0.61038601 1.14678 8.0802898
1.66883 1.0781 8.5
0.606493 1.07434 8.4767199
1.4647599 0.98711801 47.5289
0.75522703 0.96193898 47.508301
1.6189899 1.15376 8.7548504
0.570337 1.15908 8.7501602
1.58521 1.24728 9.0152903
0.54784 1.27071 9.0203199
1.56822 1.4703 9.1890297
0.53419298 1.50165 9.2115202
15.5055 2.2353799 31.106199
7.77039 1.8056 45.717602
14.7644 9.5208902 29.084101
14.8511 10.0824 30.4716
14.8648 10.5836 31.6472
-5.4447999 2.1294301 9.7690401
-6.2293901 2.21805 10.5011
-6.9325199 2.16857 11.8411
-7.5639501 2.2125299 12.9355
-8.1572104 2.3484299 13.8942
-10.6669 5.4476399 18.933901
-10.8626 6.0871 19.604
-11.063 6.6788702 20.2852
-11.298 7.17169 21.159
-11.5637 7.6946602 22.041
-13.0261 15.1504 34.366001
-12.6728 16.1362 35.3927
-12.1723 17.144699 36.521599
-11.51 18.2654 37.584702
-10.6409 19.9809 38.404202
-9.5143805 20.410999 39.6325
-8.3062601 21.1625 40.454102
-6.9608402 21.8822 41.107399
-5.56457 22.4638 41.642899
-4.2221198 22.869101 42.0658
-2.9682901 23.118299 42.372002
-1.82658 23.213301 42.577702
-0.84240198 23.214001 42.712002
-12.1508 8.7680998 23.6693
-12.4546 9.29846 24.4848
-12.7593 9.8442602 25.3757
-11.8511 8.2315798 22.866199
-13.055 10.4167 26.3958
-13.3001 10.9897 27.5063
-13.4414 11.707 28.990101
-13.4924 12.4187 30.357
-13.4663 13.1575 31.552099
-13.3836 13.774 32.573898
-10.1468 4.0673699 17.408701
-10.4396 4.7553 18.201099
-1.57209 1.95962 9.13556
-2.63641 1.87953 9.1240101
-3.65924 1.86726 9.2159405
-4.5921302 1.96207 9.4430904
-9.2884998 2.9660001 15.7076
-9.7621202 3.4607 16.573601
-8.7412901 2.59602 14.8161
-0.040708002 23.203699 42.792801
-0.51700598 2.0502701 9.1964102
-5.6577601 1.5340101 9.9161301
-5.7808399 1.45112 9.7899103
-5.89674 1.4815 9.5391998
-6.4653101 1.74174 10.3612
-6.6177301 1.65231 10.2602
-6.7740002 1.68457 10.0181
-7.1915498 1.96427 10.8382
-7.3677602 1.87559 10.7685
-7.5618601 1.89774 10.5664
-8.4054298 2.39801 11.7902
-8.2717104 2.5281401 11.6786
-7.8362899 2.1841199 11.3176
-7.684 2.3199401 11.2172
-7.0429602 2.1187201 10.7732
-8.0234299 2.1026299 11.2831
-8.2417603 2.1005001 11.1536
-8.5795498 2.3203599 11.7793
-8.7849903 2.1577799 11.8387
-9.3591099 2.86602 12.7978
-9.3291798 3.07619 12.7536
-8.9078903 2.61426 12.2649
-8.8232403 2.7598 12.181
-3.7747099 1.25221 9.2540102
-3.8391099 1.19326 9.07967
-3.88761 1.18081 8.86129
-4.7660699 1.36327 9.5361996
-4.8601298 1.29239 9.3884296
-4.9401898 1.30639 9.1518002
-6.32762 1.91302 10.3335
-5.5349998 1.71556 9.9199896
-9.0440798 2.5281301 12.2514
-9.2115297 2.1690199 12.4768
-9.4521799 2.76421 12.772
-9.5705404 2.22896 13.1559
-10.1336 3.5272801 14.1529
-10.1457 4.04283 14.1718
-9.7715902 3.1777401 13.4356
-9.7740898 3.5194099 13.4209
-7.7618899 1.41006 10.8565
-8.4963799 1.4835401 11.6651
-9.0700703 1.63009 12.3996
-5.9864998 1.31724 9.4555502
-6.9150701 1.35888 10.1031
-11.0891 4.6405902 17.873501
-11.2159 3.6763699 18.2941
-11.4609 2.65927 18.9125
-11.2976 4.81425 18.577101
-11.4979 3.89113 19.211
-11.5296 5.0496898 19.335501
-12.1239 5.47788 21.3652
-12.1481 6.97686 21.388
-11.8107 5.2302299 20.262199
-11.8472 6.6236401 20.249701
-11.564 6.29917 19.247
-11.306 5.9877 18.363899
-11.0767 5.6962199 17.546499
-11.8115 3.8684001 20.1759
-11.8504 2.45645 20.0949
-12.1508 4.0116901 21.301901
-12.2237 2.4122901 21.2836
-12.5873 2.5838599 22.560801
-12.9376 2.8138399 23.955601
-12.4986 4.2298899 22.5725
-12.8441 4.4987001 24.0051
-12.4535 5.76722 22.6367
-12.7881 6.1062198 24.097601
-12.7746 7.8009801 24.1507
-12.4595 7.3598499 22.674999
-10.8976 4.35673 17.1357
-10.6859 4.0787902 16.2577
-11.0169 3.2755001 17.557899
-10.7875 3.08374 16.7001
-11.2077 2.4768701 18.041401
-10.9623 2.4339299 17.1842
-11.2082 1.78754 17.8002
-11.558 1.82362 18.954
-10.2061 2.9300001 14.6338
-10.3431 2.2941799 15.1187
-10.4363 3.7937801 15.2153
-10.5205 3.00615 15.6984
-10.6845 2.35324 16.198999
-10.8756 5.39433 16.731701
-10.6733 5.0907998 15.8257
-13.2721 9.5083103 35.1982
-13.3941 7.2643099 35.450199
-13.4938 4.9200902 35.764301
-12.8386 10.1273 36.645802
-12.9325 7.53022 37.151798
-13.013 5.0211301 37.4888
-12.2309 10.7827 38.328499
-12.3056 7.7842398 38.820301
-12.3845 5.1033201 39.146301
-10.5319 12.0761 41.200199
-10.5486 15.7762 40.014801
-11.449 11.444 39.864601
-11.4418 14.8935 38.838799
-12.1754 13.9913 37.588699
-11.5209 8.2117395 40.427601
-11.6273 5.1589599 40.615002
-10.6108 8.6141996 41.820099
-10.7556 5.2182698 41.909599
-8.3537903 13.1692 43.260502
-8.3093901 17.1406 42.008499
-9.5113802 12.6468 42.3214
-9.5051298 16.442301 41.112
-13.6907 8.6134396 32.7925
-13.8407 6.5127802 32.715401
-13.9749 4.55896 32.632801
-13.5472 9.0409298 33.945099
-13.6905 6.8929 33.9837
-13.8113 4.7983098 34.099201
-12.7353 13.1053 36.265598
-13.132 12.2711 34.9781
-9.6059399 8.9836998 43.003201
-9.7866802 5.4010301 43.120201
-8.5063601 9.3218803 43.987598
-8.7580204 5.5679798 44.1329
-5.5908298 13.257 44.982601
-5.51512 18.235399 43.404701
-7.0289102 13.5545 44.085899
-6.9446402 17.7775 42.7607
-12.4626 2.21789 39.116299
-11.7353 2.1430399 40.525902
-10.9171 2.0587399 41.747601
-13.5804 2.3006499 35.828899
-13.0874 2.26458 37.5065
-2.84972 14.4711 45.7271
-2.87995 18.907801 44.198002
-4.1212502 14.251 45.3615
-4.1391101 18.6973 43.852901
-7.34688 9.5432901 44.793301
-7.7271299 5.6781802 44.934399
-6.3324099 9.2087002 45.476299
-6.81885 5.6103101 45.546501
-2.8615401 10.0496 46.784801
-2.88079 5.6859698 47.287399
-1.73025 14.4409 45.9916
-1.73718 9.9602604 47.058102
-1.74774 5.5478601 47.5462
-0.77595198 14.3509 46.158001
-0.77644998 9.8409996 47.220001
-0.77513599 5.4138498 47.6842
0.0060319998 14.2905 46.250301
-0.010486 18.862301 44.683498
-0.79450101 18.8976 44.593201
-5.25632 9.3252802 46.0261
-5.2227602 5.64112 46.438499
-4.0933299 9.9613705 46.396801
-4.10812 5.7533998 46.886902
-1.75556 18.942499 44.437801
0.014542 9.7670698 47.3022
0.027110999 5.3359599 47.743698
-2.88305 1.37378 47.173199
-1.74402 1.1984299 47.394299
-0.76202703 1.06076 47.497002
-5.2925501 1.68331 46.2994
-4.11692 1.55232 46.789501
-13.3857 11.5643 33.803001
-13.2484 14.5287 33.422699
-13.5285 10.9923 32.738899
-14.0958 2.3661499 32.658901
-13.9156 2.34007 34.2173
-13.7299 8.2221699 31.6625
-13.6865 7.8274102 30.438299
-13.8691 6.1854601 31.5151
-13.8041 5.86692 30.2547
-14.0039 4.2691898 31.3678
-13.9286 3.98752 30.067499
-13.5538 3.3679199 27.069401
-13.7762 3.6805601 28.622801
-13.4596 5.1559701 27.243999
-13.6686 5.5174499 28.8211
-13.3849 6.9423699 27.4354
-13.5746 7.3940301 29.0233
-9.8441095 2.85111 13.6273
-9.9591103 2.2483599 14.0672
-10.4387 4.6126499 14.9718
-10.5126 1.58661 15.5758
-10.9039 1.638 16.753
