# .PCD v.7 - Point Cloud Data file format
VERSION .7
FIELDS x y z
SIZE 4 4 4
TYPE F F F
COUNT 1 1 1
WIDTH 1599
HEIGHT 1
VIEWPOINT 0 0 0 1 0 0 0
POINTS 1599
DATA ascii
-10.2548 -63.4067 39.346001
-10.6143 -63.9249 39.117401
-10.6356 -63.735001 39.427399
-11.0716 -64.108902 39.646702
-11.532 -64.502602 39.963402
-11.0938 -64.306702 39.4198
-11.5741 -64.6996 39.801201
-11.1545 -64.574203 39.160099
-11.5918 -64.9011 39.567001
-8.2070599 -65.698196 39.867001
-8.1280804 -65.042999 39.5942
-8.3256502 -65.344498 39.4697
-8.1378298 -64.7547 39.337299
-7.4212399 -67.793198 41.533401
-7.2150798 -67.652496 41.831902
-7.6887002 -67.332298 41.200901
-7.4317899 -67.172997 41.556599
-7.9359298 -66.626801 40.735699
-7.6490898 -66.485703 41.142101
-7.7979798 -65.604698 40.586498
-7.9005899 -64.800003 40.0644
-8.0307302 -65.719398 40.217499
-8.0513096 -64.918098 39.754002
-6.7446699 -68.886803 42.060101
-6.6779399 -68.8125 42.317799
-6.9333901 -68.582298 41.959999
-6.8321199 -68.506104 42.23
-7.08533 -68.319199 41.8587
-6.95473 -68.238403 42.134201
-6.2728701 -69.532303 42.261902
-6.2880001 -69.489403 42.485699
-6.5118499 -69.218399 42.162899
-6.4870501 -69.160103 42.407101
-6.06883 -69.787598 42.352299
-6.1227002 -69.732803 42.5812
-12.1876 -65.380798 40.2197
-11.9631 -65.1968 39.9935
-12.292 -65.342598 40.369202
-12.0014 -65.059402 40.211601
-11.9999 -64.897903 40.362801
-6.8636398 -69.140297 44.115501
-6.7788701 -69.457603 44.007198
-6.6757202 -69.711502 43.8717
-7.3152099 -69.4888 44.755199
-7.22437 -69.788002 44.6385
-7.0623298 -70.002899 44.431499
-6.6201401 -69.961601 43.811199
-6.3154998 -69.812897 43.283199
-6.4137802 -69.527298 43.3713
-6.17802 -69.717598 42.8978
-6.2952399 -69.433502 42.984901
-12.318 -65.077797 41.1464
-12.1577 -64.964996 41.494701
-12.663 -65.392403 41.850601
-12.5211 -65.363701 42.2411
-11.994 -64.957298 41.763302
-11.7859 -64.983498 42.0285
-12.3647 -65.388 42.521801
-12.1713 -65.415001 42.771999
-11.879 -64.695 40.589298
-11.4006 -64.2957 40.096699
-11.7207 -64.549698 40.827801
-11.2624 -64.1502 40.2649
-11.0735 -64.032204 40.422901
-10.8613 -63.991901 40.6325
-11.5548 -64.497498 41.056801
-11.349 -64.503502 41.308102
-11.2096 -64.830399 38.812099
-11.5899 -65.070297 39.189301
-6.94451 -68.754097 44.190399
-7.3989201 -69.117798 44.846802
-7.0720201 -68.349503 44.231998
-7.54356 -68.713402 44.891899
-7.0365 -67.451797 42.124901
-6.9517202 -67.270699 42.395802
-7.2220201 -66.971298 41.897099
-7.1415801 -66.819099 42.206501
-7.4144602 -66.297203 41.546398
-7.3810601 -66.122002 41.951401
-7.4390998 -65.360397 41.448502
-7.5343599 -64.722099 41.016201
-7.5358901 -65.464104 41.014099
-7.6606202 -64.706497 40.508801
-6.8199902 -68.088097 42.474098
-6.7014198 -68.400803 42.5509
-6.5671401 -68.737396 42.6049
-6.7633801 -67.923302 42.9459
-6.6226201 -68.351601 42.980202
-6.5026302 -68.732498 42.9855
-8.1266203 -64.0392 39.539001
-8.1180601 -63.964699 40.051998
-8.2587004 -64.069504 40.772701
-8.3081398 -63.790501 39.3694
-8.3705902 -63.761101 39.871601
-8.5689602 -63.843498 40.483898
-8.5531197 -63.484699 39.214199
-8.6431599 -63.538502 39.698101
-8.86518 -63.6959 40.281399
-8.5297804 -63.534199 38.8894
-8.2838297 -63.886002 39.0397
-8.12498 -64.172699 39.217201
-8.0650301 -64.458504 39.4352
-7.9993401 -64.315903 39.737202
-7.86165 -64.2323 40.212898
-7.8212299 -64.3153 40.8092
-9.4313898 -62.961601 38.696602
-9.1359901 -62.866199 38.701199
-9.4413605 -62.831699 39.092999
-9.1592999 -62.818901 39.015598
-10.3339 -63.485001 39.991699
-10.5987 -64.026497 40.892899
-10.0896 -63.52 40.228401
-9.6450396 -63.0802 39.646301
-10.3078 -64.106903 41.145401
-9.8339195 -63.660301 40.4767
-9.4336004 -63.258202 39.8843
-6.2681499 -69.4515 42.705898
-6.4230399 -69.101997 42.6647
-6.3995299 -69.098801 42.995201
-10.6012 -63.615501 39.8573
-10.8874 -63.854301 39.8064
-11.9185 -65.305199 39.561501
-12.1646 -65.460197 39.8288
-8.0102701 -66.677803 43.181999
-8.1626196 -66.753197 43.559101
-8.4614 -66.886299 43.999199
-8.4939499 -66.1828 43.067501
-8.6688099 -66.316101 43.445
-8.95119 -66.528801 43.900101
-8.9778204 -65.6791 42.932899
-9.1782303 -65.873299 43.308998
-9.4181805 -66.143997 43.747002
-8.3703003 -64.526604 41.456299
-8.4802198 -65.172096 42.061699
-8.7630901 -64.238098 41.3297
-8.8813105 -64.713097 41.911301
-9.2175198 -64.4748 41.818001
-8.0990105 -65.222504 41.928101
-7.97262 -64.688904 41.4282
-7.8631701 -65.253998 41.8773
-7.6694899 -64.990601 41.541302
-7.1707201 -67.3508 43.2355
-7.2993698 -67.449898 43.669701
-7.6189299 -67.622803 44.209202
-7.5512099 -67.061203 43.242599
-7.69491 -67.1278 43.640701
-8.0279303 -67.264198 44.1301
-9.8503304 -65.015099 42.677101
-10.1191 -65.228401 43.023399
-10.4159 -65.506203 43.4473
-10.1648 -64.877899 42.5252
-10.4568 -65.042801 42.806099
-10.8045 -65.260803 43.1637
-10.3367 -64.799202 42.369202
-10.6 -64.858002 42.4692
-11.0625 -65.003799 42.656898
-11.4841 -64.9841 42.337601
-10.7291 -64.5448 41.850399
-11.0627 -64.518799 41.596401
-9.4413795 -65.2799 42.807701
-9.6763897 -65.503998 43.179199
-9.9389601 -65.810204 43.630199
-8.9964304 -64.054802 41.089699
-9.4762402 -64.343498 41.653702
-9.2720003 -63.959599 40.897099
-9.7404604 -64.279701 41.494701
-8.1921902 -67.922302 44.803902
-8.6338501 -67.509102 44.6889
-9.0395298 -67.049004 44.472401
-11.5837 -65.460503 43.414501
-11.2141 -65.648201 43.764301
-10.7675 -65.932602 44.045898
-10.2452 -66.277397 44.242599
-9.6372299 -66.596703 44.310001
-11.914 -65.415001 43.077499
-6.5904698 -68.873497 43.504799
-6.5047898 -69.219704 43.447701
-8.8548098 -63.1054 39.085899
-8.8305502 -63.127399 38.7696
-8.9453001 -63.2342 39.532299
-9.1616802 -63.485001 40.0812
-9.23874 -62.957901 39.4039
-12.3172 -65.474197 39.944599
-1.22422 -74.363403 22.6682
-1.20851 -74.428902 22.790701
-0.74693102 -74.796303 22.705099
-0.74467403 -74.855904 22.8197
-0.349686 -75.142601 22.792801
-0.36046901 -75.198196 22.9032
-0.131721 -75.388199 23.004
-0.121746 -75.339996 22.891399
-1.2516299 -74.446404 22.881599
-1.29454 -74.462303 22.9625
-0.79435098 -74.844704 22.901199
-0.85800201 -74.8172 22.976101
-0.407318 -75.167198 22.970501
-0.47198501 -75.1129 23.0324
-1.67636 -73.913902 22.704399
-2.0890999 -73.4739 22.7826
-1.65715 -73.995399 22.8316
-2.0562699 -73.585701 22.9079
-2.09937 -73.639099 23.0035
-2.1691599 -73.666199 23.136
-1.69432 -74.045998 22.924801
-1.71787 -74.1101 23.012699
-2.81406 -72.656197 22.987499
-2.6731601 -72.882301 23.107901
-2.4684 -73.0578 22.871901
-2.3882501 -73.233597 22.991301
-0.159905 -75.342697 23.0585
-0.199753 -75.272202 23.1026
-0.32497099 -74.491302 22.417101
-0.24943399 -74.328003 22.4867
-0.60000098 -74.3619 22.454
-0.47212899 -74.243797 22.5156
-0.66455197 -74.155296 22.5679
-0.82722902 -74.027 22.6614
-0.85270298 -74.203102 22.538099
-1.06865 -74.015503 22.639
-0.99545002 -73.859398 22.7913
-1.28582 -73.761902 22.770599
-1.17495 -73.6521 22.927299
-1.51004 -73.487503 22.9191
-1.36988 -73.435402 23.0341
-1.70241 -73.238098 23.065399
-1.54871 -73.236603 23.128799
-1.6835001 -73.070099 23.234699
-1.79645 -72.901199 23.346701
-1.7983201 -73.070099 23.181299
-1.87148 -72.914703 23.282301
-1.93445 -72.985603 23.177
-1.93018 -72.893303 23.246799
-2.1236999 -72.749397 23.279699
-2.0424299 -72.6987 23.334999
-2.34781 -72.4562 23.431299
-2.2199299 -72.416496 23.4841
-2.59431 -72.168503 23.5973
-2.43327 -72.128502 23.6679
-2.83708 -71.881203 23.7708
-2.6558499 -71.841797 23.871401
-3.6335001 -70.621803 24.4452
-3.5097201 -70.655502 24.5473
-3.76367 -70.508698 24.513599
-3.5001299 -70.556702 24.660601
-3.8682301 -70.427803 24.551399
-3.33374 -70.120003 24.879299
-3.0548501 -71.574402 23.951
-2.8700399 -71.544502 24.082399
-3.2592001 -71.238899 24.1346
-3.09145 -71.222198 24.2852
-3.97873 -70.456802 24.5495
-3.4602499 -70.294998 25.002399
-4.02282 -70.5756 24.434299
-3.5576999 -70.530098 24.965599
-3.46069 -70.888397 24.311501
-3.3262 -70.886597 24.456699
-3.9797699 -70.833298 24.1387
-3.6865399 -70.9627 24.481701
-3.83219 -71.1604 23.818501
-3.60411 -71.331802 24.099701
-2.36654 -69.013702 25.635401
-1.8403 -68.7752 25.919201
-1.53055 -68.436897 26.0235
-2.3462501 -69.282303 25.917801
-1.7771 -68.894897 26.135401
-1.4025 -68.434402 26.153999
-2.37503 -69.249802 26.263599
-1.68119 -68.703102 26.406
-1.28944 -68.269997 26.3465
-2.96562 -69.809303 26.2512
-3.3789799 -70.486198 26.043699
-3.0338299 -69.972397 25.6367
-3.3947599 -70.325104 25.621799
-3.7288001 -70.765198 25.475599
-3.6424501 -70.772697 25.069599
-3.8076401 -70.976997 25.073601
-2.8901701 -71.223 24.6311
-2.7416899 -71.152397 24.725401
-2.55529 -70.967003 24.719801
-3.1365399 -70.805801 24.7654
-2.9602201 -70.676003 24.8274
-2.75703 -70.364601 24.7988
-3.07739 -69.872299 24.8472
-2.89521 -69.751503 24.8069
-3.6168799 -71.5205 23.563499
-3.41467 -71.7202 23.8085
-3.36274 -71.901901 23.3557
-3.14588 -72.1828 23.5676
-3.1019001 -72.274498 23.156
-2.9128201 -72.542297 23.2959
-3.5478899 -71.510902 24.319799
-3.5945301 -71.614197 24.571501
-3.36128 -71.876801 24.0397
-3.37656 -71.978302 24.292299
-3.15962 -72.241997 23.820101
-3.1658101 -72.3246 24.037701
-2.9832799 -72.610397 23.8193
-2.78128 -72.920502 23.614799
-2.934 -72.597099 23.5746
-3.77055 -71.270103 24.837
-3.6705599 -71.155998 24.6544
-2.71842 -72.897903 23.3438
-2.51474 -73.276604 23.376101
-2.4739001 -73.216103 23.143999
-2.4670899 -71.828903 24.150299
-2.34764 -71.774101 24.2516
-2.1937101 -71.675797 24.274401
-2.6700499 -71.5382 24.4191
-2.5402999 -71.482903 24.522301
-2.37446 -71.371803 24.5338
-3.24611 -70.878197 24.615
-2.98738 -71.2285 24.466801
-0.201346 -74.153397 22.6099
-0.185398 -73.963898 22.7321
-0.39882299 -74.071098 22.644899
-0.37471399 -73.882896 22.7726
-0.58662498 -73.967102 22.702499
-0.55955499 -73.787903 22.8309
-0.75661701 -73.849899 22.789101
-0.70108199 -73.727303 22.876699
-1.07513 -73.555099 23.033001
-0.95208001 -73.484802 23.0581
-1.24869 -73.377602 23.1168
-1.12467 -73.305702 23.1409
-1.4160399 -73.198097 23.191
-1.29268 -73.116203 23.2227
-0.91243303 -73.712997 22.9123
-0.80125999 -73.622299 22.9638
-1.6839401 -72.855904 23.403999
-1.5529799 -72.7771 23.4289
-1.91924 -72.691399 23.4632
-1.80129 -72.651001 23.5312
-1.65731 -72.579102 23.5613
-2.0711999 -72.433403 23.6257
-1.94487 -72.3974 23.7071
-1.7907701 -72.3246 23.743099
-2.5503299 -71.835701 24.0093
-2.26103 -72.135101 23.867701
-2.3406601 -72.130699 23.762199
-2.1460299 -72.422897 23.548401
-1.55999 -73.030098 23.288799
-1.43554 -72.946198 23.317801
-1.98676 -72.695396 23.393801
-2.13814 -72.089897 23.9608
-1.98428 -72.004501 23.993601
-2.7599699 -71.543404 24.2544
-1.95711 -73.9823 23.2377
-1.60782 -74.242996 23.304199
-1.62237 -74.274002 23.1042
-1.41798 -74.477501 23.164801
-1.28016 -74.527397 23.053101
-1.2338901 -74.605103 23.117399
-0.90270197 -74.828697 23.0681
-0.964634 -74.824402 23.134501
-0.53892303 -75.099403 23.118799
-0.623375 -75.060699 23.164499
-0.24561401 -75.246002 23.1765
-0.300457 -75.196503 23.202801
-1.64385 -67.905296 27.4918
-1.61623 -66.9758 27.8587
-1.7149 -66.171898 27.9237
-0.93564999 -67.813004 27.9149
-0.99855298 -67.006599 28.2148
-1.09053 -66.188904 28.295099
-0.93555599 -68.6698 27.845699
-0.95636803 -69.4795 27.8452
-1.7753299 -68.862999 27.469999
-1.90236 -69.758499 27.338499
-2.6893401 -70.000099 26.7274
-2.4335999 -69.2808 26.9053
-2.02039 -68.605904 26.8946
-1.17489 -67.415703 26.0856
-1.1224 -67.830704 26.114
-1.06754 -68.643402 26.122999
-0.97747701 -67.4664 26.386101
-0.90590203 -67.773201 26.368799
-0.85963899 -68.412903 26.301001
-0.79136401 -67.352699 26.567801
-0.69050002 -67.5242 26.4953
-0.58199298 -67.975403 26.4053
-0.89447898 -70.520103 27.657
-1.59646 -70.608902 27.3032
-0.91984802 -70.0933 27.774
-1.6753 -70.2491 27.3402
-0.74879098 -72.054901 26.4699
-1.37655 -72.093002 26.237499
-0.79123801 -71.691002 26.801701
-1.45895 -71.706398 26.5217
-0.83070201 -71.32 27.1446
-1.51212 -71.316101 26.8473
-0.36441699 -73.530197 24.968599
-0.67916399 -73.413902 24.965401
-0.440806 -73.145798 25.385201
-0.87999898 -73.093399 25.277901
-0.57132697 -72.774002 25.7691
-1.1029 -72.735298 25.645599
-1.97665 -70.690598 26.8295
-2.19291 -70.985397 26.2111
-2.2102301 -70.4123 26.7244
-1.7778701 -72.162102 25.938101
-1.93085 -72.378403 25.4886
-1.90398 -71.685699 26.153
-2.14604 -71.667603 25.779301
-1.93767 -71.215202 26.473301
-0.90150797 -73.535797 24.750401
-1.11413 -73.671501 24.3799
-1.29547 -73.091003 25.135
-1.61356 -73.045601 24.939199
-1.55774 -72.649597 25.5595
-0.454647 -73.798203 24.6143
-0.54122102 -74.009102 24.2309
-0.36040601 -75.051697 23.118601
-0.727211 -74.926804 23.117599
-0.38552701 -74.854401 23.038
-0.76800102 -74.739098 23.074499
-0.694857 -74.549103 23.150499
-0.66736501 -74.339203 23.3869
-0.35413 -74.661598 23.096701
-0.35357901 -74.4655 23.3382
-1.09337 -74.721497 23.145599
-1.15394 -74.556297 23.169701
-1.3269399 -74.151398 23.422001
-1.1119601 -74.039703 23.518
-1.01188 -74.390503 23.260599
-0.91105199 -74.179199 23.4534
-2.91449 -69.402802 25.3025
-2.9263401 -69.804398 25.5007
-3.50247 -71.494499 25.278099
-3.62641 -71.586998 24.937901
-3.59495 -71.0606 25.6063
-3.79071 -71.187599 25.2218
-2.6549399 -70.559303 26.3155
-2.4577501 -71.084198 25.8445
-3.1200099 -70.846603 25.934
-2.7485499 -71.240799 25.6238
-3.1714399 -71.360703 25.4907
-2.6196899 -67.935402 25.0748
-2.14955 -68.226799 25.260201
-1.61367 -68.804802 25.4764
-2.57022 -68.5746 25.316
-2.0242801 -68.624901 25.554701
-1.41206 -67.554901 25.7675
-1.4764301 -67.9217 25.877899
-1.50035 -68.176399 25.6847
-1.71187 -68.389297 25.752199
-3.2132001 -71.955597 24.907101
-2.9066999 -72.437599 24.5191
-3.3671701 -72.001602 24.6127
-3.1001201 -72.414398 24.285999
-2.6162701 -73.194901 23.7279
-2.34905 -73.353401 23.853701
-2.3081501 -73.603203 23.464899
-2.0158701 -73.800301 23.5669
-2.8645 -72.803101 23.9958
-2.6300001 -72.902496 24.167601
-0.62617302 -73.629402 22.9188
-0.41514099 -73.677803 22.8465
-0.76804602 -73.441704 22.9984
-0.525289 -73.375702 22.9256
-0.80079502 -73.059303 23.0599
-1.04184 -72.7351 23.2208
-0.974338 -73.205704 23.101999
-1.17391 -72.969704 23.2157
-2.8545001 -71.860802 25.092199
-2.4835401 -71.762703 25.241501
-2.55671 -72.380402 24.677099
-2.23259 -72.319702 24.8451
-2.2602401 -72.870903 24.2952
-1.92816 -72.837799 24.4452
-1.95534 -73.336502 23.9561
-1.5961601 -73.313599 24.0655
-1.63894 -73.781303 23.6618
-1.29405 -73.741997 23.738199
-1.0564801 -71.986801 23.5555
-1.29597 -72.052597 23.5842
-1.48294 -72.143997 23.624599
-1.05855 -72.368599 23.365499
-1.25775 -72.376404 23.4168
-1.39403 -72.412804 23.468
-1.25429 -72.6213 23.3258
-1.35281 -72.572304 23.3888
-0.74540001 -72.709503 23.156799
-0.47510901 -72.710999 23.1432
-0.773489 -72.360603 23.3151
-0.47385001 -72.389397 23.2931
-0.75733 -71.970398 23.5131
-0.45630899 -72.009102 23.490499
-1.04919 -71.015099 24.1234
-1.42731 -71.178596 24.112499
-1.7650599 -71.3797 24.1266
-1.04881 -71.510201 23.818899
-1.35498 -71.624603 23.8297
-1.61659 -71.770302 23.858601
-0.72687101 -71.475197 23.788
-0.43198001 -71.513603 23.769899
-0.69414002 -70.956497 24.109699
-0.397598 -70.989502 24.094
-0.35288599 -70.568802 24.397699
-0.32228801 -70.425201 24.5818
-0.66686499 -70.5392 24.421101
-0.65354598 -70.376099 24.625999
-1.0687 -70.593399 24.424999
-1.10751 -70.246696 24.688999
-2.04533 -70.350998 24.5397
-1.90237 -71.001801 24.373199
-1.6101201 -70.203499 24.587601
-1.50982 -70.768402 24.3813
-0.49852699 -73.033997 23.016701
-0.229368 -73.4618 22.876699
-0.231868 -73.126503 23.003201
-0.2262 -72.784897 23.1595
-0.21943299 -72.464302 23.316601
-0.20909099 -72.089401 23.5158
-0.196624 -71.595001 23.795601
-0.176038 -71.070198 24.1047
-0.144959 -70.649399 24.368299
-0.122971 -70.498299 24.508499
-0.200046 -73.742104 22.803301
-1.17792 -67.699799 26.1924
-1.31039 -67.370903 25.8848
-1.30977 -67.749496 26.003401
-2.38557 -68.209801 24.6647
-1.8947001 -68.507401 24.818501
-1.45636 -69.245697 25.005899
-2.5350599 -67.807701 24.837799
-2.0253601 -68.155403 25.0145
-1.55418 -69.007202 25.1954
-2.2123699 -69.241699 24.6003
-1.75547 -69.317802 24.7041
-1.33752 -69.681297 24.8594
-1.13428 -70.183601 24.8356
-1.17781 -70.184196 24.924101
-1.23831 -69.785698 25.024599
-0.67770702 -66.989601 26.4433
-0.56381798 -66.401703 26.119699
-0.97256798 -67.238098 26.643499
-0.87028497 -66.747902 26.555599
-0.786852 -66.124901 26.3123
-1.24493 -67.269997 26.8267
-1.17997 -66.664803 26.863501
-1.11362 -66.011398 26.7269
-0.290629 -67.950104 26.3354
-0.282343 -67.080902 26.2346
-0.29375699 -66.341797 25.99
-0.51008397 -67.145302 26.3375
-2.2925899 -71.691704 25.4617
-2.0856099 -72.328499 25.1175
-1.77385 -72.923599 24.679701
-1.39178 -73.450401 24.214199
-0.45320901 -74.247803 23.755699
-0.83722401 -74.068298 23.800699
-1.0713201 -73.868698 23.7815
-2.0115099 -71.546898 24.205999
-2.1782701 -71.2099 24.4524
-2.3436799 -70.653999 24.618299
-1.64051 -72.237701 23.6971
-1.81828 -71.898598 23.936399
-1.4327199 -72.670601 23.410999
-1.5202 -72.491402 23.527399
-1.32754 -72.807404 23.3151
-1.7750601 -65.331398 27.5187
-1.66286 -64.738899 27.048201
-1.13617 -65.2966 27.805099
-1.05582 -64.602303 27.0973
-1.08034 -65.303497 26.474899
-0.93442202 -64.726601 26.252501
-1.5812 -66.071297 27.3325
-1.59029 -65.290298 27.01
-1.3969899 -64.656998 26.6574
-0.54710299 -65.625397 25.8755
-0.52320898 -65.157303 25.7952
-0.75038201 -65.445297 26.085501
-0.651048 -64.926697 25.946501
-0.296038 -65.657898 25.804199
-0.309917 -65.101898 25.766001
-0.82224703 -64.367104 26.5588
-0.54217798 -64.451202 26.1791
-0.377525 -64.707703 25.9048
-0.116 -77.265198 24.232401
-0.073335998 -77.377899 24.3377
-0.163874 -77.386299 24.3608
-0.085442998 -77.518997 24.504999
-0.100447 -77.6511 24.672899
-0.18757001 -77.514099 24.510099
-0.212513 -77.635696 24.6702
-0.25993499 -77.351898 24.377701
-0.31112701 -77.471603 24.5434
-0.33404601 -77.570801 24.7064
-0.45359001 -77.4132 24.6308
-0.43069801 -77.4589 24.825701
-1.15189 -77.7015 25.434799
-1.16216 -77.816299 25.5103
-1.18523 -77.8853 25.628201
-1.27079 -77.6548 25.4716
-1.28607 -77.738197 25.544901
-1.31674 -77.7873 25.6528
-1.36013 -77.626999 25.5229
-1.39941 -77.651703 25.598499
-1.4400001 -77.678902 25.702101
-1.15494 -77.533401 25.423599
-1.29136 -77.513199 25.4571
-1.41614 -77.514198 25.542
-1.0023201 -77.431702 25.484699
-0.83551103 -77.536102 25.4496
-1.01129 -77.630997 25.414301
-0.845218 -77.727699 25.371599
-1.02082 -77.793503 25.419901
-0.859308 -77.880798 25.376801
-1.0320899 -77.913101 25.491301
-0.87085497 -77.998299 25.4487
-1.04703 -77.988403 25.6042
-0.87881899 -78.0774 25.557699
-0.463117 -77.528801 25.1523
-0.39010799 -77.527901 24.941299
-0.47041699 -77.7258 25.066
-0.37166899 -77.660202 24.873199
-0.398642 -77.883904 25.0723
-0.27383101 -77.753098 24.8501
-0.13702901 -77.784302 24.8412
-0.18388499 -77.922699 25.017
-0.203263 -78.065399 25.191099
-0.207186 -78.178902 25.354
-0.422636 -78.049698 25.244699
-0.428177 -78.159599 25.397499
-0.66280597 -78.130798 25.4772
-0.65822899 -78.038597 25.3529
-0.64796698 -77.908997 25.256599
-0.65165597 -77.757301 25.245899
-0.65209699 -77.570702 25.330299
-0.28824201 -77.2556 25.1849
-0.37272799 -77.374702 25.027
-0.33066401 -77.373398 25.131399
-1.50095 -77.518204 25.6672
-1.55246 -77.542702 25.7929
-1.56195 -77.621803 25.8859
-1.4634 -77.729301 25.797199
-1.52306 -77.721703 25.950899
-1.46658 -77.773903 25.8685
-1.38314 -77.836601 25.884399
-1.25258 -77.919296 25.891899
-1.42817 -77.808098 25.995501
-1.28824 -77.896202 26.008101
-0.41823 -78.252701 25.776699
-0.41539299 -78.241402 25.649599
-0.19994301 -78.292198 25.739901
-0.19835 -78.276703 25.618099
-0.20296 -78.2444 25.4944
-0.422084 -78.216599 25.5285
-0.65553999 -78.195297 25.7129
-0.89017999 -78.125999 25.7903
-0.659374 -78.178398 25.598101
-0.88418901 -78.116997 25.6761
-0.659769 -78.195 25.8323
-0.89995003 -78.113197 25.9004
-0.53187603 -77.332397 25.001301
-0.440761 -77.204399 25.248899
-1.21689 -77.916901 25.762501
-1.3494999 -77.822403 25.771
-1.08925 -78.0252 25.8573
-1.1114399 -78.005203 25.968901
-1.0668499 -78.022598 25.7332
-1.04277 -76.978104 25.6301
-1.00691 -76.893997 25.748699
-1.1005501 -77.0252 25.625401
-1.0389301 -76.925797 25.7507
-1.08692 -77.119698 25.612301
-1.04874 -76.998901 25.7246
-0.83334601 -77.311203 25.604799
-0.82093501 -77.094902 25.7507
-0.66280401 -77.351097 25.511999
-0.657031 -77.139503 25.6717
-0.492383 -77.324699 25.3976
-0.52511901 -77.167099 25.5679
-0.31661299 -77.100304 25.381399
-0.390111 -76.989403 25.5347
-0.46885201 -77.032402 25.478701
-0.53186101 -76.930496 25.6418
-0.70338899 -76.998703 25.573799
-0.73690498 -76.896103 25.740499
-0.35281301 -77.212898 25.356501
-0.443046 -77.061897 25.5588
-0.98442101 -77.221199 25.624901
-0.96376801 -77.035797 25.7586
-0.903072 -76.973099 25.6269
-0.906555 -76.880302 25.7719
-0.78320402 -76.938797 25.799601
-0.935583 -76.9104 25.8109
-0.60125202 -76.982697 25.7082
-0.12915701 -70.728897 24.470699
-0.158675 -71.209099 24.296801
-0.32866901 -70.676598 24.566999
-0.36382201 -71.183601 24.3909
-0.63367599 -71.176201 24.435499
-0.89193398 -71.186798 24.451401
-0.63143402 -70.656097 24.613199
-0.938829 -70.648399 24.6381
-0.30805799 -70.013901 25.721201
-0.60957199 -70.055199 25.7328
-0.29813701 -70.802902 25.309099
-0.58716601 -70.8256 25.326401
-0.27656901 -71.438904 24.8944
-0.54649401 -71.4561 24.9151
-0.51100099 -72.056198 24.482
-0.486671 -72.6642 24.0413
-0.25350499 -72.039703 24.4603
-0.236201 -72.651299 24.0179
-0.47496599 -73.747002 23.311001
-0.48596001 -73.983704 23.153799
-0.50318801 -74.057098 23.093599
-0.23142099 -73.766098 23.278601
-0.238524 -74.023499 23.1241
-0.248321 -74.114197 23.0683
-0.88619 -70.123802 25.699499
-1.09131 -70.179703 25.6402
-0.84870201 -70.834503 25.3146
-1.04633 -70.827103 25.2798
-0.79425502 -71.452202 24.9105
-0.98794901 -71.431602 24.884399
-0.96969301 -72.029999 24.459101
-0.966236 -72.6334 24.027901
-0.76356697 -72.051201 24.480101
-0.74812901 -72.655502 24.0436
-0.30060601 -69.001801 26.1171
-0.59760398 -69.066399 26.1306
-0.89513499 -73.600304 23.381399
-0.93827701 -73.663902 23.323299
-0.96997601 -73.677696 23.288401
-0.72139603 -73.696701 23.337
-0.73570102 -73.892303 23.1978
-0.75764799 -73.942001 23.144199
-0.2295 -73.269997 23.596901
-0.47473899 -73.270599 23.6257
-0.873878 -69.275902 26.058001
-1.07708 -69.453598 25.9492
-1.16475 -68.7043 25.998301
-1.2193201 -68.748497 25.886
-1.17024 -69.508797 25.861401
-1.21577 -69.513298 25.754999
-1.1904401 -70.187698 25.5769
-1.22789 -70.168602 25.4881
-1.19796 -70.775703 25.1619
-1.16193 -71.369904 24.7929
-1.15283 -70.806702 25.2314
-1.1029 -71.403503 24.8458
-1.2585599 -70.148399 25.1954
-1.21797 -70.7052 24.952
-1.20531 -71.295799 24.6497
-1.25328 -70.151901 25.353001
-1.21794 -70.738602 25.0637
-1.194 -71.332199 24.7244
-1.28157 -69.5364 25.582399
-1.34272 -68.756203 25.7001
-1.34589 -69.589798 25.3797
-1.31137 -69.676598 25.185301
-1.22865 -70.160896 25.0476
-0.97948003 -73.580597 23.193899
-1.10057 -73.085899 23.4764
-1.1548899 -72.466202 23.8402
-0.86536002 -73.510696 23.2005
-0.95113897 -73.032799 23.470301
-1.00234 -72.420303 23.825199
-0.75728297 -73.405899 23.240801
-0.77761799 -72.993599 23.4711
-0.81162202 -72.390999 23.815599
-0.41116199 -71.774399 24.1143
-0.45165101 -72.407204 23.778099
-0.63632298 -71.769501 24.149599
-0.63453102 -72.395401 23.8046
-0.85359299 -71.7752 24.1623
-1.15123 -71.236298 24.5219
-1.15424 -70.670601 24.755501
-1.06056 -71.2089 24.478201
-1.08491 -70.6548 24.688999
-0.65086001 -73.506104 23.189501
-0.48872799 -73.564903 23.1541
-0.71732301 -73.749702 23.0758
-0.51509398 -73.847603 23.0268
-0.78407598 -73.851196 23.0516
-0.53894401 -73.969101 22.998501
-1.01984 -73.653 23.2283
-1.15914 -73.157097 23.519501
-1.2199399 -72.5382 23.897699
-1.02517 -73.625099 23.2054
-1.16124 -73.127502 23.493299
-1.21878 -72.505898 23.865
-1.03619 -71.802101 24.179199
-1.16124 -71.839699 24.205999
-1.16005 -71.974098 24.3883
-1.15601 -72.591103 23.9723
-1.0939699 -72.003502 24.4282
-1.09263 -72.612396 24.0035
-0.73232901 -73.247803 23.636801
-0.94147903 -73.212502 23.634501
-1.22007 -71.908897 24.289
-1.19994 -71.9422 24.339701
-1.1961499 -72.566597 23.9354
-1.19626 -70.684097 24.8458
-1.1943001 -71.264603 24.5805
-1.2154599 -71.875397 24.2432
-0.800515 -73.932297 23.0797
-0.53708798 -74.061699 23.0242
-0.99789602 -73.671097 23.2572
-0.780958 -73.946404 23.1089
-0.521586 -74.072998 23.054899
-1.04953 -73.205704 23.6101
-1.10066 -73.196297 23.5819
-0.80836999 -73.902802 23.058599
-0.54522502 -74.0299 23.0037
-1.13535 -73.179901 23.5506
-0.26181501 -73.587303 23.114901
-0.26832601 -73.891098 22.992201
-0.27268901 -74.028702 22.969999
-0.63242102 -73.018898 23.4547
-0.472545 -73.047897 23.427999
-0.19958401 -71.777298 24.043699
-0.235543 -72.400803 23.731501
-0.25397801 -73.050499 23.388901
-0.25858101 -74.139198 23.0306
-0.267187 -74.1306 22.999001
-0.27225101 -74.097603 22.9779
-6.8656998 -73.060898 29.268299
-7.1163802 -72.847298 29.148199
-7.33249 -72.628998 29.009899
-6.4456301 -73.219597 28.819201
-6.6868401 -72.998398 28.6695
-6.8977199 -72.781197 28.5254
-6.02705 -73.407898 28.4401
-6.2666101 -73.180496 28.290199
-6.4802899 -72.961098 28.1443
-7.67907 -72.204597 28.7721
-7.84691 -71.980301 28.6854
-7.2590199 -72.357903 28.289301
-7.4426098 -72.132896 28.197599
-6.8582201 -72.531403 27.895201
-7.0527401 -72.294197 27.786301
-8.7295504 -71.396896 29.6686
-8.3739595 -71.651901 29.225401
-5.7538199 -73.6455 28.587999
-6.1829801 -73.436798 28.973801
-6.6287398 -73.247101 29.4114
-4.8499198 -74.170998 27.3908
-5.12572 -73.941498 27.636299
-7.6894002 -72.542198 29.549299
-7.4477301 -72.769203 29.675301
-7.1394 -72.997902 29.740999
-7.9565001 -72.494102 30.095301
-7.69067 -72.731598 30.2115
-8.9271002 -71.718903 31.444099
-8.7631998 -71.926399 31.4657
-8.5257702 -72.301102 32.979801
-8.6032696 -72.201302 32.722698
-6.67417 -72.746803 28.013901
-7.0840402 -72.569901 28.3993
-7.5160098 -72.415901 28.8832
-6.95505 -71.933403 27.104401
-6.85075 -72.214996 27.295799
-6.5332799 -72.689499 27.5994
-6.6964102 -72.465897 27.449499
-2.5109501 -76.235001 27.405399
-2.4848199 -76.402298 26.995701
-2.43274 -75.653801 29.0513
-2.4223299 -75.451599 29.470699
-2.4304399 -75.247299 29.824301
-2.45186 -75.090302 30.010099
-2.51 -76.085098 27.807899
-2.4897499 -75.948196 28.2101
-2.4593599 -75.813499 28.625401
-8.4744501 -72.335899 32.330898
-8.4636202 -72.317398 31.940201
-8.2695198 -72.541397 32.292099
-8.2397099 -72.531403 31.941799
-8.1461601 -72.448402 30.6087
-7.8934202 -72.68 30.7092
-8.2852097 -72.397202 31.083599
-8.0440702 -72.624001 31.1548
-8.1616898 -72.566299 31.563101
-8.39538 -72.345299 31.524401
-5.9091902 -73.288002 27.7241
-6.16465 -73.1269 27.8948
-6.1044402 -73.056297 27.541401
-6.3578 -72.907303 27.746599
-5.4386101 -73.813599 28.264799
-5.7158999 -73.574898 28.176001
-5.2936401 -73.8741 28.001499
-5.5462999 -73.674103 28.0203
-3.9744999 -74.875603 28.139999
-4.1419301 -74.672096 28.4779
-8.0524397 -72.103401 29.315201
-7.8873801 -72.320396 29.424801
-8.1717701 -72.263802 29.981701
-2.6830201 -76.591003 26.0301
-5.6705499 -72.264801 24.982401
-5.94872 -72.2836 25.6492
-5.7625599 -72.519798 25.4097
-6.1046801 -72.043297 25.795
-2.8027699 -70.501099 22.0299
-3.0197599 -70.904198 22.324499
-3.1147799 -69.951599 22.2421
-3.33915 -70.428703 22.5324
-7.4316301 -68.215599 41.426201
-7.0662899 -67.979797 42.012199
-7.23173 -68.089104 41.732498
-7.8129902 -68.317101 44.873402
-7.29491 -67.976402 44.240601
-7.0129399 -67.756897 43.645599
-6.9142699 -67.6054 43.1474
-6.8209701 -68.093597 43.584202
-6.8401699 -67.597603 42.614899
-6.9141202 -67.7967 42.312901
-6.6880102 -68.485603 43.549301
-10.8404 -68.493599 31.511999
-8.1473503 -70.879601 38.151001
-7.54567 -71.0858 38.718498
-6.95116 -71.2257 39.174099
-8.0348501 -70.646103 38.6721
-7.4074101 -70.846199 39.222099
-6.78719 -70.982697 39.659302
-8.6624098 -70.349297 38.001701
-8.7332401 -70.584 37.466
-6.3705101 -71.369202 39.502499
-6.1785498 -71.092903 40.012199
-6.0090499 -70.858002 40.461899
-9.64851 -70.184799 35.563202
-9.2424097 -70.499603 36.235699
-8.2067804 -71.1371 37.613998
-8.7611399 -70.831902 36.937099
-8.2294502 -71.4095 37.0648
-8.74862 -71.0905 36.4254
-5.90381 -70.665199 40.8241
-8.23382 -71.687798 36.512699
-7.5868201 -71.695702 37.680401
-7.6588001 -72.014702 37.041599
-8.6989498 -71.358803 35.944698
-8.6208496 -71.641197 35.497101
-8.8144703 -71.6483 34.654598
-8.5225801 -71.942101 35.081501
-9.1925602 -71.250099 33.836601
-9.0355501 -71.412804 34.237598
-9.3474398 -71.132698 33.031101
-9.2930899 -71.165199 33.445599
-9.3689404 -71.1185 32.562698
-5.9498 -73.350899 28.0436
-5.6974802 -73.515602 27.8911
-5.6535201 -73.463097 27.565599
-5.8653598 -73.210098 27.3337
-5.4233699 -73.714302 27.7812
-8.6455097 -72.114601 31.940201
-8.6461 -72.138802 32.364201
-8.4958296 -72.172897 31.0208
-8.3651104 -72.217499 30.517
-8.5917597 -72.132202 31.4923
-9.1593103 -71.053596 30.242599
-8.19979 -71.886597 29.231001
-8.9790897 -71.323799 30.242701
-3.04164 -75.733597 32.9617
-1.97077 -75.718201 31.697399
-1.7070301 -75.8256 31.709
-1.42182 -75.923698 31.726101
-2.7878499 -75.650299 32.560799
-2.4967699 -75.593201 32.132599
-2.2288899 -75.5877 31.693899
-0.87961698 -76.318001 30.3605
-0.86629403 -76.473396 29.927999
-0.85642701 -76.637001 29.511101
-1.23436 -76.003098 32.208698
-1.09788 -76.022903 31.7446
-0.98205101 -76.085197 31.270901
-0.91236597 -76.185799 30.807899
-0.837623 -76.796997 29.1064
-1.47282 -76.056198 33.068802
-1.57243 -76.067902 33.4911
-1.71071 -76.040703 33.905701
-1.36237 -76.023903 32.646
-1.6986099 -75.9198 34.498798
-2.08145 -75.666901 35.166302
-2.4602499 -75.599998 35.261398
-2.84987 -75.499397 35.4086
-1.63809 -75.681 35.203098
-3.7951601 -75.233803 35.652599
-4.2803402 -75.088997 35.680401
-3.3059199 -75.373299 35.551201
-4.4860902 -73.512703 38.027901
-5.1104398 -73.272903 37.9562
-3.38398 -73.928703 38.0075
-3.9186299 -73.729103 38.042
-2.3175499 -74.319 37.787998
-2.8506701 -74.118896 37.932201
-1.7844501 -74.539703 37.560699
-9.5642204 -64.765297 42.2817
-9.8631401 -64.639 42.143299
-10.1213 -64.588303 42.0172
-8.7662697 -65.471497 42.530499
-9.1912804 -65.034698 42.399899
-7.60987 -73.269302 33.067902
-0.61143899 -77.358398 24.7687
-0.173399 -77.034302 23.773899
-7.7425299 -66.513802 42.568501
-7.8905101 -66.608101 42.848099
-8.1379099 -65.918503 42.387001
-8.33255 -66.056702 42.703602
-7.54493 -66.3666 42.324799
-7.3781199 -66.927498 42.694
-7.2298198 -66.847298 42.471401
-7.1361299 -67.158798 42.765701
-7.0093002 -67.190903 42.620899
-6.9177799 -67.423798 42.826599
-7.12953 -67.258797 42.9417
-7.6447802 -65.577904 41.937901
-7.8909202 -65.806503 42.189602
-7.4693599 -67.0037 42.936501
-10.0185 -64.200104 41.337502
-9.5572701 -63.823601 40.698101
-10.4028 -64.560204 41.948002
-3.2420199 -60.602299 22.169701
-2.4454801 -61.127701 21.921801
-3.5272901 -61.3806 22.3479
-2.8358901 -61.970299 22.1208
-6.8217702 -55.9697 24.3517
-6.1861501 -56.151699 23.810301
-4.86338 -56.873501 22.894699
-4.0978498 -57.420601 22.4823
-5.5455298 -56.4557 23.330999
-10.142 -56.714802 28.9753
-9.7406902 -56.7197 28.1385
-9.3074102 -56.844299 27.334
-8.8207197 -57.015202 26.5471
-8.27491 -57.0536 25.802999
-7.7040501 -57.1245 25.1227
-4.46452 -59.861401 22.6406
-3.8772099 -60.161301 22.3908
-4.7827101 -60.581902 22.8321
-4.1792998 -60.9291 22.5812
-5.90557 -60.057499 23.4557
-5.6241999 -59.214901 23.271799
-5.3470201 -60.288399 23.1161
-5.0292201 -59.512699 22.922501
-6.4790502 -59.889 23.865499
-6.2218099 -58.952499 23.682899
-3.9687901 -59.154301 22.4077
-3.1510201 -59.654099 22.0937
-0.65213901 -60.715698 21.544701
-1.40179 -60.512699 21.620501
-2.26652 -60.035099 21.8197
-7.1153402 -57.283798 24.508499
-6.5136299 -57.5112 23.963301
-4.5883298 -58.594398 22.701799
-5.2576399 -58.148602 23.0665
-5.8994799 -57.7962 23.485901
-4.93677 -64.2584 23.174101
-5.4591298 -64.076698 23.450899
-1.02896 -67.182098 21.5529
-1.63053 -66.507698 21.7264
-1.56354 -67.278999 21.654301
-0.50954598 -67.128601 21.504601
-5.7024002 -67.686798 23.950199
-3.4228899 -66.3498 22.4582
-3.9634299 -66.589996 22.7332
-2.8666101 -66.100998 22.203899
-2.2904999 -65.868103 21.9772
-1.69087 -65.693497 21.786699
-1.78777 -72.926804 21.6348
-1.79545 -73.221298 21.902201
-2.11306 -72.458099 21.794001
-2.14889 -72.768997 22.059601
-2.42255 -71.943398 21.953501
-2.4906099 -72.280403 22.229
-2.8210299 -71.775902 22.419001
-3.15323 -71.287697 22.622
-2.71891 -71.416 22.129499
-3.49615 -70.834702 22.821699
-0.432567 -70.109299 20.9137
-0.463056 -74.614899 22.034201
-1.44028 -73.321198 21.4666
-1.42632 -73.620102 21.7505
-11.8317 -57.294899 36.711201
-11.8811 -57.489498 35.959099
-11.3626 -56.195599 37.144402
-11.6821 -57.0574 37.415401
-8.1639996 -59.081799 43.689701
-7.9959998 -58.369099 43.450699
-8.7339497 -58.551998 43.133202
-8.5514097 -57.9468 42.827999
-0.86921799 -61.2812 45.554798
-1.75309 -61.3283 45.494202
-3.4902799 -61.207699 45.319
-4.41254 -62.2146 45.259701
-4.3248 -61.039398 45.194199
-5.2224698 -61.819302 45.113098
-5.1367698 -60.7201 45.023602
-2.63287 -61.291302 45.415501
-6.7905598 -60.427601 44.5951
-6.6726398 -59.573399 44.453098
-7.5121498 -59.712898 44.185501
-7.3676701 -58.919201 44.0042
-6.0204301 -61.179199 44.8993
-5.92383 -60.206001 44.786301
-8.35571 -59.804199 43.876499
-8.94804 -59.282799 43.381199
-6.2203202 -62.652199 44.946999
-6.9042501 -61.168098 44.6828
-6.10391 -61.9744 44.945301
-5.3035102 -62.721901 45.115101
-7.6670198 -60.434299 44.319
-4.5285101 -63.278198 45.213699
-6.4805698 -66.694801 45.094299
-5.9477401 -66.075996 44.9352
-6.41571 -63.2971 44.935501
-4.0289402 -67.500801 44.352402
-3.8875699 -68.3871 43.9254
-4.2462802 -66.584702 44.6758
-5.7137399 -71.978798 39.205502
-5.2066202 -71.654602 39.9412
-6.2245798 -71.730698 39.141899
-4.63201 -71.336403 40.667801
-6.9317002 -71.528603 38.769699
-7.5862999 -71.373497 38.2188
-1.60523 -72.371498 21.2225
-1.48888 -72.053497 21.0853
-1.32714 -72.723 21.055599
-1.25336 -72.335999 20.934099
-2.26281 -70.734596 21.6059
-1.95134 -70.488098 21.3981
-2.0436201 -71.319397 21.4825
-1.78526 -71.081001 21.2953
-1.8337801 -71.885399 21.3619
-1.6449 -71.619202 21.1982
-2.2652299 -71.614998 21.701799
-2.52619 -71.056099 21.8533
-1.01369 -73.3237 21.077
-0.53360999 -73.532799 20.981501
-1.39911 -73.0364 21.232
-1.71542 -72.655296 21.405399
-1.99903 -72.165703 21.559099
-1.55264 -67.484802 27.132
-1.25859 -67.8461 26.6122
-1.59763 -68.162201 26.775801
-1.55476 -66.786003 27.354
-1.0713201 -67.552002 26.4673
-1.3093801 -67.976097 25.820101
-1.2406501 -67.825798 25.940399
-2.9753101 -68.766899 25.0084
-2.9029901 -68.626999 24.816299
-2.7302899 -68.880501 24.706699
-2.53617 -69.728798 24.6744
-1.54276 -70.846001 27.2724
-1.42056 -70.957298 27.312799
-1.84848 -70.958801 26.884001
-1.51329 -71.074997 27.1238
-0.85244101 -71.075104 27.3776
-0.85315597 -70.921204 27.511299
-0.87697798 -70.770897 27.575199
-1.276 -72.323196 26.074301
-1.1404099 -72.421799 26.0191
-1.55054 -72.418999 25.8626
-1.1940399 -72.518799 25.886101
-0.65113002 -72.544296 26.005899
-0.67843503 -72.411598 26.1434
-0.715096 -72.280403 26.2645
-8.9031096 -66.642998 46.116699
-9.5729704 -65.976799 46.0327
-10.342 -65.435097 45.9007
-9.9477501 -68.338203 47.3447
-9.3835602 -68.766098 47.207001
-8.8704205 -69.157303 46.985901
-9.3780899 -67.507004 46.706699
-8.8003597 -68.045303 46.613899
-8.2625999 -68.536499 46.415001
-8.28475 -67.2799 46.061699
-7.59235 -67.830299 45.8144
-9.9955101 -66.9496 46.6814
-10.6152 -66.546402 46.629501
-10.5243 -67.871597 47.353401
-11.0505 -67.460602 47.268299
-10.8103 -64.682404 45.442699
-11.2613 -64.200302 45.040501
-11.7597 -65.174301 45.6166
-12.3513 -66.108101 46.186001
-11.3884 -65.5821 45.991199
-12.0474 -66.452301 46.5294
-11.0911 -66.083801 46.370998
-11.7575 -66.795502 46.829601
-11.4215 -67.075798 47.055599
-7.1874399 -68.543404 45.6343
-6.8018799 -69.071602 45.339001
-7.8166099 -69.0224 46.178299
-8.4302101 -69.5326 46.731602
-7.4256601 -69.460297 45.885502
-8.0423698 -69.889503 46.434399
-7.68925 -70.216103 46.084
-7.4081001 -70.488197 45.729599
-9.5405798 -69.797997 47.589901
-10.2106 -70.428497 48.153599
-9.0797796 -70.076401 47.295898
-9.7094402 -70.611504 47.814701
-8.6603203 -70.342102 46.953701
-9.2372704 -70.7799 47.4128
-10.6313 -69.183197 48.005699
-11.3267 -69.976997 48.593899
-10.0675 -69.5103 47.8438
-10.7599 -70.228203 48.428001
-7.2997398 -70.713203 45.481499
-7.27878 -70.878899 45.292702
-8.3074198 -71.008698 46.434299
-8.6302996 -71.214798 46.6339
-8.8680696 -71.343597 46.756001
-7.8106799 -70.981102 45.880001
-8.0230398 -71.147003 45.946602
-8.1933098 -71.239098 45.989101
-7.37429 -71.016899 45.225101
-7.48175 -71.088997 45.187199
-7.8854499 -70.763298 46.118401
-8.2556696 -70.5802 46.5513
-8.7690296 -70.922302 46.945301
-8.9942999 -71.359596 46.7841
-9.03547 -71.258698 46.769402
-8.2980604 -71.2323 45.990898
-8.3481503 -71.118797 45.987
-7.56849 -71.070503 45.159
-7.6308699 -70.952499 45.1577
-9.1890001 -71.209297 47.247799
-9.7193203 -71.156799 47.778801
-9.4832096 -71.396599 47.432598
-10.0574 -71.415703 48.004002
-10.2217 -71.5112 48.060799
-10.2544 -71.451698 48.011101
-9.6284599 -71.447701 47.4785
-9.6642103 -71.366203 47.446701
-10.7796 -70.980698 48.581699
-11.1825 -71.378098 48.831699
-10.2415 -71.081299 48.221802
-10.6177 -71.415901 48.4683
-12.8287 -63.284 43.0457
-13.0574 -64.051804 43.572498
-13.3147 -64.779999 44.056499
-12.523 -63.3563 43.582802
-12.8065 -64.223 44.131199
-13.1367 -65.047401 44.659801
-12.1411 -63.5429 44.103901
-12.4902 -64.4804 44.675999
-12.9039 -65.373596 45.240002
-12.6397 -65.739304 45.755501
-12.1355 -64.804802 45.178001
-11.7112 -63.828499 44.595699
-13.039 -63.341499 42.510201
-13.1716 -63.535099 42.019501
-13.5517 -65.402702 44.394699
-13.7397 -65.937599 44.562401
-13.4481 -65.757301 45.064999
-13.7056 -66.3619 45.303699
-13.3043 -66.149902 45.689301
-13.645 -66.810303 45.985401
-13.2248 -63.987701 43.0373
-13.3333 -64.058998 42.590302
-13.4178 -64.584099 43.487301
-13.4541 -64.464996 43.048901
-13.2548 -63.861698 41.612701
-13.3216 -64.287399 41.286598
-12.9539 -66.970001 46.673698
-13.474 -67.724899 47.071999
-12.7317 -67.322197 47.030602
-13.3289 -68.118896 47.476799
-12.4609 -67.657501 47.346901
-13.1061 -68.489799 47.8368
-13.1411 -66.568199 46.228901
-13.5721 -67.278 46.577499
-12.3144 -71.083702 49.238998
-11.7584 -71.275398 49.0961
-11.9131 -70.632202 49.013
-11.3476 -70.8414 48.856602
-11.1892 -68.795303 48.022999
-11.6985 -68.3908 47.899399
-11.8706 -69.646301 48.605999
-12.3634 -69.265503 48.462601
-12.4371 -70.329498 49.018101
-12.8971 -69.962402 48.874401
-12.8139 -70.790001 49.238701
-13.2367 -70.427597 49.101299
-13.3524 -70.635399 49.132198
-13.2611 -70.601799 48.9921
-12.955 -70.995201 49.2696
-12.8732 -70.9599 49.143299
-12.4807 -71.286301 49.276001
-12.4231 -71.254898 49.166901
-12.1181 -68.004997 47.649899
-12.7814 -68.873497 48.183899
-11.3786 -71.558601 48.890701
-11.3917 -71.532997 48.8144
-10.8027 -71.558899 48.5299
-10.8312 -71.520401 48.466301
-11.9462 -71.473503 49.144699
-11.9256 -71.447701 49.052799
-13.2757 -69.568001 48.599998
-13.5576 -69.166199 48.2444
-13.5691 -70.0345 48.8433
-13.8068 -69.624397 48.490501
-13.833 -68.334801 47.3773
-14.0228 -68.746201 47.531399
-13.7357 -68.763802 47.847301
-13.9517 -69.199699 48.0616
-13.8562 -66.398903 44.548599
-13.884 -66.704201 44.323101
-13.8837 -66.873802 45.365101
-13.9659 -67.236504 45.305199
-13.8906 -67.359703 46.119301
-14.0191 -67.744202 46.129601
-13.5912 -65.081497 43.715599
-13.555 -64.748596 43.027199
-13.7277 -65.530701 43.7869
-13.6545 -65.120499 42.963902
-13.8782 -67.857597 46.797199
-14.0411 -68.253799 46.877701
-13.8547 -66.957901 44.407501
-13.7794 -67.015602 44.4179
-13.951 -67.422302 45.257801
-13.8656 -67.4515 45.211201
-14.0217 -67.917099 46.065601
-13.929 -67.9216 45.972
-13.9653 -68.406998 46.666599
-13.9652 -68.8918 47.295898
-14.0597 -68.424004 46.817799
-14.0568 -68.921097 47.4879
-13.808 -65.940804 43.728802
-13.7213 -65.508102 42.858398
-13.8241 -66.211403 43.534698
-13.7439 -65.809799 42.733299
-13.4286 -64.322197 42.306999
-13.5128 -64.694504 42.095901
-12.9298 -65.771004 40.935902
-11.2632 -71.340897 48.6632
-11.0414 -71.070396 48.447899
-10.7543 -71.3368 48.346699
-10.6159 -71.0839 48.1908
-10.2146 -71.2687 47.928398
-10.1571 -71.027298 47.8395
-9.6088305 -70.8937 47.343899
-8.9155102 -70.671501 46.637901
-9.64326 -71.169403 47.402
-9.0180101 -71.038498 46.749802
-11.7336 -71.237602 48.870098
-12.1794 -71.027298 48.951302
-11.4329 -70.924896 48.588001
-11.8337 -70.683403 48.618801
-12.6074 -70.722298 48.892502
-12.9996 -70.364304 48.712101
-12.2435 -70.362999 48.518101
-12.6387 -70.003304 48.309399
-8.35219 -70.899696 45.9967
-8.2752104 -70.591103 45.922199
-7.6582398 -70.728401 45.178299
-7.5824399 -70.386398 45.0937
-13.6609 -70.244904 48.875801
-13.8768 -69.830299 48.513
-13.5715 -70.217598 48.725399
-13.7916 -69.806702 48.347099
-13.3314 -69.990898 48.431801
-13.5763 -69.593597 48.047401
-12.989 -69.637299 48.020699
-13.2616 -69.2519 47.6469
-14.0026 -69.390297 48.0522
-13.9157 -69.362099 47.863098
-13.7808 -68.706902 47.022598
-13.5319 -68.4114 46.712002
-13.7179 -69.1595 47.560799
-13.4345 -68.833 47.189701
-13.6836 -66.981697 44.481602
-13.556 -66.8992 44.593601
-13.7415 -67.388603 45.200001
-13.59 -67.2659 45.205399
-13.7795 -67.817497 45.881699
-13.6023 -67.640503 45.781502
-13.5847 -68.017097 46.263302
-13.796 -68.257698 46.4762
-13.7787 -66.4021 43.437599
-13.586 -65.982101 42.350899
-13.7339 -66.575996 43.558899
-13.5545 -66.2463 42.6455
-13.6674 -66.631798 43.6189
-13.5003 -66.312202 42.779099
-13.5993 -66.608398 43.775398
-13.4606 -66.278297 43.039501
-13.5018 -66.551201 44.007702
-13.3995 -66.227798 43.399799
-13.3265 -65.807297 41.5499
-13.0526 -65.619202 40.755501
-13.2977 -66.009804 41.7122
-12.9964 -65.763496 40.802898
-13.2511 -66.049896 41.868099
-13.7187 -65.992401 42.672001
-13.359 -65.345802 40.785
-13.2737 -65.2771 40.815498
-13.1683 -65.219398 40.7397
-13.5058 -65.590599 41.559299
-13.3786 -65.553398 41.426102
-13.2483 -65.996201 42.246799
-12.9998 -65.747498 41.524502
-13.2262 -65.935303 42.725498
-13.0112 -65.683701 42.0611
-13.1187 -65.407097 40.7962
-13.3935 -64.7537 41.033901
-13.4399 -65.139801 40.875801
-13.5825 -65.102097 41.917801
-13.6172 -65.439697 41.789101
-13.4268 -65.336502 40.818901
-13.5959 -65.617401 41.7202
-10.7206 -70.805397 48.137299
-10.3242 -70.538002 47.745899
-10.1934 -70.797302 47.797199
-11.4583 -70.298798 48.160301
-11.0293 -69.895302 47.625301
-11.0711 -70.587402 48.191502
-10.6397 -70.239799 47.7108
-12.2412 -69.595001 47.805698
-11.8057 -69.151604 47.254501
-11.8559 -69.959602 48.026402
-11.4252 -69.529198 47.471901
-7.85221 -69.867401 45.398499
-7.78194 -70.1548 45.329399
-8.3570099 -70.255898 46.001598
-9.65977 -70.596001 47.313801
-9.8112698 -70.261299 47.256302
-9.0807505 -70.325699 46.741798
-9.2522001 -69.938004 46.711102
-12.8817 -68.837502 47.175201
-12.4776 -68.3722 46.672199
-12.5914 -69.224098 47.520199
-12.1603 -68.766701 46.983601
-13.3823 -66.797997 44.7201
-13.1724 -66.720398 44.839699
-13.4167 -67.116402 45.208199
-13.227 -67.009697 45.239899
-13.4257 -67.430199 45.659698
-13.2823 -67.261002 45.5527
-13.2761 -66.219803 43.757801
-13.1052 -66.235703 44.024502
-13.3462 -66.500298 44.250401
-13.1469 -66.466003 44.440498
-12.9287 -65.674004 42.549801
-12.7999 -65.714302 42.9585
-13.1355 -65.947197 43.1903
-12.9939 -65.996597 43.5466
-13.2492 -68.044296 46.387199
-12.9774 -67.630997 46.018398
-13.095 -68.429901 46.781601
-12.7488 -67.975502 46.3391
-13.3631 -67.719902 46.028702
-13.1632 -67.3918 45.747101
-12.6475 -65.754097 43.215199
-12.4742 -65.779198 43.430599
-13.0167 -67.035698 45.367001
-12.9266 -66.695099 44.935001
-12.7548 -67.183701 45.5634
-12.5815 -66.6828 44.9879
-12.0885 -67.873199 46.173698
-11.7381 -67.375504 45.692699
-11.7159 -68.273697 46.4599
-11.297 -67.781097 45.959301
-11.3276 -68.677299 46.707901
-10.8527 -68.2052 46.1814
-12.4397 -67.491501 45.862
-12.1699 -67.003304 45.372601
-12.9197 -66.241798 44.143002
-12.7719 -66.2276 44.172901
-12.9277 -66.439697 44.523201
-12.7081 -66.363998 44.4739
-12.8296 -66.030197 43.740002
-12.6674 -66.056503 43.8988
-7.9568 -69.531303 45.499298
-8.1234703 -69.136002 45.536701
-9.5638599 -69.514099 46.629601
-9.9739199 -69.073601 46.514599
-8.6936703 -69.556198 46.140202
-9.0121403 -69.127403 46.0751
-9.4386997 -68.680901 45.9669
-8.4328098 -68.723503 45.495701
-8.8554201 -68.295898 45.402599
-10.5183 -69.482201 47.069302
-10.1208 -69.883904 47.180302
-10.927 -69.079498 46.911999
-10.4099 -68.636497 46.365799
-9.9097996 -68.223396 45.831501
-10.4024 -67.752197 45.654099
-9.3389597 -67.830597 45.2672
-9.8494301 -67.240501 44.994801
-11.4324 -66.904404 45.220299
-11.1224 -66.429398 44.685101
-10.9296 -67.313202 45.466202
-10.5697 -66.822899 44.901402
-11.9909 -65.886803 44.066399
-11.6004 -66.103302 44.397099
-12.2866 -66.287903 44.566399
-11.9023 -66.551498 44.916302
-12.5137 -66.126701 44.189999
-12.2698 -65.800301 43.7244
-8.5171499 -69.9496 46.1329
8.9109602 -66.6418 46.114899
9.5807104 -65.975403 46.0308
10.3496 -65.433601 45.898701
9.9560804 -68.3368 47.342701
9.3861799 -67.505699 46.7048
9.3919201 -68.764702 47.205101
8.8085003 -68.044098 46.612099
8.2926702 -67.278702 46.060001
8.8787899 -69.156097 46.9841
8.2707701 -68.5354 46.4133
7.6002998 -67.829201 45.812901
10.0035 -66.948196 46.679401
10.5326 -67.870102 47.351299
10.6232 -66.544899 46.6273
11.0587 -67.459099 47.266102
10.8178 -64.680901 45.440601
11.2686 -64.198799 45.0382
11.7672 -65.1726 45.614201
11.3961 -65.580498 45.988899
11.0989 -66.082199 46.368801
12.3591 -66.1063 46.183601
12.0553 -66.450699 46.527
11.7656 -66.7938 46.827202
11.4296 -67.074203 47.053299
7.1954598 -68.542397 45.6329
6.8099098 -69.070602 45.337601
7.8248 -69.021301 46.176701
7.4338498 -69.459297 45.884102
8.43859 -69.531403 46.7299
8.0507298 -69.888397 46.4328
7.6975899 -70.214996 46.0825
7.4164 -70.487099 45.7281
9.54916 -69.7967 47.588001
9.0883398 -70.075104 47.294102
8.6688499 -70.340897 46.952
10.2193 -70.427002 48.151501
9.7181702 -70.610199 47.812801
9.2459497 -70.778603 47.4109
10.6399 -69.181801 48.003601
10.0761 -69.508797 47.841801
11.3355 -69.975403 48.591599
10.7687 -70.2267 48.4259
7.3080301 -70.712196 45.48
7.2870498 -70.877899 45.291199
8.3159399 -71.007599 46.432701
7.8190799 -70.980003 45.878399
8.6388903 -71.2136 46.632099
8.0314798 -71.145897 45.945
7.3825698 -71.0158 45.223598
8.8767004 -71.3423 46.7542
8.2017698 -71.237999 45.9874
7.4900298 -71.087898 45.185699
7.8938699 -70.762199 46.116798
8.2641497 -70.579102 46.549702
8.7776403 -70.921097 46.943501
9.0029402 -71.358398 46.7822
8.3065205 -71.231102 45.989201
7.5767598 -71.069504 45.157501
9.0440903 -71.257401 46.767601
8.3565998 -71.117599 45.985298
7.6391201 -70.9515 45.1562
9.19771 -71.208 47.245899
9.4919796 -71.395302 47.430698
9.7281303 -71.155403 47.776901
10.0663 -71.414299 48.001999
10.2306 -71.509804 48.058701
9.6372499 -71.446404 47.476601
10.2633 -71.450203 48.008999
9.6729803 -71.364799 47.444698
10.7886 -70.979202 48.579498
10.2504 -71.079903 48.219799
11.1915 -71.376503 48.829399
10.6267 -71.414398 48.466202
12.8354 -63.2822 43.043098
12.5299 -63.3545 43.580299
12.1481 -63.541199 44.101501
13.0644 -64.050003 43.569901
12.8136 -64.221199 44.128601
12.4975 -64.4786 44.6735
13.3219 -64.778099 44.053902
13.144 -65.045502 44.6572
12.9113 -65.371803 45.2374
12.6473 -65.737503 45.752899
12.1429 -64.803101 45.175499
11.7184 -63.8269 44.593399
13.0456 -63.3396 42.507599
13.1782 -63.533298 42.016899
13.559 -65.400803 44.391998
13.4556 -65.755402 45.062302
13.312 -66.148102 45.6866
13.7471 -65.935699 44.5597
13.7132 -66.360001 45.300999
13.6529 -66.808403 45.9827
13.2316 -63.985802 43.034599
13.4248 -64.582199 43.4846
13.3401 -64.057098 42.587601
13.461 -64.463097 43.0462
13.2613 -63.859901 41.610001
13.3282 -64.2855 41.283901
12.962 -66.968201 46.671101
12.7398 -67.320503 47.028
12.4691 -67.655701 47.344398
13.4822 -67.723 47.069302
13.3372 -68.116997 47.474098
13.1146 -68.4879 47.834099
