# .PCD v.7 - Point Cloud Data file format
VERSION .7
FIELDS x y z
SIZE 4 4 4
TYPE F F F
COUNT 1 1 1
WIDTH 1628
HEIGHT 1
VIEWPOINT 0 0 0 1 0 0 0
POINTS 1628
DATA ascii
-36.159401 -4.5952301 19.1625
-36.708 -3.39838 16.7027
-36.5229 -3.4253399 17.079599
-36.459999 -2.86339 16.859301
-36.3255 -3.43205 17.510599
-36.895699 -3.36462 16.363701
-36.439098 -2.3201599 16.748301
-35.7915 -3.4089401 18.4624
-36.0956 -3.4275601 17.9793
-41.3078 -6.67098 16.916401
-41.722401 -6.7444601 16.2372
-40.8297 -6.76861 16.555201
-41.169899 -6.8411798 15.8383
-40.655701 -6.9060001 15.7161
-40.2635 -6.8923001 15.5765
-40.400799 -6.8228898 16.243799
-40.031502 -6.7954998 15.942
-40.0793 -6.7343102 16.820999
-39.7449 -6.68646 16.4669
-39.740101 -6.6469102 17.3778
-39.438599 -6.5878801 16.993401
-37.6539 -3.4128301 15.3477
-37.822498 -3.4039299 15.1744
-37.262501 -2.3594201 15.5039
-38.172199 -3.9850099 15.0979
-38.319099 -4.0139599 14.938
-37.977402 -3.40483 15.0199
-38.1133 -3.41589 14.8791
-38.701698 -5.1591702 15.2495
-38.438801 -4.5998402 15.1785
-38.608898 -4.6616602 14.9936
-42.198502 0.97958702 14.8968
-42.214001 1.0669 14.4445
-42.645802 1.00201 14.9466
-42.681099 1.09363 14.2593
-43.0662 0.95163703 14.7984
-43.147499 1.03567 14.0127
-43.838902 0.58119398 14.4715
-43.723598 0.50552398 15.5489
-43.473 0.80814397 14.6596
-43.211201 0.736265 15.5707
-42.747299 0.88183999 15.3585
-42.1203 0.90784001 15.227
-41.442402 0.81902301 15.1209
-40.784 0.65525502 14.9736
-41.610699 0.88540298 14.8182
-40.982601 0.71458799 14.721
-41.119701 0.78617299 14.443
-40.5285 0.52571303 14.4161
-40.379398 0.45604599 14.6392
-39.9856 0.196119 14.391
-39.829899 0.123628 14.5754
-39.351299 -0.26607099 14.5268
-38.945999 -0.71073997 14.4985
-39.5159 -0.184871 14.3589
-39.108398 -0.63126302 14.3372
-43.802502 0.67291403 13.5537
-44.132198 0.27343401 14.2067
-44.0434 0.38940701 13.3173
-44.371399 -0.092468999 13.7899
-44.224098 0.105645 12.9934
-43.520901 0.89313698 13.7852
-44.4972 -0.16268601 15.2201
-44.1581 0.193161 15.4165
-44.850601 -0.803882 13.7615
-44.781601 -0.72251701 12.7585
-45.034 -1.1322 13.6753
-44.9785 -0.997168 12.6415
-45.188099 -1.47479 13.5677
-45.159698 -1.29049 12.5145
-45.394501 -2.2855201 13.0527
-45.300999 -2.3493299 14.6288
-45.312 -1.84981 13.4112
-45.240002 -1.96347 14.7769
-45.1539 -1.59736 14.8989
-44.384201 -0.18719099 12.7886
-44.627602 -0.46926099 13.8046
-44.577 -0.451244 12.8333
-45.041801 -1.2326601 15.0004
-44.901199 -0.87261999 15.0607
-44.1577 -6.5181398 12.8474
-43.792198 -6.7588601 13.0373
-44.027302 -6.4597802 13.8171
-42.822498 -6.85111 14.4846
-42.911301 -6.7386899 15.6781
-43.4897 -6.68963 14.2444
-43.571999 -6.5699701 15.5267
-44.090801 -6.3024402 15.2819
-45.472198 -3.1991301 12.9217
-45.554501 -3.3371501 11.9388
-45.536701 -3.6863301 13.1731
-45.609402 -3.68694 12.0579
-45.518299 -4.1837201 13.0435
-45.631001 -4.0541201 11.9666
-45.476101 -3.0104301 11.9296
-45.349701 -4.10847 14.6954
-45.3498 -3.65323 14.6498
-45.323399 -3.1945 14.5769
-38.538799 -4.0709701 14.6441
-38.440498 -4.0427599 14.7898
-38.866402 -4.7532401 14.6661
-38.7421 -4.6955299 14.827
-42.848499 -6.9753098 13.5401
-42.285801 -6.9872699 13.8977
-41.524502 -6.8674698 15.006
-41.5653 -6.85917 15.4073
-42.155102 -6.8660498 14.9773
-42.120499 -6.8063998 15.6288
-43.362499 -6.8709998 13.3755
-45.515999 -4.4314599 12.0547
-45.124298 -4.9472699 13.5047
-45.053101 -4.8815699 14.8609
-45.3438 -4.6038198 13.3831
-45.226501 -4.5198302 14.8011
-41.807598 -6.9362998 14.3557
-41.351002 -6.8779898 14.5406
-40.856998 -6.7789898 14.515
-40.419601 -6.6544099 14.4863
-40.946499 -6.8256602 14.7776
-40.5158 -6.7503901 14.6541
-40.516102 -6.81392 14.7866
-40.479301 -6.8752198 14.9002
-40.8591 -6.8843198 14.9225
-40.7169 -6.9482598 15.0001
-41.181702 -6.9046202 15.1337
-40.925098 -6.9616899 15.1613
-38.204498 -2.86902 14.5785
-38.281799 -2.8743401 14.45
-38.2318 -2.30019 14.5425
-38.321301 -2.2909701 14.4184
-38.373199 -1.74368 14.5118
-38.480999 -1.71694 14.3841
-38.263302 -1.76072 14.6292
-38.134701 -2.30494 14.6597
-38.1134 -2.86181 14.701
-38.614399 -4.0990901 14.4922
-38.319199 -3.45152 14.615
-38.3946 -3.4707699 14.4781
-39.3325 -5.4442101 14.4724
-38.9422 -4.7731299 14.4919
-38.226299 -3.4324701 14.7466
-44.730099 -0.51931602 15.1468
-45.477299 -2.4019001 12.06
-45.435501 -2.7597499 13.1594
-45.4594 -2.7372 12.1063
-45.440498 -1.96311 12.1475
-45.317799 -2.76138 14.5998
-45.318501 -1.61624 12.3776
-45.064602 -5.0193501 12.4395
-44.896801 -5.2592001 13.5535
-44.8297 -5.2816801 12.5207
-44.642502 -5.6242199 13.4465
-44.639599 -5.5383301 12.4689
-45.305199 -4.7302899 12.3025
-44.677601 -5.5449901 14.9427
-44.871799 -5.2047801 14.9084
-41.7103 0.96362001 14.4684
-44.430599 -6.0406499 13.8038
-44.3894 -6.178 12.827
-44.5326 -5.8551898 12.601
-44.4338 -5.9300699 15.1034
-39.658401 -6.0204601 14.5957
-39.9571 -6.3986802 14.568
-39.705601 -5.9899502 14.4486
-40.029598 -6.3951001 14.4517
-40.2127 -6.6223302 14.5796
-38.8848 -5.56286 15.3138
-39.043701 -5.87642 15.3689
-41.080101 -6.9244699 15.3918
-39.644299 0.071639001 14.7504
-40.180401 0.40105501 14.8473
-38.794601 -0.75135201 14.6338
-39.181499 -0.313831 14.6784
-38.615501 -1.20829 14.4948
-38.485802 -1.23801 14.6185
-38.748402 -1.1583101 14.3537
-39.1833 -6.4523501 16.6509
-39.4533 -6.5426898 16.1334
-39.7108 -6.6503901 15.7411
-39.9025 -6.7452402 15.4127
-39.428699 -6.4225202 15.5692
-39.596802 -6.5075798 15.2684
-39.379799 -6.2362199 15.1735
-39.2122 -6.1600699 15.4501
-40.373402 -6.9507799 15.2966
-40.407799 -6.97018 15.0948
-40.0242 -6.8025498 15.1695
-40.099499 -6.8260498 15.0146
-39.732201 -6.5695 15.0475
-39.847698 -6.6138802 14.894
-39.679001 -6.3811402 14.8431
-39.537399 -6.3148398 14.9762
-40.7262 -6.9715199 15.3877
-40.675098 -6.9951301 15.154
-39.698399 -6.17065 14.6841
-39.744099 -6.3331299 14.7497
-39.955502 -6.4656301 14.6673
-39.9655 -6.5517101 14.7513
-40.2206 -6.6781802 14.6985
-40.226501 -6.7223802 14.7973
-37.446098 -0.781865 15.8128
-37.640202 -0.75113499 15.6452
-37.6707 -1.49766 15.219
-37.498798 -1.62282 15.3524
-37.801701 -0.80869102 15.4296
-37.873901 -0.965828 15.2541
-37.817101 -1.23833 15.1832
-37.752102 -1.22799 15.2014
-37.679401 -1.20096 15.1416
-39.855801 -6.54287 14.7948
-39.973099 -6.7004299 14.8753
-39.953701 -6.6347899 14.8198
-40.058201 -6.6461 14.8168
-40.351501 -6.9331999 15.0231
-40.147701 -6.8316002 14.9604
-40.515099 -6.9668999 15.0122
-40.408298 -6.8554702 14.9516
-40.444401 -6.9333301 15.0112
-40.244801 -6.7413502 14.8728
-39.659 -3.9467001 8.7121
-39.676601 -3.7596099 8.6123104
-39.7173 -3.54285 8.5629101
-39.610001 -3.80337 8.8408298
-39.633999 -3.59548 8.7808599
-39.573502 -3.6462801 8.9930696
-39.546001 -3.7918701 9.1469603
-39.531898 -3.89026 9.2869596
-39.5793 -3.9123001 9.0269899
-39.564602 -3.9916899 9.1866598
-39.621799 -4.01577 8.9241199
-39.6082 -4.0623498 9.0714703
-39.659199 -4.1078601 8.9337797
-39.7332 -4.1509099 8.7461395
-39.694801 -4.0834699 8.7297201
-39.804501 -4.0234799 8.2828398
-39.805302 -3.8633399 8.2429504
-39.863602 -3.7089 8.1276798
-39.735199 -3.99019 8.4826698
-39.743301 -3.8134501 8.4200697
-39.797001 -3.62816 8.3210297
-39.778801 -4.1162801 8.4804201
-39.838001 -4.1903501 8.4575796
-39.865101 -4.14182 8.2321196
-39.944199 -4.2155499 8.15411
-40.019001 -4.2021699 7.9169798
-40.0658 -4.1373701 7.7589898
-39.931499 -4.1358399 8.0279303
-39.976799 -4.08989 7.8843198
-39.861099 -4.0388298 8.1145401
-39.9058 -4.0377302 7.9937801
-39.5229 -3.9407001 9.3971996
-39.476002 -4.0427098 9.5641804
-39.5578 -4.0448499 9.2962904
-39.512501 -4.1536102 9.4569101
-39.607498 -4.1051602 9.1641998
-39.57 -4.2077298 9.3060198
-39.534801 -3.60024 9.2042799
-39.519699 -3.5762999 9.3388996
-39.519699 -3.7400999 9.3238297
-39.512798 -3.57144 9.4433002
-39.487 -3.59424 9.5748196
-39.509499 -3.7706201 9.44312
-39.471199 -3.8419099 9.5967197
-39.569302 -3.45245 9.0892
-39.568501 -3.3192699 9.1976099
-39.534698 -3.43396 9.2874498
-39.0056 -5.6473699 10.2084
-39.0597 -5.3909001 10.0597
-39.155399 -5.1262999 9.9150496
-38.970501 -5.4338598 10.2907
-39.043098 -5.1828599 10.1452
-38.9599 -5.2249198 10.3798
-38.911598 -5.3347998 10.5804
-38.897099 -5.3857598 10.7301
-38.9254 -5.5357499 10.4901
-38.909199 -5.5876098 10.6488
-38.9552 -5.7337599 10.4109
-38.938 -5.7771702 10.5479
-38.985001 -5.9030099 10.4223
-39.051102 -5.9842501 10.278
-39.021702 -5.8645802 10.2533
-39.1675 -5.7550001 9.8404598
-39.196899 -5.5554299 9.75916
-39.279598 -5.39187 9.6229496
-39.090199 -5.7094302 10.0104
-39.131901 -5.47335 9.9018497
-39.2225 -5.25876 9.7537403
-39.101002 -5.8976898 10.0651
-39.1343 -6.0184002 10.0913
-39.187401 -5.9182401 9.87391
-39.229099 -6.0282502 9.8810196
-39.325901 -6.0141401 9.6623297
-39.414902 -5.9661798 9.46208
-39.270302 -5.9140201 9.6899595
-39.3419 -5.8782401 9.5323496
-39.233398 -5.77981 9.6967802
-39.285301 -5.7905598 9.5921602
-38.896301 -5.38521 10.8478
-38.9114 -5.3256698 11.0425
-38.9053 -5.6020999 10.7711
-38.9044 -5.5595398 11.0068
-38.938301 -5.8101301 10.6583
-38.9165 -5.8428202 10.9622
-38.9356 -5.1224899 10.5758
-38.932598 -5.05897 10.7095
-38.904301 -5.21064 10.7443
-38.938099 -5.0163798 10.8084
-38.943699 -4.93859 10.9785
-38.911098 -5.1879001 10.8617
-38.925098 -5.1160998 11.0421
-39.0107 -5.0061202 10.3682
-39.059601 -4.8580499 10.3787
-38.984699 -4.9489002 10.567
-39.6577 -1.91764 8.9722404
-39.701801 -1.92932 8.8390903
-39.7859 -1.93475 8.6259604
-39.653599 -1.8284 8.9823599
-39.7024 -1.8130701 8.81285
-39.772999 -1.7959501 8.6200304
-39.6595 -1.71038 8.9816198
-39.709 -1.70055 8.8039398
-39.779202 -1.68269 8.6091204
-39.644901 -1.98516 9.0837803
-39.638199 -2.0615001 9.2077999
-39.696499 -2.04672 8.9347696
-39.697201 -2.1494401 9.0334797
-39.770901 -2.0771 8.7476797
-39.773998 -2.1814401 8.8256903
-39.845402 -2.1570101 8.6335001
-39.929901 -2.0909901 8.4208298
-39.8634 -2.02718 8.5061302
-39.948601 -1.79252 8.2024403
-39.959099 -1.71576 8.1695204
-39.969398 -1.6232001 8.1512203
-39.8755 -1.8515 8.3804598
-39.859001 -1.75449 8.3961296
-39.865898 -1.65457 8.38414
-39.633301 -1.7161601 9.15522
-39.624199 -1.72001 9.3010998
-39.627701 -1.86571 9.1479397
-39.617001 -1.90715 9.2915001
-39.9487 -1.91868 8.2728596
-40.031799 -1.9676 8.1585398
-40.029999 -1.80925 8.06703
-40.125999 -1.8283499 7.9225998
-40.177898 -1.69918 7.79954
-40.188999 -1.57871 7.7845101
-40.0732 -1.7011 7.9623199
-40.085999 -1.59677 7.9409299
-39.635502 -2.13744 9.29638
-39.610001 -2.3171599 9.4017897
-39.703499 -2.2381201 9.0928202
-39.700802 -2.4028001 9.1278601
-39.7892 -2.2702701 8.8558702
-39.792999 -2.42783 8.8718004
-39.620998 -1.72422 9.4039001
-39.604099 -1.73375 9.51577
-39.612598 -1.94398 9.3919296
-39.591202 -2.0095799 9.5054903
-39.6744 -1.5897501 8.9621401
-39.701199 -1.47974 8.9370699
-39.651402 -1.56906 9.1296196
-39.679401 -1.44603 9.0907001
-39.646 -1.5423501 9.2672796
-39.676701 -1.4064 9.2070599
-39.248699 0.010123 10.3533
-39.2477 0.15118399 10.3232
-39.265701 0.28336599 10.3251
-39.200699 0.042374 10.5241
-39.209999 0.212081 10.5072
-39.191799 0.095868997 10.7022
-39.254601 -0.140861 10.4538
-39.268101 -0.26711401 10.5566
-39.304798 0.0077379998 10.1851
-39.315601 -0.151521 10.26
-39.334599 -0.278622 10.3341
-39.370399 0.0041740001 10.0142
-39.379299 -0.153183 10.0877
-39.399101 -0.26753399 10.1372
-39.449501 -0.214654 9.9867296
-39.499699 -0.14319 9.8582497
-39.438099 -0.089639001 9.92416
-39.453899 0.095462002 9.7909899
-39.459999 0.16406099 9.7709198
-39.477001 0.232502 9.7469797
-39.4156 0.063629001 9.8787203
-39.4058 0.166896 9.8811197
-39.443298 0.265481 9.8290005
-39.360001 0.16897701 10.0056
-39.402802 0.31476799 9.96066
-39.205299 -0.068442002 10.8062
-39.227402 -0.182109 10.8981
-39.2024 -0.110291 10.6503
-39.229 -0.235672 10.754
-39.304199 0.165391 10.157
-39.3274 0.30677 10.1484
-39.476898 -0.0027079999 9.8082304
-39.549301 -0.043138001 9.7294502
-39.5168 0.077133 9.7093
-39.5965 0.065370001 9.6152096
-39.628201 0.17631701 9.5440903
-39.636398 0.27736801 9.5355902
-39.542 0.168521 9.6521196
-39.549301 0.25595999 9.6460896
-39.282799 -0.34948799 10.6245
-39.283199 -0.460383 10.7017
-39.356899 -0.36000699 10.3728
-39.374699 -0.472361 10.3912
-39.4291 -0.34049901 10.1454
-39.464401 -0.45199499 10.1184
-39.2472 -0.24931 10.9872
-39.254002 -0.352314 11.1329
-39.2505 -0.31651801 10.8331
-39.2603 -0.42809701 10.9445
-39.2118 0.061307002 10.9008
-39.2313 0.03867 11.0321
-39.2262 -0.084955998 10.986
-39.065601 -1.4119999 12.8697
-39.061199 -1.44126 12.7902
-39.048901 -1.4439501 12.6942
-39.0984 -1.2201101 12.7018
-39.087101 -1.2745 12.6302
-39.066898 -1.29934 12.5524
-39.1301 -1.0467 12.4676
-39.1134 -1.12409 12.4062
-39.0886 -1.1732 12.3607
-39.246601 -0.13349199 11.092
-39.250301 0.022233 11.1329
-39.253399 -0.215895 11.2585
-39.259102 -0.036793001 11.3131
-39.530602 -3.3875101 9.39606
-39.571499 -3.23736 9.2873001
-39.513 -3.3457301 9.5186901
-39.565701 -3.07812 9.3969297
-39.0023 -4.8770499 10.6477
-39.094002 -4.7609 10.4094
-38.985802 -4.7817402 10.8059
-39.1409 -4.5242701 10.4172
-38.910999 -4.5391698 11.6795
-38.877998 -4.3975801 11.8023
-38.851501 -4.3305402 11.8181
-38.872601 -4.4743099 12.1269
-38.856899 -4.3803601 12.1103
-38.8358 -4.31463 12.0907
-38.851398 -4.39182 12.4325
-38.841301 -4.3207698 12.387
-38.823799 -4.2652798 12.3507
-39.669201 -4.1513901 9.0089197
-39.650101 -4.2547002 9.1273098
-39.765202 -4.2003698 8.7793703
-39.8242 -4.33425 8.8252697
-40.000198 -4.3270302 8.3941498
-40.135201 -4.3336 8.0247602
-39.891399 -4.2384701 8.4442997
-40.0112 -4.2618299 8.10427
-40.229198 -4.303 7.7417102
-40.291599 -4.2118502 7.5504799
-40.092899 -4.2435699 7.8443699
-40.142601 -4.1683402 7.6745601
-39.631901 -3.25758 9.0209904
-39.709499 -3.22054 8.8183899
-39.643299 -3.1626101 9.0925999
-39.7285 -3.1303799 8.8664904
-39.6605 -3.0095899 9.1305199
-39.751999 -2.98489 8.8838396
-39.6301 -3.40363 8.9009304
-39.7071 -3.35074 8.7089005
-39.783699 -3.2255001 8.6137505
-39.869499 -3.2683699 8.3827496
-39.816898 -3.1314299 8.6329498
-39.928699 -3.18589 8.3542004
-39.859299 -2.98191 8.6280499
-40.082699 -3.02193 8.2431602
-39.802101 -3.3768201 8.4490995
-39.966599 -3.3912001 8.0995398
-40.052299 -3.5466399 7.8456302
-40.040699 -3.3314199 8.0370998
-40.1329 -3.50806 7.7624898
-40.2136 -3.2502401 7.8993902
-40.303398 -3.4505999 7.6281199
-39.883499 -3.4851899 8.1976004
-39.958302 -3.6056399 7.9766698
-39.856499 -3.9161201 8.0950603
-39.913601 -3.9625299 7.9612598
-39.906601 -3.80316 7.99682
-39.935501 -3.88182 7.9193501
-40.096199 -3.7070501 7.7034001
-40.105301 -3.86601 7.6574101
-40.178398 -3.68559 7.6121202
-40.1866 -3.8610401 7.5652499
-40.3461 -3.6512899 7.4767199
-40.351799 -3.85518 7.4260702
-39.999901 -3.7395501 7.8445301
-40.012901 -3.87307 7.7927399
-40.094002 -4.0176902 7.6754599
-40.173401 -4.03163 7.5852399
-40.332298 -4.0528698 7.4489398
-40.001801 -3.9953001 7.81111
-38.999001 -5.9621 10.4886
-39.011101 -6.0584898 10.6129
-39.0746 -6.0527401 10.3129
-39.1003 -6.1637101 10.3725
-39.165401 -6.0928302 10.1099
-39.2006 -6.20717 10.1325
-39.267601 -6.0989099 9.8808899
-39.315399 -6.2123299 9.8665705
-39.438702 -6.1904302 9.5811501
-39.555199 -6.1306601 9.3162699
-39.374699 -6.0806398 9.6363001
-39.4753 -6.0278802 9.4080601
-39.146301 -4.8189902 10.1505
-39.238499 -4.8011599 9.9310198
-39.189899 -4.7344899 10.1494
-39.284698 -4.7330499 9.9118204
-39.259499 -4.6045299 10.0536
-39.354099 -4.6268201 9.8066902
-39.095001 -4.9675298 10.1404
-39.1973 -4.9201698 9.9231997
-39.3158 -4.8248901 9.7551403
-39.3955 -4.90627 9.5882301
-39.375301 -4.7613101 9.7087202
-39.472698 -4.8611598 9.51056
-39.453602 -4.6628399 9.5933199
-39.622799 -4.7876902 9.3196096
-39.2924 -4.9782 9.7163496
-39.466999 -5.09062 9.4219999
-39.524899 -5.3194499 9.28016
-39.553501 -5.0717902 9.3273201
-39.612999 -5.3259501 9.1768799
-39.6926 -5.0759301 9.1665201
-39.7411 -5.35706 9.0242901
-39.350201 -5.1399102 9.5720301
-39.403999 -5.3256402 9.4421997
-39.249401 -5.6325898 9.6444197
-39.3069 -5.7088699 9.5408401
-39.316002 -5.5246201 9.5353699
-39.340199 -5.6296902 9.48421
-39.547401 -5.5417399 9.2089996
-39.533199 -5.73173 9.2187204
-39.632401 -5.5686898 9.1061401
-39.612099 -5.7741699 9.1248398
-39.748402 -5.62187 8.9621096
-39.715801 -5.84899 8.9930696
-39.430801 -5.5117998 9.3679199
-39.428501 -5.67381 9.3578501
-39.649899 -6.0188498 9.1142998
-39.5574 -5.9274101 9.2303896
-39.486698 -5.8735199 9.3077803
-39.394402 -5.7952499 9.4202299
-39.875599 -2.2439799 8.6315699
-39.900002 -2.4021001 8.6215801
-39.987099 -2.16169 8.3741102
-40.125099 -2.3252399 8.2539396
-40.278198 -2.08078 7.9337401
-40.3829 -1.88738 7.6883502
-40.1068 -2.01088 8.0797195
-40.2094 -1.85031 7.8263102
-40.434399 -1.71802 7.5724702
-40.442699 -1.55722 7.5727701
-40.263599 -1.7046601 7.6995902
-40.273701 -1.56891 7.6897898
-39.646198 -1.5203 9.3645601
-39.682598 -1.36687 9.2878399
-39.632599 -1.49178 9.4742098
-39.676601 -1.3097301 9.3918505
-39.7145 -1.34124 9.1083097
-39.777199 -1.3094701 8.9467297
-39.732399 -1.2849801 9.1704702
-39.8167 -1.24006 8.9724302
-39.750999 -1.1989 9.2586899
-39.920502 -1.08764 9.00776
-39.738098 -1.38353 8.9388504
-39.7243 -1.5908 8.7833099
-39.793701 -1.5797499 8.58957
-39.757301 -1.48344 8.7500095
-39.830299 -1.47855 8.5465803
-39.871601 -1.29357 8.6850405
-39.9758 -1.2894 8.39956
-39.927299 -1.2220401 8.6710997
-40.043301 -1.22057 8.3549604
-40.057701 -1.09799 8.6310797
-40.185501 -1.11059 8.2919197
-39.813 -1.3800499 8.7135
-39.900501 -1.3767 8.4719496
-40.061798 -1.31192 8.1626101
-40.125999 -1.36929 7.9814501
-40.136501 -1.2526799 8.0994596
-40.205002 -1.32491 7.90661
-40.289501 -1.16241 8.0223303
-40.367599 -1.26003 7.8154001
-39.9034 -1.47958 8.3502703
-39.9631 -1.4843301 8.2025204
-39.977901 -1.39073 8.2597799
-40.037899 -1.4296401 8.0943203
-40.1698 -1.46354 7.8512602
-40.2519 -1.43653 7.7658701
-40.418999 -1.3984801 7.6609902
-39.966801 -1.54238 8.1707401
-40.072701 -1.50252 7.98949
-39.8745 -1.56477 8.3780098
-39.492901 -0.28249899 9.9667501
-39.556198 -0.388051 9.9049797
-39.5611 -0.19162899 9.8074198
-39.7085 -0.27572501 9.66366
-39.773201 -0.085910998 9.5071096
-39.819401 0.071165003 9.3850803
-39.6194 -0.069062002 9.6619301
-39.669998 0.059409 9.5387802
-39.845001 0.219473 9.3195896
-39.843498 0.35299501 9.3283005
-39.703098 0.18605401 9.4633398
-39.711102 0.29970399 9.4546003
-39.235199 0.18942399 10.9801
-39.2467 0.336427 10.8655
-39.258801 0.20384499 11.0888
-39.275002 0.379356 10.9634
-39.274601 0.16487899 11.297
-39.315201 0.39403799 11.2353
-39.216702 0.23467299 10.7891
-39.258301 0.44309899 10.6639
-39.3386 0.50003499 10.3908
-39.290501 0.50799102 10.726
-39.372398 0.569556 10.4268
-39.341301 0.581626 10.8553
-39.423698 0.665645 10.5027
-39.226299 0.338285 10.5951
-39.299 0.40258101 10.3582
-39.414398 0.50787801 10.1655
-39.481098 0.48907101 9.9863701
-39.455799 0.57493401 10.1785
-39.527802 0.54837197 9.9790602
-39.523102 0.68011099 10.2096
-39.6091 0.654293 9.9727201
-39.368698 0.42183501 10.1563
-39.4403 0.419539 9.97931
-39.533001 0.45705599 9.8386602
-39.583 0.418329 9.70471
-39.5919 0.51013398 9.8017902
-39.6483 0.46000499 9.6452703
-39.687599 0.60850102 9.7601299
-39.757 0.544927 9.5717297
-39.811798 0.46107399 9.4194498
-39.690498 0.390836 9.5220299
-39.617298 0.35762599 9.5985098
-39.528 0.32304001 9.7126598
-39.500301 0.38113499 9.8134203
-38.951599 -4.3105502 11.3327
-38.926601 -4.2711501 11.3919
-38.894699 -4.2323499 11.4546
-38.929401 -4.4072399 11.4899
-38.901199 -4.3500299 11.5665
-38.8699 -4.29985 11.6049
-39.16 -0.92399102 12.1661
-39.135399 -1.02852 12.1344
-39.105598 -1.09377 12.1114
-39.197399 -0.845074 11.7287
-39.152599 -1.00735 11.845
-39.1189 -1.07648 11.8638
-39.0144 -3.64363 11.447
-39.0131 -3.52876 11.4967
-38.993301 -3.44399 11.5194
-39.0107 -3.54373 12.1141
-39.005901 -3.4826 12.1095
-38.9851 -3.40485 12.0914
-38.942902 -3.45786 12.737
-38.950298 -3.3735199 12.6882
-38.935902 -3.30913 12.6355
-38.849998 -3.74599 12.9694
-38.8508 -3.75577 12.8796
-38.844799 -3.75912 12.7845
-38.880001 -3.57003 12.9413
-38.881302 -3.60886 12.8389
-38.869999 -3.6375 12.7444
-38.9412 -3.53688 12.6146
-38.918098 -3.5860701 12.5467
-38.820599 -3.2255099 13.3076
-38.823399 -3.1264999 13.2695
-38.832699 -3.09129 13.1561
-38.7882 -3.07705 13.4174
-38.789799 -2.98667 13.3804
-38.806 -2.9625599 13.2553
-38.764702 -2.8267701 13.4698
-38.782902 -2.8263099 13.406
-38.7962 -2.82236 13.2935
-38.880402 -2.39713 13.3279
-38.869701 -2.50407 13.2837
-38.8755 -2.5343599 13.1688
-38.9687 -2.2478199 13.1012
-38.9562 -2.3484199 13.0587
-38.944 -2.3944199 12.9679
-39.0597 -2.09764 12.7433
-39.050701 -2.1909699 12.6939
-39.025799 -2.2512 12.643
-39.159302 -1.8571399 11.5355
-39.141701 -1.79952 11.6576
-39.115002 -1.75168 11.7078
-39.135601 -1.99017 12.1597
-39.126202 -1.9354 12.1532
-39.1017 -1.8688 12.1395
-39.073601 -1.99657 12.6182
-39.061798 -1.92468 12.5482
-39.1091 -3.4142799 10.7029
-39.057201 -3.25016 10.8314
-39.029598 -3.1909399 10.9329
-39.0368 -3.55987 11.0463
-39.025398 -3.4386799 11.088
-39.0009 -3.36254 11.1535
-38.992401 -3.5934401 12.1062
-38.9562 -3.6398399 12.0955
-38.986801 -3.71439 11.5618
-38.951401 -3.7488 11.6156
-39.212399 -2.0090499 10.7208
-39.1497 -2.1368599 10.8673
-39.116199 -2.1863201 10.9742
-39.254601 -2.3590901 10.4798
-39.1833 -2.3919699 10.6282
-39.105999 -2.40574 10.8041
-39.256401 -2.7033899 10.3863
-39.191002 -2.68606 10.5207
-39.102901 -2.6719501 10.7102
-39.1213 -2.04691 12.1518
-39.089802 -2.1145799 12.1326
-39.1418 -1.95521 11.5777
-39.110901 -2.0265 11.5954
-39.186699 -1.51354 11.2309
-39.1577 -1.51366 11.3425
-39.126202 -1.5146101 11.4333
-39.1726 -1.68371 11.29
-39.1469 -1.65425 11.4059
-39.116901 -1.63254 11.4922
-39.0224 -1.96569 12.9459
-39.035099 -1.90514 12.8345
-39.030399 -1.85487 12.7359
-39.021801 -1.77438 12.9898
-39.030602 -1.7458301 12.8911
-39.027199 -1.7238899 12.7885
-39.195499 -1.19146 11.3732
-39.1647 -1.22934 11.4628
-39.1311 -1.25156 11.5324
-39.194801 -1.3451999 11.2655
-39.164001 -1.37084 11.3686
-39.129501 -1.38411 11.4601
-38.837898 -4.11238 12.8116
-38.832699 -4.0788102 12.7404
-38.820499 -4.0562401 12.6594
-38.839001 -3.93367 12.9181
-38.837399 -3.92029 12.8366
-38.828999 -3.9090199 12.7389
-39 -3.83023 11.1992
-38.969398 -3.8641601 11.2976
-38.934799 -3.8689301 11.3864
-38.9888 -4.0180898 11.1579
-38.960098 -4.0163698 11.2458
-38.927799 -3.99613 11.3353
-38.823601 -2.5666499 13.418
-38.812199 -2.6607001 13.381
-38.823101 -2.67816 13.2644
-39.173302 -1.89386 11.1122
-39.1465 -1.99165 11.1597
-39.112499 -2.05671 11.2242
-39.206001 -3.04598 10.4698
-39.140598 -2.98051 10.6088
-39.059399 -2.94471 10.7865
-38.876202 -3.3434899 13.0904
-38.8787 -3.25161 13.0535
-38.8745 -3.2011299 12.962
-39.038399 -1.59201 12.9623
-39.041 -1.59306 12.8731
-39.034199 -1.58305 12.7626
-39.195099 -1.04241 11.5171
-39.160099 -1.09872 11.6229
-39.125 -1.1402 11.6701
-38.841099 -4.2693 12.6532
-38.833099 -4.2164502 12.5939
-38.816898 -4.1751599 12.5317
-38.836601 -3.7253799 13.0985
-38.8078 -3.6877999 13.2569
-38.830799 -3.9493899 13.0278
-38.8106 -3.9593401 13.1688
-38.833302 -4.1624198 12.9078
-38.819801 -4.22051 13.0338
-38.973202 -4.1844001 11.2115
-38.946602 -4.1564798 11.2854
-38.912701 -4.1215501 11.3727
-39.074902 -2.1359701 11.5865
-39.039501 -2.28725 11.5674
-39.076401 -2.2209599 11.1998
-39.0625 -2.42998 11.0666
-39.022202 -2.47721 11.4862
-39.043301 -2.67257 10.9954
-39.004601 -2.6943099 11.4319
-39.016998 -2.9282899 11.0405
-38.980202 -2.9230399 11.4547
-38.992199 -3.16905 11.1469
-38.9631 -3.1384699 11.5117
-38.973801 -3.3131001 11.5189
-38.958199 -3.2800901 12.0616
-38.9417 -3.1177599 12.0299
-38.915401 -3.2135899 12.5891
-38.901299 -3.0913799 12.5401
-38.860401 -3.08689 12.9155
-38.8484 -2.9533601 12.9794
-38.902302 -2.94326 12.5595
-38.8466 -2.80983 13.0104
-38.910702 -2.7818899 12.5788
-38.869701 -2.6614699 12.9909
-38.930199 -2.61817 12.5775
-38.9076 -2.5132899 12.9303
-38.955002 -2.46469 12.5661
-38.989201 -2.34483 12.6078
-39.0467 -2.2255001 12.1061
-39.007099 -2.37325 12.0729
-39.021599 -1.71161 12.6273
-39.022701 -1.67441 12.3911
-39.025101 -1.55269 12.5785
-39.019402 -1.50828 12.3379
-39.0383 -1.40211 12.5244
-39.031101 -1.35271 12.3063
-39.057999 -1.24883 12.3313
-39.069199 -1.17974 12.0831
-39.037998 -1.30111 12.0648
-39.085999 -1.15959 11.8445
-39.056702 -1.27238 11.8357
-39.092201 -1.25529 11.6588
-39.0872 -1.39816 11.6113
-39.048302 -1.42246 11.8222
-39.0895 -1.5363899 11.5797
-39.0564 -1.5707 11.8075
-39.084599 -1.6765701 11.7557
-39.066898 -1.76596 12.1219
-39.0364 -1.62796 12.0994
-39.041 -1.8146 12.476
-38.891499 -3.93852 11.4899
-38.861 -3.8703499 11.7423
-38.868801 -4.0651898 11.5311
-38.830399 -4.00003 11.7651
-38.852798 -4.18997 11.5855
-38.816898 -4.1382499 11.7829
-38.8302 -4.25032 11.7949
-38.813099 -4.2224698 12.067
-38.8008 -4.0961599 12.0521
-38.806301 -4.1788702 12.3316
-38.797199 -4.0606999 12.3181
-38.806198 -4.0538602 12.5197
-38.817299 -3.9005599 12.5774
-38.809898 -3.9082401 12.346
-38.8395 -3.7478299 12.6332
-38.839199 -3.7606699 12.3932
-38.879799 -3.65798 12.4751
-38.903099 -3.70402 12.0849
-38.849098 -3.8013999 12.072
-38.9076 -3.79649 11.6765
-38.986301 -2.54795 12.0381
-38.969898 -2.7376599 12.0122
-38.950699 -2.9319601 12.0111
-39.026402 -1.4615999 12.075
-38.8134 -3.9437799 12.0572
-42.105499 1.16669 13.8331
-42.6315 1.18795 13.4803
-43.078999 1.12937 13.1607
-41.175201 0.873945 14.1215
-40.626598 0.61121398 14.1676
-40.109699 0.29207101 14.1923
-39.6964 -0.042523999 14.1703
-39.306999 -0.47234601 14.1285
-39.742298 0.023832999 13.9329
-40.167099 0.46459401 13.6815
-40.1591 0.360944 13.9765
-43.7486 0.76475602 12.6495
-43.970001 0.49614799 12.4427
-44.1133 0.23207401 12.2284
-43.4394 0.98511702 12.8813
-44.703701 -0.63327199 11.8132
-44.924301 -0.859779 11.6947
-45.1353 -1.1092 11.565
-44.274502 -0.19970401 11.7564
-44.485298 -0.416991 11.8669
-44.109001 -6.61871 12.0215
-43.866901 -6.8188701 12.1818
-43.548 -6.9621 12.3199
-45.5812 -3.38186 11.0993
-45.6483 -3.6805 11.1232
-45.669998 -3.9995 11.1038
-45.396599 -2.89487 10.9462
-45.487499 -3.1312301 11.1119
-42.723 -7.1016002 12.7853
-42.319901 -7.1055698 13.084
-41.8764 -7.0799499 13.3854
-43.156502 -7.0464702 12.5645
-45.608398 -4.3030801 11.1902
-45.466801 -4.5907798 11.2572
-41.407902 -7.007 13.8153
-41.0448 -6.9036398 14.0949
-40.6586 -6.7351499 14.2113
-40.2071 -6.47223 14.2919
-38.3503 -2.8794 14.3184
-38.404499 -2.2813599 14.2909
-38.579601 -1.69144 14.2516
-38.665699 -4.12396 14.3333
-38.455898 -3.49019 14.3374
-39.406101 -5.53023 14.225
-38.984001 -4.7990499 14.3024
-44.2062 0.0042440002 12.074
-45.4813 -2.44647 11.21
-45.435501 -2.7019999 11.1651
-45.4506 -1.71782 11.3347
-45.493401 -2.10077 11.2981
-45.3204 -1.39319 11.4527
-44.977402 -5.0996799 11.5462
-44.712002 -5.31604 11.617
-44.460701 -5.5297198 11.5245
-45.241901 -4.8555999 11.4178
-40.656799 0.70841002 13.8779
-40.617802 0.82580298 13.5122
-41.1273 0.98089403 13.736
-40.983398 1.0990601 13.2758
-41.260101 1.2781301 12.9729
-41.732201 1.35796 12.4502
-41.520199 1.16664 13.5212
-41.959599 1.26459 13.1245
-41.6814 1.05799 14.0336
-40.426601 1.33244 12.1025
-40.298 1.0743901 12.5768
-40.138699 0.81900799 12.8959
-40.130299 1.29893 11.6894
-40.021999 1.09355 12.2011
-39.954899 0.83892798 12.5699
-39.9286 1.23816 11.3331
-39.826302 1.05472 11.8511
-39.744598 0.81549603 12.3023
-38.964001 -1.30732 13.6121
-39.012798 -1.27334 13.4623
-39.033798 -1.2657501 13.3254
-39.125 -0.89804697 13.4981
-39.1474 -0.85546601 13.3196
-39.138 -0.85478503 13.1648
-39.301102 -0.47320801 13.3382
-39.280499 -0.443041 13.1358
-39.232399 -0.41802999 12.9245
-39.318901 -0.061432999 12.7456
-39.3741 0.21255299 12.5396
-39.395802 -0.074266002 12.9344
-39.485802 0.243599 12.7015
-39.463699 -0.080209002 13.1367
-39.597099 0.26367399 12.8976
-40.181198 1.3200001 10.7449
-40.4217 1.33407 10.2438
-40.403301 1.39677 11.0269
-40.676701 1.4246401 10.467
-40.672501 1.45006 11.2747
-40.937 1.4846801 10.7025
-41.146 1.49965 10.9936
-41.364601 1.48141 11.3257
-40.906799 1.44278 11.7218
-39.772999 1.14906 11.0597
-39.637402 1.01529 10.8429
-39.986801 1.21759 10.5256
-39.8097 1.06835 10.3732
-40.183399 1.2174 10.0814
-39.962002 1.05609 9.9904804
-39.676102 0.98493099 11.5724
-39.594799 0.76464301 12.0513
-39.548901 0.87632298 11.3251
-39.490501 0.68004698 11.7897
-39.397301 0.55397397 11.5012
-39.4328 0.72544599 11.0689
-39.5159 0.83281702 10.6494
-39.691399 0.55492198 12.6229
-39.5378 0.51942599 12.4254
-39.424702 0.45723701 12.2145
-39.292099 -0.51577699 13.5528
-39.515099 -0.090916999 13.3602
-39.7015 0.274398 13.1269
-39.2658 -0.546947 13.7585
-39.558701 -0.091118999 13.5799
-39.796101 0.28523901 13.3594
-40.7439 1.21934 12.7358
-40.507198 0.969778 13.0516
-40.227299 0.699714 13.2722
-39.9296 0.343088 13.5329
-39.980701 0.56997401 13.1523
-40.655102 1.30475 9.7966805
-40.878201 1.22438 9.3791199
-40.956402 1.4087 9.9811001
-41.23 1.33918 9.5336704
-41.260201 1.47471 10.2202
-41.586498 1.41186 9.7652597
-41.931301 1.43682 10.0692
-42.252602 1.42128 10.4571
-41.546398 1.49546 10.5153
-41.817501 1.4790699 10.8814
-41.083599 1.08374 8.9835396
-41.254501 0.89936697 8.6608601
-41.482601 1.20446 9.1062899
-41.683899 1.0196 8.74611
-41.887199 1.28391 9.3285599
-42.117599 1.09971 8.9494104
-42.540401 1.12449 9.2721701
-42.927502 1.09772 9.7172699
-42.277401 1.31146 9.6472502
-42.6362 1.29267 10.0661
-40.370098 1.16939 9.6822004
-40.104698 0.99581099 9.6486197
-40.546101 1.0755399 9.3101501
-40.2379 0.89772701 9.3353004
-41.380901 0.69704598 8.4558401
-41.486099 0.51404798 8.3329296
-41.809502 0.81213301 8.5021
-41.875099 0.63299799 8.36516
-42.242901 0.87949002 8.6638899
-42.278 0.66861701 8.4498196
-40.707001 0.93537402 8.9651804
-40.357201 0.76846403 9.0550804
-40.841499 0.757532 8.6929102
-40.452099 0.60690701 8.8439703
-40.5243 0.41415501 8.7282
-40.633301 0.20712601 8.6603203
-40.948799 0.56047797 8.5292301
-41.0765 0.39302301 8.4267197
-39.760799 0.84486502 9.9656496
-39.866199 0.78824502 9.6925297
-39.962101 0.704364 9.44695
-39.647099 0.865704 10.2713
-42.539299 1.37512 10.9462
-42.774502 1.30641 11.5637
-42.063202 1.43433 11.3578
-42.276798 1.36818 11.9609
-41.548599 1.43001 11.8316
-43.253101 1.0303299 10.2869
-43.5005 0.942774 10.9777
-42.9468 1.23801 10.5926
-43.1908 1.16085 11.2426
-40.1021 0.46240199 9.0931101
-40.129299 0.297405 9.0397301
-40.135399 0.115531 9.06744
-40.443901 -0.296377 8.9089804
-40.945801 -0.155692 8.5236397
-41.417198 -0.043832999 8.2877703
-40.526798 -0.041365001 8.7895603
-40.990601 0.029139999 8.4762001
-41.451698 0.116307 8.2788296
-41.090099 0.219494 8.4054403
-41.511799 0.28497601 8.2639303
-40.043999 0.59722 9.2374001
-42.679501 0.894485 8.9629898
-42.682899 0.67633402 8.6956301
-43.090199 0.85005802 9.4043798
-43.108398 0.58051902 9.0686798
-43.519001 0.50252402 9.7909002
-43.7901 0.40206501 10.5578
-43.436199 0.77086103 10.0199
-43.691002 0.67486799 10.7508
-42.4146 0.55813801 8.3944798
-42.322601 0.430298 8.3087702
-42.721901 0.49280599 8.5678596
-41.707802 -0.377482 7.7418299
-41.264 -0.50630498 7.8463202
-40.858601 -0.68585497 8.0010595
-41.863098 -0.53807199 7.5020499
-41.414299 -0.653817 7.5830498
-41.000198 -0.80928302 7.7182899
-42.013199 -0.76744002 7.2884898
-41.553299 -0.86961597 7.3538299
-41.120098 -0.99676698 7.4794698
-41.216099 -1.2337 7.2764101
-41.3549 -1.50144 7.0999298
-41.676498 -1.1269799 7.1591201
-41.828098 -1.3651201 7.0057101
-42.146301 -1.0388 7.11164
-42.270901 -1.2974401 6.9753499
-42.530102 -0.69193798 7.2916899
-43.0868 -0.64856899 7.4176698
-42.377399 -0.456099 7.4992099
-42.926701 -0.40593499 7.6217098
-42.213001 -0.288055 7.72719
-42.7458 -0.231328 7.8414502
-42.5844 -0.126791 8.0320101
-42.469101 -0.056423001 8.1652403
-42.065601 -0.19336601 7.9415598
-41.9604 -0.13166399 8.0994501
-41.566101 -0.292431 7.98632
-41.462502 -0.237224 8.1777201
-43.648102 -0.64362502 7.7242999
-44.1558 -0.68303502 8.2368002
-43.4641 -0.38931599 7.9180999
-43.9398 -0.41914099 8.4177599
-43.259399 -0.205824 8.1220198
-43.708599 -0.22661901 8.60184
-43.502399 -0.103652 8.7413101
-43.353199 -0.020215999 8.8309498
-43.075802 -0.091471002 8.28899
-42.943501 -0.013483 8.4017
-42.646099 -0.96697497 7.1318598
-42.7192 -1.20663 7.0278201
-43.188301 -0.93801701 7.2631102
-43.215401 -1.21469 7.1314702
-40.476101 -0.91156203 8.1647596
-40.5994 -0.99835902 7.8824701
-40.696499 -1.14021 7.6553202
-41.121498 -0.43147799 8.1302299
-41.0135 -0.378187 8.3650303
-40.7169 -0.62581998 8.3191605
-40.607498 -0.57240498 8.5963001
-40.2355 -0.82635599 8.8124399
-40.342499 -0.87385398 8.4985504
-44.558201 -0.766729 8.9519796
-44.849602 -0.87062198 9.7868404
-44.314098 -0.50298798 9.1233501
-44.594898 -0.61653101 9.9469204
-44.060799 -0.30419499 9.2888899
-44.334599 -0.41443899 10.0945
-44.106602 -0.27111199 10.1715
-43.939499 -0.17264099 10.1756
-43.8391 -0.173594 9.3959799
-43.680698 -0.086007997 9.45152
-43.763599 -0.95035303 7.57442
-43.7523 -1.24238 7.4180298
-44.308899 -1.01284 8.0879898
-44.325199 -1.40145 7.88515
-44.863998 -1.46262 8.7261
-45.192101 -1.53133 9.5913601
-44.752102 -1.08687 8.8255501
-45.059299 -1.17029 9.67101
-41.208801 -2.00862 7.1373401
-41.134201 -2.24862 7.2679601
-41.062199 -2.4688001 7.3965001
-41.699799 -2.0485101 6.9358401
-41.617401 -2.28318 7.0359998
-41.542999 -2.4783599 7.1405702
-42.219299 -2.0687301 6.8346801
-42.131302 -2.29059 6.9164901
-42.0504 -2.46662 7.0094299
-43.373798 -2.0871401 6.9839401
-43.364799 -1.81919 7.0009198
-43.286201 -1.56216 7.0268102
-42.786201 -2.0778 6.8337302
-42.811501 -1.83342 6.8421798
-42.803101 -1.6277601 6.8864298
-42.279099 -1.8282501 6.8263602
-42.328098 -1.6084 6.8621302
-42.711201 -2.2978201 6.8944802
-42.631599 -2.46841 6.9711199
-43.3125 -2.31248 7.02424
-43.236099 -2.4820199 7.0823398
-44.4561 -2.1559501 7.8970799
-44.466099 -1.8157901 7.9138999
-43.944199 -2.109 7.3368201
-43.934601 -1.81147 7.3538499
-43.807499 -1.5196 7.3450198
-41.765499 -1.8065799 6.9064898
-41.860699 -1.58875 6.9214201
-41.263401 -1.7663 7.0837402
-40.800701 -1.53403 7.35849
-40.7854 -1.73997 7.34059
-40.739899 -1.94731 7.4266601
-40.7603 -1.3266 7.4756899
-44.873299 -2.23385 8.6421804
-45.1847 -2.3219399 9.4870501
-44.911999 -1.8755 8.6745996
-45.227798 -1.94996 9.5289698
-43.389 -1.38319 7.1195102
-43.8773 -2.33884 7.3632698
-43.797798 -2.5009401 7.40662
-44.373901 -2.3870299 7.9124799
-44.2897 -2.5362599 7.9423699
-43.331799 -3.1837699 6.9035501
-43.281898 -2.9273601 6.9916401
-43.2206 -2.7348101 7.07476
-42.7328 -3.1576099 6.7688198
-42.673401 -2.9042399 6.8707199
-42.614601 -2.71472 6.9647799
-42.1534 -3.14906 6.77737
-42.086498 -2.89854 6.8951702
-42.031502 -2.71311 7.0011201
-41.123699 -3.2400501 7.0655298
-41.170898 -3.5238099 6.9359899
-41.263199 -3.8549299 6.8440499
-41.621899 -3.17314 6.8715601
-41.681301 -3.46609 6.7678299
-41.783199 -3.75015 6.70052
-42.208199 -3.4454999 6.6992302
-42.262798 -3.7306001 6.6629701
-44.445599 -3.2481401 7.7955799
-44.3708 -2.9760101 7.8603401
-44.290199 -2.77929 7.9236398
-43.912899 -3.2144101 7.24336
-43.856098 -2.9496 7.3200202
-43.787498 -2.75366 7.3936801
-42.754902 -3.44821 6.70964
-42.7495 -3.69789 6.6938801
-43.318901 -3.48329 6.8523002
-43.242199 -3.7673399 6.8120599
-40.655899 -3.3478401 7.3595099
-40.692699 -3.58922 7.2165599
-40.7048 -3.8482699 7.1567602
-41.003799 -4.3941598 7.0633402
-41.459301 -4.48103 6.9089899
-41.9543 -4.5530801 6.8524899
-41.111099 -4.1588502 6.9171
-41.5923 -4.2474098 6.7663798
-42.090401 -4.31986 6.72506
-41.753201 -4.0108299 6.6995802
-42.214901 -4.0868602 6.67241
-41.564602 -2.9312899 7.0086799
-41.5205 -2.7505 7.1277699
-41.074299 -3.01108 7.23419
-41.034401 -2.82252 7.3804402
-40.531101 -2.91783 7.7857199
-40.5924 -3.1329999 7.5776801
-43.894699 -3.5299001 7.1958899
-43.763901 -3.82797 7.1245999
-44.4473 -3.5924101 7.7511601
-44.297401 -3.9934499 7.6630702
-44.9128 -4.02144 8.51336
-45.327499 -4.0304098 9.3718204
-44.947498 -3.63146 8.5095301
-45.3255 -3.6587701 9.3584299
-44.9021 -3.2858601 8.5370998
-45.254799 -3.32515 9.3803101
-45.1465 -3.05879 9.4094896
-45.040798 -2.8701601 9.4101105
-44.8074 -3.01421 8.5869999
-44.713799 -2.8215599 8.6319304
-43.347599 -3.9595201 6.8647199
-43.174702 -4.1367898 6.84448
-43.706799 -4.1144199 7.1550002
-41.7976 -4.7378101 7.0797
-41.632 -4.8707299 7.3646302
-42.491402 -4.6144199 6.8825598
-42.337502 -4.8165598 7.0760298
-42.1647 -4.9712801 7.3165498
-43.049599 -4.6685901 7.0500998
-42.893902 -4.8917298 7.2127099
-42.708698 -5.0650301 7.4120002
-43.217999 -5.1470399 7.72223
-43.686501 -5.2064099 8.2613897
-43.426201 -4.96208 7.5523601
-43.928101 -5.01437 8.1063604
-43.605202 -4.7168899 7.4094
-44.143299 -4.7520499 7.9698801
-43.147999 -4.4000401 6.93645
-42.605499 -4.3748398 6.7680001
-42.675701 -4.1622801 6.7211499
-41.313 -4.6515899 7.1623998
-40.881699 -4.54527 7.3199
-41.155998 -4.7628798 7.4837599
-40.740299 -4.6317601 7.6540799
-40.591999 -4.6827698 8.0105801
-40.464802 -4.7308302 8.3127899
-41.003899 -4.8348198 7.8094001
-40.882099 -4.8878798 8.0700197
-41.4757 -4.96134 7.6485901
-41.3535 -5.0253601 7.8724899
-41.9986 -5.0836201 7.5599799
-41.868099 -5.1645298 7.7547002
-42.526402 -5.1957202 7.6205401
-42.381199 -5.2916999 7.7924199
-40.593601 -4.2947898 7.3144598
-40.5037 -4.4152699 7.5425501
-40.386799 -4.4716401 7.85709
-43.013302 -5.2858901 7.9039102
-42.8498 -5.3880701 8.0564899
-43.4538 -5.3471198 8.4229498
-43.2696 -5.4488902 8.5571404
-40.1758 -6.1827302 8.48417
-40.052502 -6.40804 8.6771297
-39.900799 -6.5602002 8.9754295
-40.514198 -6.3400402 8.3129396
-40.354599 -6.5698199 8.5531397
-40.170799 -6.7308698 8.9003201
-40.894199 -6.4725199 8.2318497
-40.702999 -6.6956301 8.5165796
-40.4897 -6.8565302 8.9029999
-41.704601 -6.6968598 8.3439398
-41.8843 -6.4285498 8.1104298
-41.996899 -6.1624799 7.94699
-41.293098 -6.59131 8.2262602
-41.467999 -6.3345699 8.0233498
-41.593899 -6.1075702 7.92313
-41.066299 -6.2080302 8.0570202
-41.227001 -5.9579 7.9623899
-41.081299 -6.8101401 8.5443602
-40.842201 -6.9663801 8.9563503
-41.478001 -6.9148002 8.6776695
-41.2192 -7.06391 9.0949001
-42.583199 -6.8496699 9.1101198
-42.800301 -6.5490599 8.8543701
-42.897202 -6.1865602 8.5944796
-42.130402 -6.7858801 8.6362495
-42.3255 -6.5040898 8.3828602
-42.409401 -6.2199402 8.17064
-40.662601 -6.0606399 8.1710596
-40.833 -5.8092098 8.0818796
-40.285702 -5.8892002 8.3811598
-40.429901 -5.5636401 8.3255396
-39.997601 -5.4349699 8.7190304
-39.965199 -5.7355499 8.6888399
-39.9039 -6.0006099 8.7476797
-40.3498 -4.9605999 8.5394001
-39.955799 -4.8634901 8.9178104
-40.361 -5.2129798 8.4647198
-39.970798 -5.1301699 8.83916
-41.1777 -5.7613201 7.9583802
-41.307899 -5.63276 7.9362998
-40.881699 -5.5566902 8.0831003
-43.064499 -6.8764801 9.7476597
-43.516399 -6.8470998 10.478
-43.2929 -6.5810099 9.5360804
-43.736 -6.55862 10.3123
-43.431099 -6.2435498 9.3892899
-43.8573 -6.2309299 10.2064
-43.863098 -5.9147902 10.1591
-43.8246 -5.67522 10.1179
-43.481098 -5.9272499 9.3587599
-43.4827 -5.6862102 9.3535299
-43.058102 -5.8860302 8.6478901
-43.107498 -5.6606598 8.6604004
-42.6954 -5.5895 8.1733398
-42.2439 -5.4791002 7.9207902
-42.632301 -5.78127 8.1610498
-42.189899 -5.6568999 7.91013
-42.507401 -5.9832301 8.1042204
-42.1143 -5.8519101 7.8750901
-42.176498 -6.0268202 7.9092598
-41.888401 -7.0039001 8.9637899
-41.615101 -7.14502 9.36168
-42.324402 -7.0665002 9.4118605
-42.033401 -7.20046 9.7715902
-40.254902 -6.9481502 9.36903
-40.009899 -6.9828701 9.8754501
-40.584599 -7.05123 9.4335699
-40.312099 -7.07692 9.95261
-40.939499 -7.1389298 9.5700197
-40.638 -7.15275 10.0909
-38.869701 -1.42783 13.7712
-39.060501 -0.97867298 13.6904
-38.742001 -1.67163 13.9535
-38.9856 -1.06802 13.8833
-38.7243 -2.0362501 13.7537
-38.830399 -1.67299 13.6997
-38.7141 -1.91221 13.857
-39.267399 -0.53978801 13.9424
-38.930901 -1.09245 14.0501
-38.869202 -1.10209 14.2011
-38.663898 -1.67778 14.1155
-41.027401 1.37305 12.3606
-42.942699 1.22298 12.3211
-42.4491 1.28556 12.6948
-43.6605 0.85371399 11.7782
-43.353699 1.07406 12.0214
-43.9795 0.31490901 11.3845
-43.861198 0.58629698 11.5714
-43.220299 0.343463 9.0052299
-43.251701 0.17188901 8.9309702
-43.565601 0.27151999 9.6445704
-43.5811 0.100295 9.5429201
-43.833698 0.169681 10.3958
-43.8442 0.002723 10.2561
-44.0425 0.081377 11.2073
-44.0546 -0.087453 10.9658
-45.037899 -0.97601497 10.6584
-44.798 -0.73444003 10.8017
-44.5522 -0.52847999 10.9316
-44.326199 -0.35874999 10.9857
-44.136002 -0.222748 10.901
-45.242298 -1.25718 10.5498
-45.377399 -1.6029201 10.4668
-45.386501 -2.3961599 10.3483
-45.418301 -2.01947 10.4051
-44.781601 -2.46316 8.6432505
-44.696098 -2.5975499 8.6540003
-45.0952 -2.5508499 9.46597
-45.009998 -2.6716399 9.4326801
-45.313 -2.6321299 10.2973
-45.2299 -2.75684 10.1585
-45.572498 -4.0150099 10.2354
-45.558601 -3.67309 10.2275
-45.481899 -3.36113 10.239
-45.371899 -3.0999999 10.2424
-45.252998 -2.8990099 10.1415
-44.2901 -4.4061699 7.8442502
-44.823299 -4.4156199 8.5973997
-44.6441 -4.7644701 8.7128696
-45.2379 -4.40517 9.4395304
-45.054001 -4.7438102 9.5547504
-45.495499 -4.3617501 10.3036
-45.325298 -4.6831999 10.4111
-44.4855 -5.2206302 9.8521996
-44.780399 -5.1719799 10.6944
-44.787201 -5.0146599 9.70156
-45.0718 -4.9527402 10.5561
-43.7174 -4.4123802 7.2919102
-44.113998 -5.2323198 9.0075397
-44.393799 -5.0342798 8.8544998
-43.851101 -5.3751602 9.1524801
-43.644501 -5.47509 9.2638397
-44.2024 -5.3722701 9.9758701
-43.9743 -5.4760098 10.0412
-44.4963 -5.3461099 10.7851
-44.237499 -5.4772201 10.7524
-43.874802 -6.7509198 11.2347
-44.080502 -6.4662099 11.1125
-44.301998 -6.3283801 11.9472
-44.190899 -6.1511698 11.0206
-44.417599 -6.0278602 11.8312
-44.451199 -5.75915 11.7649
-44.1945 -5.8541498 10.9512
-44.1371 -5.6300998 10.8054
-42.789001 -7.0897002 10.0091
-42.471199 -7.21943 10.3199
-43.232101 -7.0581799 10.6925
-42.892502 -7.1894999 10.9513
-43.598499 -6.96242 11.4073
-43.257801 -7.1016502 11.6136
-41.704201 -7.2597399 10.1904
-41.3409 -7.2589598 10.6615
-42.108799 -7.2758298 10.6822
-41.713799 -7.2761898 11.092
-42.503799 -7.2501001 11.2517
-42.0849 -7.2588 11.5936
-41.313 -7.2109699 9.8182602
-40.9813 -7.2151999 10.3256
-38.653198 -3.71087 13.7523
-38.600899 -3.31356 13.7996
-38.573101 -2.8756399 13.8108
-38.645599 -3.86463 13.8586
-38.573898 -3.40307 13.9244
-38.5285 -2.88626 13.9337
-38.6991 -4.1331902 13.9677
-38.548599 -3.49196 14.0527
-38.475201 -2.8894601 14.0593
-38.691799 -4.13974 14.1642
-38.957699 -4.7803102 14.0993
-39.265701 -5.3879299 13.9801
-38.921101 -4.7676902 13.8841
-39.162701 -5.3211999 13.7413
-38.758301 -4.3397398 13.7644
-38.9077 -4.79561 13.6684
-39.065498 -5.2726798 13.5058
-38.790199 -4.4056101 13.5958
-38.881699 -4.7978001 13.4681
-38.970501 -5.2194099 13.2907
-38.7943 -4.3309302 13.324
-38.7705 -3.96102 13.4389
-38.742699 -3.5271599 13.5207
-38.797901 -4.3792901 13.45
-38.7467 -4.0075898 13.56
-38.6982 -3.62744 13.636
-38.714401 -4.0615401 13.6937
-38.507 -3.50545 14.1955
-38.4151 -2.88574 14.1877
-38.5518 -2.2976899 14.0354
-38.4827 -2.27894 14.1637
-39.770302 -6.9730601 10.3856
-39.5546 -6.9108701 10.8925
-40.0336 -7.0568099 10.4935
-39.780602 -6.9875898 11.0463
-40.320702 -7.1202102 10.6447
-40.030701 -7.04566 11.2041
-39.959999 -6.8224702 9.34307
-39.719398 -6.6447701 9.3737097
-39.742001 -6.8590698 9.8263102
-39.5312 -6.6778202 9.8103199
-39.3615 -6.6725202 10.225
-39.216599 -6.6194301 10.6213
-39.538399 -6.8533602 10.2973
-39.360001 -6.7961502 10.7547
-39.814098 -6.2003002 8.8986998
-39.694599 -6.3326001 9.1438999
-42.862202 -7.1747398 11.8657
-42.433201 -7.2005601 12.1491
-40.9534 -7.2122698 11.1695
-40.562599 -7.1247902 11.6721
-41.2994 -7.2358098 11.5423
-40.868301 -7.15481 12.0192
-41.652699 -7.2323198 11.9788
-41.2038 -7.1692801 12.4171
-40.625099 -7.1712599 10.8722
-40.273701 -7.0817099 11.4301
-42.295799 -5.3695102 7.8889699
-41.7565 -5.34196 7.8910599
-41.793201 -5.2339001 7.8608198
-41.2616 -5.1998901 8.01826
-41.285 -5.0872402 7.9914098
-43.161301 -5.5327501 8.63414
-42.753101 -5.4711599 8.1435499
-41.270699 -5.4003 7.98387
-41.735401 -5.5212798 7.87503
-41.7215 -5.7034502 7.8583398
-40.805698 -5.2937999 8.1788502
-40.7883 -5.07231 8.2374496
-40.811901 -4.9492002 8.2103701
-40.383801 -4.81036 8.4931002
-40.1068 -4.5362401 8.5752697
-40.008301 -4.6628299 8.8180799
-39.719898 -4.53478 9.12714
-43.527401 -5.5550699 9.3325996
-43.865299 -5.5499301 10.117
-40.2463 -4.4942198 8.2244997
-43.201801 -2.6043601 7.10535
-42.596901 -2.5884399 7.0002398
-42.015999 -2.58869 7.0426002
-44.2589 -2.6486399 7.95085
-43.764198 -2.6210101 7.4224801
-41.510101 -2.61779 7.1757302
-41.027901 -2.65223 7.4391599
-40.5653 -2.4084401 7.8007498
-40.527302 -2.6682701 7.8576798
-40.107399 -2.6772001 8.3006601
-44.672798 -2.6984899 8.6581697
-44.999199 -2.7600501 9.4514198
-40.655701 -2.16888 7.6119399
-42.413799 0.020808 8.2286596
-42.391701 0.12875099 8.2576599
-41.912701 -0.057146002 8.1718998
-41.9044 0.051876999 8.1937103
-41.415901 -0.16087601 8.2685099
-43.279701 0.060113002 8.8818903
-42.8778 0.066391997 8.4598799
-42.8493 0.17676 8.49963
-40.9604 -0.29135099 8.48804
-40.542999 -0.466573 8.7707195
-40.104698 -0.53274399 9.22328
-39.879501 -0.72134602 9.4382696
-40.188702 -0.69978303 9.0303698
-39.915501 -0.91684997 9.2466497
-42.368401 0.27644399 8.2881203
-41.9114 0.198411 8.2080603
-41.919998 0.334896 8.2285805
-42.814499 0.33126801 8.5492496
-43.6064 -0.0083560003 9.4932899
-43.873402 -0.099831 10.2281
-40.0933 -0.076911002 9.1788301
-40.0378 -0.286127 9.3071299
-39.817101 -0.49800199 9.5663404
-38.890598 -1.67811 13.5665
-38.781101 -2.08076 13.6378
-38.932499 -1.67665 13.4393
-38.8302 -2.13801 13.5194
-38.9016 -1.99595 13.3941
-38.941502 -1.89767 13.2877
-38.967098 -1.6378 13.3218
-38.984901 -1.60524 13.2207
-39.038399 -1.27864 13.2114
-39.033501 -1.31107 13.1141
-38.675598 -2.8463399 13.615
-38.7285 -2.5248799 13.5927
-38.623299 -2.8605199 13.6998
-38.680801 -2.4741199 13.6853
-38.630402 -2.43944 13.7979
-38.790001 -2.4846799 13.5019
-38.7188 -2.8352201 13.5461
-38.651501 -3.2459099 13.6882
-38.6996 -3.16276 13.5962
-39.548 -6.4045801 9.4737301
-39.394798 -6.43191 9.8333797
-39.091499 -6.5047202 11.0295
-39.045399 -6.3275299 11.4355
-39.2061 -6.67415 11.2198
-39.152802 -6.4889498 11.6456
-39.372101 -6.7848902 11.406
-39.301498 -6.59902 11.8648
-39.256401 -6.4267402 10.17
-39.138 -6.3786201 10.484
-39.034901 -6.2723398 10.8075
-38.9697 -6.1004601 11.1963
-40.658901 -4.0962 7.18996
-39.8503 -6.9408498 11.7763
-39.805401 -6.8008699 12.4262
-40.162701 -6.9960499 12.0881
-39.5816 -6.8635898 11.6142
-39.506302 -6.6880202 12.1326
-41.9953 -7.1899099 12.4823
-41.537201 -7.1441698 12.8707
-40.740002 -7.06213 12.9152
-40.411999 -6.9064999 13.343
-41.058998 -7.05442 13.3412
-40.7313 -6.92103 13.7048
-40.424801 -7.0282302 12.5086
-40.111198 -6.8534598 12.9278
-38.846802 -4.7597899 13.3
-38.8843 -5.1515598 13.1048
-38.8186 -4.68958 13.1444
-38.8606 -5.0805302 12.8243
-38.847 -4.8445201 12.7094
-38.848598 -4.66465 12.597
-38.823601 -4.57585 12.982
-38.8326 -4.45929 12.8462
-38.7995 -4.2767801 13.1865
-38.8932 -5.4481001 12.0158
-38.918201 -5.6539698 11.5038
-38.888302 -5.2274299 11.9434
-38.9072 -5.4138298 11.4464
-38.890202 -4.9990602 11.8801
-38.9105 -5.1802902 11.4272
-38.9207 -4.9568901 11.3925
-38.938999 -4.7725501 11.296
-38.897301 -4.7677698 11.8097
-39.0396 -5.6351299 13.0679
-39.133701 -6.0187998 12.7356
-38.9482 -5.5457301 12.8325
-39.0215 -5.9117198 12.502
-38.899101 -5.4705601 12.5918
-38.9505 -5.7940302 12.2987
-38.867599 -4.8341999 12.2763
-38.8661 -5.0465498 12.3639
-38.871799 -5.2789798 12.4257
-38.9114 -5.6268201 12.1508
-39.363998 -5.8055201 13.5334
-39.5186 -6.21031 13.271
-39.195999 -5.72299 13.2858
-39.291302 -6.1161799 13.0126
-39.143501 -0.754592 12.707
-39.0914 -1.0189101 12.9417
-39.138401 -0.91457599 12.5726
-39.098499 -1.12771 12.8068
-39.055801 -1.36251 12.9769
-39.247101 -0.172598 11.6479
-39.2164 -0.35192999 12.0453
-39.237598 -0.38230601 11.56
-39.204399 -0.58623898 11.9233
-39.2384 -0.55751902 11.3981
-39.5896 -2.7067599 9.4070797
-39.498402 -2.9378099 9.6485701
-39.525002 -2.4825799 9.6459799
-39.431 -2.7220399 9.8993998
-39.531799 -2.1072199 9.6984396
-39.555 -1.75753 9.6951103
