# .PCD v.7 - Point Cloud Data file format
VERSION .7
FIELDS x y z
SIZE 4 4 4
TYPE F F F
COUNT 1 1 1
WIDTH 1645
HEIGHT 1
VIEWPOINT 0 0 0 1 0 0 0
POINTS 1645
DATA ascii
-18.547199 -36.684601 104.547
-20.860001 -37.533298 105.507
-19.4056 -37.794601 105.481
-17.7082 -36.453201 104.205
-18.435301 -36.164799 103.996
-16.8626 -36.782101 104.396
-17.5865 -36.428101 104.095
-18.9074 -36.333401 104.169
-19.242901 -36.5 104.416
-18.316799 -36.1022 103.849
-15.6277 -37.666801 105.464
-15.3718 -37.5639 105.392
-16.194201 -37.117001 104.737
-15.434 -38.545502 106.589
-14.8927 -38.338699 106.453
-14.7138 -38.854198 107.348
-14.1066 -38.565201 107.303
-14.3954 -38.125301 106.362
-17.1285 -38.242699 105.983
-16.0166 -38.745899 106.77
-15.3404 -39.1045 107.439
-15.086 -39.2062 108.146
-15.72 -39.4771 108.147
-15.6509 -39.482899 108.852
-15.0947 -39.228699 108.94
-14.503 -38.888699 108.213
-16.038799 -39.663502 108.712
-18.643101 -38.645302 106.07
-18.1875 -38.864498 106.348
-19.2903 -39.173901 106.518
-19.359699 -38.622299 106
-20.125601 -39.133598 106.422
-21.433901 -38.817699 106.252
-22.095699 -39.058498 106.524
-20.5445 -38.434601 105.921
-24.469801 -38.125301 106.255
-23.8183 -38.088799 106.037
-22.1415 -37.8162 105.699
-23.105 -37.971699 105.857
-24.021999 -37.1689 105.395
-24.742599 -37.2094 105.413
-22.135799 -36.854401 105.377
-23.181499 -37.000198 105.37
-23.9235 -32.613499 102.377
-23.9848 -33.309101 102.688
-23.445499 -33.186798 102.801
-23.264099 -33.923 103.337
-24.733601 -33.439602 102.506
-24.010401 -34.104099 103.19
-22.7665 -33.7948 103.409
-22.6607 -34.5867 103.941
-22.174299 -34.425598 103.996
-22.166 -33.761501 103.371
-22.702999 -33.127701 102.813
-21.6436 -35.293201 104.675
-22.2075 -35.420799 104.642
-21.7785 -36.1493 104.982
-21.166901 -36.069199 104.897
-21.1833 -35.278301 104.568
-21.726801 -34.350201 103.939
-23.4186 -34.782299 103.831
-23.0261 -35.418701 104.425
-24.431499 -35.030899 103.645
-25.0089 -34.3372 102.961
-24.009899 -35.620701 104.327
-25.4216 -35.258999 103.533
-24.934999 -35.8409 104.263
-23.546101 -36.425201 104.986
-22.569599 -36.2654 105.023
-25.9851 -34.558102 102.832
-21.974501 -32.487499 102.381
-23.043699 -32.5564 102.426
-21.7792 -33.128201 102.689
-21.3214 -32.8535 102.636
-20.721399 -36.057899 104.725
-23.2047 -32.006901 102.263
-26.2759 -36.315399 104.382
-25.7918 -36.0755 104.25
-25.2384 -36.6796 104.884
-24.464399 -36.4799 104.854
-28.302099 -34.858002 103.937
-27.538799 -35.308998 103.646
-30.083 -26.7785 111.871
-29.162399 -26.0277 112.637
-30.334499 -28.431299 112.75
-30.6849 -27.9951 111.769
-31.3897 -28.7465 110.491
-31.5527 -28.399599 109.55
-30.8964 -27.606199 110.811
-30.9893 -27.223101 109.862
-30.2924 -26.417101 110.875
-31.062201 -29.164 111.548
-31.584101 -29.790701 110.29
-31.8874 -29.444799 109.129
-31.900299 -30.4851 108.906
-28.8202 -34.602699 104.121
-28.999201 -27.9893 114.562
-28.3743 -27.4533 115.163
-28.380199 -28.467501 115.49
-29.189301 -29.4617 114.742
-29.851801 -28.9361 113.695
-30.5536 -29.685499 112.692
-27.8235 -26.762899 115.298
-28.0109 -27.056601 115.348
-27.4007 -27.209999 116.053
-27.784 -27.720301 115.912
-26.959999 -26.0851 115.378
-27.125799 -26.664 115.874
-27.628099 -26.281099 114.954
-27.875999 -25.899799 114.232
-29.874001 -30.216801 113.844
-30.4126 -30.8447 112.87
-31.075199 -30.267599 111.522
-31.437099 -30.9331 110.103
-31.577999 -31.601801 108.834
-30.804701 -31.562 111.692
-31.0348 -32.299599 110.395
-31.5987 -32.220699 108.423
-31.758699 -32.998501 107.464
-31.7314 -32.839401 108.021
-31.142799 -34.231098 108.578
-30.9468 -34.620899 108.103
-31.615801 -33.422699 106.89
-31.348 -33.914902 106.338
-31.150499 -33.072601 109.433
-31.216999 -33.727699 108.992
-30.7012 -35.017502 107.67
-30.4046 -35.423801 107.277
-30.9566 -34.461399 105.834
-30.468 -34.851299 105.545
-29.823999 -35.178001 105.328
-29.321301 -35.459099 105.324
-29.9921 -35.7505 106.871
-29.455299 -35.995998 106.468
-28.5487 -35.299099 104.857
-28.7644 -35.4044 105.104
-28.000999 -36.0364 105.733
-27.802799 -36.095001 105.635
-28.310801 -35.367699 104.777
-27.8988 -35.588799 104.638
-28.9153 -36.090698 106.138
-28.367701 -36.037899 105.894
-27.4149 -36.330799 105.442
-26.844601 -36.720001 105.163
-27.2603 -36.034599 104.41
-26.762199 -36.338501 104.43
-26.382999 -36.810902 105.033
-25.8783 -36.793598 104.946
-27.5541 -29.057199 116.528
-26.966499 -28.1926 116.854
-28.3391 -30.0284 115.838
-26.534 -29.8459 117.591
-27.374599 -30.896999 116.988
-29.0296 -30.928699 115.086
-25.8421 -28.9195 117.909
-24.6998 -29.5655 118.763
-25.471001 -30.6901 118.557
-23.908899 -32.989399 119.637
-24.2026 -35.104801 119.179
-26.2474 -32.965199 118.191
-26.679701 -34.440201 117.679
-28.0786 -32.073299 116.372
-25.505199 -27.783899 117.749
-26.553699 -27.441299 116.914
-25.2938 -26.784901 117.193
-23.841 -27.315599 117.991
-24.0797 -28.5214 118.677
-22.6003 -29.18 119.351
-23.260099 -30.4865 119.611
-26.302999 -26.6695 116.55
-28.571301 -32.991402 115.696
-29.563499 -31.6758 114.272
-29.968599 -32.337799 113.354
-28.9237 -33.705002 114.965
-29.173599 -34.319302 114.203
-30.2323 -32.9603 112.332
-30.398001 -33.676399 111.337
-29.254101 -34.9618 113.48
-29.278299 -35.701599 112.71
-28.9631 -36.792999 110.408
-30.0116 -35.494801 109.416
-29.793301 -35.925598 108.919
-28.757 -37.152 109.881
-28.614401 -37.457699 109.488
-29.604799 -36.287701 108.508
-29.269501 -36.5522 108.011
-28.3302 -37.614201 108.963
-27.8936 -37.640598 108.331
-28.785299 -36.7355 107.452
-28.2654 -36.8009 107.029
-27.394199 -37.606499 107.852
-26.848301 -37.516399 107.548
-27.7024 -36.7649 106.747
-27.3269 -36.7971 106.558
-26.4902 -37.503601 107.344
-26.321301 -37.531101 107.211
-27.1502 -36.855801 106.442
-26.7983 -37.032299 106.201
-25.983999 -37.679199 106.99
-25.571301 -37.9688 106.763
-26.362801 -37.2365 105.897
-25.9042 -37.3009 105.688
-26.204599 -25.891199 115.749
-26.9925 -25.4554 114.607
-26.2097 -25.1647 114.831
-25.3074 -25.768499 116.097
-24.396799 -36.4174 118.671
-24.6064 -37.078701 118.171
-26.997499 -35.224602 117.104
-27.252001 -35.853802 116.5
-24.7913 -37.630299 117.649
-25.0516 -38.1231 117.042
-27.398199 -36.4034 115.91
-27.569901 -36.888901 115.199
-25.332001 -38.528702 116.315
-25.6131 -38.842602 115.477
-27.726299 -37.328899 114.378
-27.6124 -37.839802 113.856
-27.935499 -37.933899 112.139
-27.687201 -38.047401 113.072
-26.2966 -39.1535 112.826
-26.2752 -39.2439 111.848
-27.787201 -38.184601 111.044
-27.551701 -38.452801 110.526
-25.8598 -39.045799 114.647
-26.125299 -39.1129 113.753
-26.084299 -39.4762 111.086
-25.790001 -39.7897 110.721
-27.354601 -38.736401 110.168
-26.995199 -38.916 109.683
-25.3678 -39.991798 110.272
-26.450199 -38.999401 109.079
-25.0672 -38.080502 106.502
-25.363701 -37.2953 105.541
-20.8731 -30.080601 119.942
-22.3766 -27.8736 118.628
-20.6994 -28.6693 119.182
-21.2838 -32.720402 120.472
-19.118601 -32.7244 120.437
-18.7479 -33.9398 120.58
-21.2113 -34.735699 120.331
-17.2215 -35.3904 120.131
-18.677601 -35.358898 120.373
-17.2675 -33.973598 120.317
-19.2677 -29.5445 119.516
-16.6527 -34.195099 120.156
-21.347799 -36.5242 119.745
-17.809601 -37.044701 119.639
-21.461399 -37.6703 119.22
-17.848801 -38.122898 119.106
-17.962 -38.6964 118.615
-21.650101 -38.225498 118.754
-21.985201 -38.727001 118.224
-20.1001 -39.021599 118.345
-20.6738 -39.5835 117.718
-22.4487 -39.234299 117.607
-22.832701 -39.66 116.878
-21.076799 -40.031799 116.964
-21.306101 -40.3493 116.099
-23.143499 -39.9786 116.04
-23.5527 -40.122299 115.169
-24.053301 -40.098099 114.241
-21.558901 -40.527599 115.202
-21.8522 -40.591202 114.298
-24.404301 -40.091099 113.34
-24.4993 -40.113998 112.55
-22.527901 -40.564098 113.617
-22.6849 -40.581501 112.964
-24.361 -40.274601 111.882
-19.1033 -40.615898 112.831
-21.473101 -40.715698 112.667
-20.2313 -40.292198 115.919
-20.0833 -40.489799 114.958
-17.8195 -40.389702 114.438
-24.0312 -40.562 111.356
-22.2236 -40.737701 112.308
-21.8449 -40.9575 111.797
-23.604799 -40.751999 110.736
-21.6073 -41.0242 111.442
-17.2388 -40.313202 112.558
-16.401899 -39.683899 109.469
-16.285801 -39.834702 110.144
-15.8867 -39.5858 109.484
-16.8339 -40.2327 112.615
-17.2085 -40.303299 113.485
-17.552299 -40.321201 114.344
-19.465401 -40.2225 115.724
-17.7647 -40.227901 115.309
-18.1105 -35.7771 103.381
-19.2854 -36.1077 103.57
-20.2964 -27.736601 105.985
-20.125299 -28.3013 105.272
-19.857599 -28.182501 105.9
-19.924999 -27.691401 106.486
-20.440399 -27.325199 106.734
-20.663099 -27.315599 106.332
-20.476 -27.788401 105.565
-20.905199 -27.5184 104.337
-20.765301 -28.122601 103.76
-20.4907 -28.234699 104.369
-20.279499 -28.974701 103.803
-19.9842 -28.9883 104.72
-21.2099 -26.5187 105.706
-21.057699 -26.981199 104.966
-20.816601 -26.9688 107.093
-21.4163 -26.125601 106.455
-20.046301 -27.235399 107.12
-20.1581 -26.928801 107.804
-20.567499 -27.051201 107.508
-20.6766 -26.858101 108.234
-20.9484 -26.7174 107.822
-21.0965 -26.535601 108.531
-21.0105 -25.631599 111.04
-20.9091 -26.205999 110.287
-20.816601 -26.7192 108.929
-20.8943 -26.5082 109.655
-20.5016 -26.161699 109.843
-20.572701 -25.821699 110.423
-20.3008 -26.673901 108.513
-20.435801 -26.489599 109.218
-22.687799 -23.927299 112.268
-21.829599 -24.564699 112.304
-22.0355 -24.3626 112.958
-22.999001 -23.7388 112.521
-23.594101 -23.044901 110.949
-23.420401 -23.2519 110.909
-23.349701 -23.4629 112.246
-22.3596 -24.269699 113.363
-22.6448 -24.280399 113.64
-21.4168 -24.577101 113.391
-21.752199 -24.523701 113.969
-21.234699 -24.381901 114.292
-22.6651 -24.193701 113.733
-21.0683 -25.1549 111.873
-21.1782 -24.8183 112.684
-20.833799 -24.565001 112.726
-21.0144 -24.368401 113.531
-20.4823 -32.8088 102.424
-20.896601 -32.794899 102.631
-20.7148 -32.194801 102.547
-21.2283 -32.333099 102.416
-20.6595 -25.3568 111.105
-20.7274 -24.9077 111.9
-19.763 -28.823099 105.329
-16.471901 -30.5373 121.062
-17.389099 -30.0315 120.765
-17.4662 -29.470301 121.083
-17.8822 -39.650501 117.293
-17.8097 -39.591999 117.272
-17.8578 -40.023602 116.358
-19.5958 -39.9678 116.722
-19.8536 -39.567699 117.635
-17.8493 -39.112499 118.049
-17.6912 -38.985401 118.054
-20.1721 -40.0056 116.836
-17.868099 -35.6026 102.382
-17.9624 -36.0341 103.306
-17.1311 -36.131699 102.615
-19.4163 -35.738701 102.516
-18.631001 -35.377201 102.228
-18.002701 -35.0173 102.312
-18.4056 -35.134102 102.18
-18.1971 -34.685101 101.162
-18.363199 -34.5425 101.108
-19.7787 -34.593399 102.173
-19.698299 -35.101002 102.376
-18.1397 -34.202099 101.18
-18.5637 -33.8241 101.083
-16.556101 -35.633598 101.602
-17.6028 -34.941898 101.307
-19.858601 -34.127701 102.087
-18.8314 -33.757301 101.054
-19.1724 -33.071701 100.961
-20.0091 -33.455502 102.036
-20.1805 -32.524601 101.916
-19.5037 -32.611698 101.109
-20.3281 -32.050301 102.382
-19.673201 -29.6243 104.795
-19.712099 -29.874001 104.521
-19.796499 -30.2313 104.153
-19.9566 -30.257 103.802
-19.993799 -30.601601 103.714
-20.017401 -29.616899 103.81
-17.633301 -38.495701 118.672
-17.2502 -33.127399 99.653702
-18.038 -31.273899 99.079697
-16.216 -34.239498 100.208
-22.0543 -31.8972 102.296
-21.0958 -31.882799 102.423
-21.9328 -31.5152 102.337
-20.186701 -31.405701 102.663
-20.4821 -31.645901 102.684
-20.267 -31.2376 102.946
-21.0571 -31.4492 102.562
-20.0305 -30.946699 103.11
-21.015699 -31.2526 102.864
-20.7983 -30.0527 102.771
-20.279699 -30.4069 103.157
-20.2449 -29.7817 103.354
-20.681499 -28.8109 103.235
-20.677401 -29.593901 102.783
-28.643499 -24.4506 111.391
-29.639799 -25.2901 110.782
-29.424601 -25.6234 111.681
-28.1591 -25.3104 113.17
-27.2036 -24.805201 113.552
-28.411301 -24.8312 112.219
-25.3433 -24.9193 115.025
-24.391399 -24.7255 115.187
-20.945 -27.115801 117.975
-20.3218 -28.044201 118.512
-21.194201 -26.329201 117.237
-20.1031 -28.7773 118.855
-21.1147 -26.8262 117.515
-20.9198 -27.116899 117.686
-19.7001 -29.082199 119.145
-20.474899 -27.451401 118.101
-18.069799 -27.4387 121.069
-18.8876 -28.218399 120.805
-17.8904 -26.2057 121.263
-19.075899 -27.010099 120.785
-19.624001 -27.577 120.325
-20.0471 -27.1492 119.91
-21.6436 -25.993799 116.618
-22.063999 -25.3235 115.857
-21.7439 -25.5728 116.411
-22.240601 -24.767401 115.651
-22.0396 -25.028099 115.116
-22.757099 -24.2257 114.099
-22.723101 -24.310801 114.5
-23.2204 -23.551901 113.162
-23.255501 -23.3997 112.62
-24.490499 -24.016899 114.146
-25.400101 -24.234699 113.987
-25.4468 -23.6024 112.978
-24.469601 -23.404699 113.17
-23.7355 -23.8246 114.182
-23.6166 -24.552799 115.226
-26.304701 -24.498199 113.79
-27.41 -24.257799 112.583
-26.423 -23.886101 112.786
-27.615299 -23.8034 111.718
-22.605301 -24.2304 114.976
-22.7918 -23.9347 114.586
-22.6679 -24.2931 114.828
-23.4855 -23.388201 113.523
-22.9711 -23.792801 114.155
-23.094601 -23.7111 113.716
-26.568199 -23.323601 111.822
-25.4818 -23.013 112.011
-25.664 -22.570299 110.792
-24.7866 -22.025 111.133
-24.187799 -21.9851 111.034
-24.1402 -22.021799 110.648
-23.6287 -22.8908 111.725
-23.603201 -22.833799 110.995
-18.5987 -24.3335 108.053
-15.1667 -39.713402 109.997
-15.143 -39.534801 109.428
-13.0535 -38.757 109.051
-14.3339 -39.096298 108.92
-21.6917 -21.315901 110.957
-22.063 -20.7512 112.756
-18.4771 -23.712099 104.806
-18.705 -23.645901 107.363
-18.4767 -22.2204 106.711
-17.280199 -36.9319 119.659
-29.6229 -16.57 98.259399
-28.3673 -18.844999 97.629303
-28.562599 -17.1157 98.933502
-30.388901 -17.3701 95.570396
-29.7083 -17.926399 96.230797
-30.560699 -16.1036 97.702003
-31.167601 -16.0469 97.0709
-35.515099 -26.7103 95.630997
-35.401699 -26.7911 95.581001
-35.826599 -26.2341 95.469101
-35.952301 -26.1821 95.525101
-37.804798 -24.6036 98.188698
-38.145802 -25.021799 96.872398
-38.967201 -24.500401 96.4505
-38.7612 -23.874599 97.850403
-37.894001 -25.0236 96.0215
-38.270802 -24.816299 95.992203
-36.661201 -24.523001 95.075401
-37.145699 -24.7605 95.460701
-36.664101 -24.5805 95.202797
-36.341702 -24.752701 95.044899
-30.714001 -15.6565 99.444901
-31.8083 -15.7174 100.939
-32.434799 -15.6528 100.609
-31.9156 -15.4931 99.308899
-32.2733 -15.25 98.193497
-32.6357 -15.2735 98.528099
-33.920399 -15.1117 98.408096
-33.638599 -15.1078 98.0877
-32.8605 -15.1512 97.503601
-33.038502 -15.3117 99.1297
-33.361599 -15.47 100.017
-34.495701 -15.3653 99.421898
-34.174301 -15.2251 98.882202
-31.427799 -15.4793 98.573196
-35.767799 -15.2373 98.893402
-36.702999 -15.8427 99.363899
-37.851002 -19.555 101.065
-38.3433 -20.2092 100.668
-38.778999 -19.623699 99.9823
-38.353699 -18.931801 100.337
-35.811901 -18.205099 101.785
-37.088299 -17.7057 100.534
-34.5355 -16.757799 101.195
-35.664299 -16.253099 100.186
-33.429001 -17.379299 102.301
-32.5173 -17.759701 103.296
-34.3829 -18.514799 103.115
-33.884998 -18.9491 103.922
-36.253601 -19.9212 102.481
-35.859001 -20.430901 103.203
-36.181999 -20.6297 102.874
-37.007999 -21.302799 102.277
-37.5453 -20.8867 101.656
-37.152699 -21.6803 102.191
-37.6647 -22.722799 101.023
-38.113499 -21.9209 100.577
-38.812901 -22.296101 98.702698
-39.335899 -23.294701 97.661102
-39.374901 -21.628401 98.207001
-38.926102 -21.162701 98.488998
-38.401299 -21.8118 99.1073
-38.491199 -17.084101 99.296204
-39.123402 -18.1374 99.178596
-39.162601 -19.066401 99.3218
-39.196301 -19.383699 99.009697
-38.872601 -20.1647 99.461403
-38.492199 -20.9713 99.995796
-38.778198 -20.868401 98.744499
-37.514702 -23.2985 99.8853
-38.051399 -22.5287 99.516899
-38.325199 -22.9681 99.047997
-37.693501 -23.7097 99.329102
-39.458199 -24.1243 96.357903
-38.841801 -24.5718 95.957298
-37.878101 -25.175501 96.992203
-36.690601 -25.509501 98.595398
-36.533199 -25.6269 98.704002
-37.069698 -25.531601 97.194702
-37.196899 -25.4629 97.2715
-37.223999 -24.908199 95.621696
-37.3564 -24.9062 95.694397
-37.495098 -25.2096 96.061699
-37.303398 -25.286301 96.1343
-37.254799 -25.442699 95.955299
-36.356899 -25.554899 95.448799
-36.634602 -24.8752 95.346199
-36.503399 -25.9608 98.483803
-36.404499 -26.464399 96.953903
-36.930401 -25.890301 96.365501
-38.577 -24.702101 95.978699
-37.432499 -24.694401 95.421799
-37.5256 -24.669201 95.358902
-35.540298 -24.738001 94.7211
-35.8465 -24.4142 94.6996
-34.611801 -23.7297 94.292297
-34.266499 -24.1089 94.267303
-33.357399 -22.7563 93.957603
-32.950298 -23.173 93.870201
-32.409401 -21.986799 93.768799
-35.341099 -26.561001 95.212196
-34.932098 -27.1572 95.321297
-33.916599 -26.326 94.669502
-33.515701 -26.883301 94.760803
-32.711899 -25.6616 94.204399
-32.108299 -26.2321 94.2584
-31.226299 -24.688 93.714996
-30.7593 -25.093 93.752197
-30.798201 -23.1766 93.579803
-30.111401 -23.678301 93.606499
-30.2055 -21.922501 93.760696
-30.841801 -21.5238 93.725998
-30.2705 -20.8995 94.313698
-30.947901 -20.4249 93.891701
-29.720501 -19.625601 94.850899
-30.4503 -19.0735 94.246498
-36.164101 -25.1495 95.091904
-36.2724 -25.5585 95.395699
-35.799599 -25.7544 95.148003
-35.244099 -25.0609 94.726501
-34.786499 -25.593201 94.722099
-33.907902 -24.486601 94.230301
-33.320999 -25.0658 94.202599
-32.458801 -23.619301 93.767799
-31.9991 -24.022499 93.715797
-31.834499 -22.4151 93.663803
-31.3293 -22.814899 93.606102
-31.694401 -21.022499 93.718002
-31.302799 -21.2705 93.7192
-31.7265 -19.8027 93.8228
-31.386 -20.0914 93.858902
-31.5714 -18.366301 93.8489
-31.0987 -18.674601 93.849701
-31.732901 -16.7701 94.181602
-31.0532 -17.005301 94.854301
-33.604301 -14.9374 97.117599
-32.594101 -15.6331 95.2705
-32.088799 -15.846 95.934898
-32.087799 -16.587601 93.9841
-31.8522 -18.257601 93.833397
-32.091599 -19.534 93.759598
-31.953501 -19.6359 93.795898
-32.204899 -20.623899 93.722
-32.0257 -20.7834 93.731697
-31.4317 -16.065201 96.568298
-33.810902 -27.971399 97.356903
-33.8993 -27.883499 97.468803
-33.708 -28.326401 96.881798
-33.208 -28.971201 95.8237
-31.808901 -28.6985 94.969803
-30.306601 -27.926901 94.4506
-28.9095 -26.791201 93.924301
-28.283001 -25.121799 93.7388
-34.731602 -27.511101 99.340897
-34.725498 -27.1429 100.328
-35.947601 -25.290199 99.889297
-35.754299 -25.175501 100.622
-36.0219 -23.751801 103.89
-36.316101 -21.2724 103.049
-35.361301 -20.680201 104.041
-34.8974 -22.7707 105.201
-30.927799 -15.9899 101.742
-31.6633 -17.676701 104.183
-33.857101 -21.658199 105.915
-33.267601 -19.3319 104.876
-31.8936 -20.2885 106.559
-29.839199 -18.8102 105.683
-26.945801 -17.9809 99.974899
-27.7728 -17.031401 101.54
-29.407499 -16.0742 100.354
-29.038 -17.1353 103.231
-32.970402 -28.507601 99.171898
-32.823299 -28.620399 99.162903
-35.809299 -25.423401 100.01
-33.579601 -27.9762 101.214
-33.569199 -28.227501 100.522
-32.3284 -29.5203 98.107201
-26.8004 -19.7537 98.903
-26.3493 -21.9282 99.148399
-31.572701 -30.1649 97.162903
-30.240299 -29.9956 96.2742
-28.634001 -29.3132 95.454903
-27.086599 -28.185499 94.773903
-26.3514 -26.5422 95.002899
-27.0819 -23.570999 97.4487
-26.820601 -22.7742 97.901901
-28.309799 -21.256901 96.276497
-28.6555 -22.114401 95.823196
-26.711599 -22.164 98.2854
-28.5522 -19.9261 96.995903
-26.3694 -24.653299 96.040199
-28.290001 -23.210501 94.6586
-34.634201 -26.5683 101.634
-33.564201 -27.5898 101.798
-33.458401 -24.844299 106.56
-34.407299 -25.715599 105.197
-34.7803 -26.1609 103.045
-36.247002 -24.674999 102.179
-30.915001 -29.9767 101.343
-28.9293 -31.3193 101.166
-30.043501 -31.160101 99.951797
-27.8074 -31.832399 100.853
-29.5016 -31.410299 98.917397
-28.2971 -31.204599 98.125801
-27.1308 -31.910299 100.887
-26.466499 -31.7966 100.536
-31.910299 -29.031099 102.709
-32.844101 -28.6001 104.116
-32.188099 -29.0725 103.819
-32.326199 -30.9412 105.922
-32.072399 -31.6134 107.27
-32.1189 -31.774799 106.699
-22.2801 -28.5324 101.604
-21.646099 -29.4624 102.442
-21.3939 -28.989599 102.358
-22.0634 -28.316999 101.829
-24.6341 -31.5882 101.758
-23.3538 -31.358 102.159
-23.8876 -31.202801 101.541
-23.6579 -22.9172 108.629
-23.125999 -23.360201 107.34
-22.7777 -24.178301 108.337
-23.071501 -23.730101 109.686
-22.7453 -23.898399 106.26
-22.557501 -24.478701 105.381
-22.1476 -24.9748 106.525
-22.394199 -24.5905 107.345
-25.405001 -31.705 101.719
-25.037701 -32.014599 102.087
-24.245701 -31.9825 102.227
-24.6003 -32.650101 102.269
-25.8498 -32.081699 101.923
-25.434999 -32.655701 102.133
-26.013901 -31.7936 101.709
-26.7157 -32.145599 101.754
-27.6215 -31.7381 101.699
-27.240101 -32.677299 101.926
-26.4037 -32.6632 101.964
-27.9631 -32.668701 102.029
-27.6576 -33.550201 102.362
-26.7841 -33.461102 102.293
-27.0606 -34.593102 102.902
-28.357901 -33.457802 102.468
-27.9538 -34.418999 103.062
-27.9617 -31.552099 101.835
-28.4634 -31.865 102.058
-28.477699 -32.728901 102.13
-29.446501 -32.937 102.77
-29.198099 -33.8246 103.47
-28.6392 -34.0774 103.298
-28.890699 -33.1847 102.622
-28.9349 -32.489399 102.242
-29.172701 -30.999599 101.607
-29.3946 -32.139 102.298
-31.8771 -28.272499 107.164
-31.9998 -28.687201 107.77
-32.283901 -29.125999 106.764
-32.230801 -28.693001 106.194
-31.930201 -28.0082 106.697
-31.4835 -27.320499 107.473
-31.436399 -27.5917 107.963
-32.405701 -30.1882 105.166
-32.4077 -29.8717 106.149
-32.310299 -30.5219 106.866
-32.274101 -29.546801 107.389
-32.422401 -29.4126 105.554
-32.247299 -29.1203 105.096
-32.410702 -29.6084 104.576
-32.656101 -28.4827 104.84
-32.1702 -28.4632 106.014
-32.002499 -32.129101 106.077
-32.211201 -31.271099 105.25
-31.9725 -31.713301 104.633
-32.043999 -30.930401 103.852
-32.276501 -30.4974 104.442
-32.243599 -29.8381 103.808
-32.0233 -30.174601 103.215
-31.753099 -32.580601 105.468
-31.3673 -33.134701 104.87
-31.604401 -32.2696 104.072
-31.028099 -32.804298 103.754
-31.2314 -31.982 103.117
-31.705 -31.491301 103.393
-31.757401 -30.6175 102.795
-31.434999 -31.039301 102.376
-31.778099 -29.1329 101.767
-30.768801 -33.668701 104.506
-29.9596 -34.179798 104.375
-30.240299 -33.321301 103.679
-29.6297 -33.66 103.583
-30.028 -32.719299 102.911
-30.6224 -32.402 103.026
-30.917999 -31.452299 102.247
-30.646 -30.1754 101.665
-30.2829 -31.8307 102.094
-21.999201 -25.892401 103.507
-21.824301 -26.378599 102.839
-21.460199 -26.6744 103.937
-21.632401 -26.209499 104.638
-21.815201 -25.7733 105.29
-21.991699 -25.3953 105.869
-22.3613 -24.9872 104.683
-22.183701 -25.4105 104.123
-33.035702 -27.538401 105.781
-32.032501 -26.596399 107.224
-31.1378 -26.695601 108.024
-21.7192 -26.8491 102.343
-21.6866 -27.307301 102.024
-21.2069 -27.777 102.858
-21.3267 -27.188299 103.345
-21.734301 -27.7852 101.839
-21.1569 -28.4188 102.493
-22.495701 -29.659 101.109
-22.688101 -30.054899 100.915
-22.2241 -30.438999 101.714
-22.058599 -30.113199 101.918
-23.153799 -30.5711 101.059
-22.6175 -30.7486 101.651
-22.0266 -29.742201 101.973
-21.9319 -29.394699 102.234
-22.2258 -28.894501 101.529
-22.3382 -29.2698 101.313
-30.444 -25.7208 109.246
-30.4181 -26.080799 109.954
-30.9606 -26.8344 108.931
-30.4916 -24.862801 109.009
-29.7903 -25.065901 109.944
-28.616699 -24.139 110.661
-28.6229 -23.107599 110.104
-27.7309 -23.545099 110.907
-23.9417 -22.236401 109.24
-24.573601 -20.9174 106.914
-23.9482 -22.491301 109.384
-23.804701 -22.7465 109.09
-23.9849 -21.520201 106.757
-25.220501 -31.260599 99.7826
-23.717899 -29.951099 98.934898
-23.180099 -28.906601 99.393997
-22.7722 -27.8584 100.196
-23.049999 -27.407101 100.964
-22.786501 -26.594999 100.795
-22.7295 -24.8552 102.42
-22.4757 -25.7892 101.382
-22.9799 -24.1852 103.156
-23.3853 -22.631701 104.738
-25.7992 -33.443298 102.333
-32.002998 -29.083099 108.406
-32.040798 -31.080799 107.791
-23.2355 -23.452101 110.557
-33.730801 -27.7568 103.63
-24.8153 -20.8699 108.249
-25.072201 -20.769501 108.961
-25.410801 -19.861099 106.607
-27.2897 -20.4788 108.418
-26.919201 -18.5093 104.815
-26.046301 -18.2138 102.947
-25.507099 -18.9923 101.099
-25.1509 -19.826401 104.76
-25.4736 -20.4466 99.816101
-24.6376 -26.0646 97.488297
-24.837 -27.7563 96.6754
-24.1651 -21.652399 101.526
-24.359501 -22.9765 100.822
-24.7012 -19.8999 104.136
-31.5707 -28.0457 108.619
-32.163601 -30.0105 108.081
-26.8316 -30.5012 97.264702
-25.448999 -29.165501 96.5299
-24.9769 -25.048 99.332703
-24.330299 -24.142099 99.351501
-24.435801 -23.5161 100.185
-31.7248 -23.4722 107.953
-24.0634 -22.0956 109.909
-27.0417 -21.476999 109.897
-26.509199 -22.9195 110.831
-29.677799 -21.8592 109.1
-35.980499 -14.631 97.521202
-35.601299 -14.8804 98.0448
-36.501202 -14.8799 98.279297
-40.262299 -21.256201 97.355103
-40.327499 -22.450899 97.009399
-40.645901 -22.347 96.412399
-40.4543 -21.442101 96.978302
-35.7728 -24.7379 94.184898
-34.489399 -24.034201 93.843803
-34.168701 -24.681801 93.478897
-35.748402 -24.958099 94.1007
-40.173698 -23.598101 96.283699
-39.992001 -23.984501 95.912399
-40.4104 -22.774401 96.094902
-40.123501 -22.311399 87.056702
-40.023602 -23.1987 88.940804
-39.792301 -23.776199 88.088898
-36.237202 -15.0425 98.527603
-35.624298 -15.0421 98.331398
-38.099701 -14.9604 98.056999
-37.173302 -14.4987 97.7146
-37.4478 -15.2948 98.776299
-39.1978 -16.633499 98.416496
-38.363499 -16.287901 98.861099
-39.728199 -19.913601 97.475098
-39.481602 -19.2906 97.9617
-39.110699 -20.085899 98.427299
-39.525002 -20.7038 97.750504
-39.996899 -18.8174 96.303703
-39.989101 -18.563 96.1203
-40.151901 -18.281601 97.0951
-39.9174 -18.7561 97.105797
-40.271702 -19.562799 96.2379
-40.155201 -19.453899 96.82
-40.0686 -20.093 97.2509
-40.398899 -19.738501 96.595398
-40.001099 -21.314501 97.621696
-39.9813 -20.6723 97.333199
-40.692501 -21.892799 96.005699
-40.505199 -20.5868 96.920601
-40.2495 -20.996901 97.003098
-40.641201 -21.674801 95.734703
-40.788502 -21.5182 95.314796
-40.833801 -20.140301 95.561401
-40.887798 -21.1429 94.339203
-40.674801 -20.665501 93.767998
-40.655102 -19.9699 94.890404
-40.6394 -20.3575 93.584396
-40.613602 -19.749201 94.941399
-40.626301 -18.761499 94.076599
-40.050098 -18.9552 95.680901
-40.619499 -21.5504 92.602699
-40.580399 -21.3405 92.414803
-40.625 -20.726601 93.113503
-40.665798 -20.9673 93.338501
-40.863998 -22.139299 93.416702
-40.940701 -21.471001 94.044098
-40.5131 -22.6945 94.408997
-40.723801 -21.938299 95.033096
-40.3255 -22.9513 94.9105
-40.5676 -22.1187 95.495003
-40.2948 -23.096701 95.216698
-40.593399 -22.320101 95.750603
-39.258202 -24.4786 95.837303
-39.148499 -24.791201 95.495399
-37.695999 -24.795099 95.136803
-37.532902 -25.0924 94.819901
-35.868401 -24.518 94.327202
-35.931499 -24.2876 94.655602
-34.727798 -23.5478 94.257401
-34.695702 -23.568001 94.172401
-36.008598 -24.3249 94.603897
-40.5942 -21.1203 92.240303
-40.6693 -19.8981 91.302101
-40.681999 -19.393299 92.437698
-40.019501 -18.222601 90.168098
-40.101601 -17.8325 91.0056
-39.335701 -16.902 89.704102
-39.3508 -16.560801 90.609596
-38.3451 -15.9646 89.815903
-38.3428 -15.7267 90.746803
-36.719101 -15.5348 90.241203
-36.692902 -15.2557 91.168503
-34.9757 -15.7136 90.8396
-34.950401 -15.3841 91.7509
-33.094799 -16.7295 91.8209
-33.125198 -16.298 92.681503
-31.533899 -19.32 93.047096
-31.441799 -20.907801 93.040604
-31.733101 -20.302999 93.334198
-31.8155 -18.9126 93.3908
-32.091202 -18.069799 92.620102
-32.141602 -17.567699 93.435997
-32.265598 -16.7178 93.859497
-33.180199 -15.5624 93.8423
-33.0037 -15.9034 93.438599
-32.155998 -17.078501 93.698402
-34.873501 -15.0088 92.496902
-35.150902 -14.699 93.0327
-36.7061 -14.6948 92.237602
-36.763199 -14.1578 93.929001
-38.386398 -14.8993 92.453201
-38.1157 -14.3813 94.492599
-39.4506 -15.7867 92.224602
-39.146 -15.1968 94.551399
-40.2313 -17.3554 91.9786
-39.938 -16.8286 94.431999
-40.0047 -18.7062 95.602097
-31.9319 -18.6719 93.592796
-32.035702 -18.455099 93.712402
-32.028 -20.024099 93.579399
-32.128101 -19.755699 93.686699
-32.128502 -20.5916 93.584396
-32.250599 -20.574499 93.680496
-32.522301 -21.6185 93.649002
-32.684601 -21.612301 93.756798
-33.433102 -22.401199 93.955498
-33.451099 -22.557899 93.892502
-35.156502 -14.1944 94.735497
-33.4165 -15.1867 94.240097
-32.962101 -15.4556 94.806
-34.4114 -14.5611 96.0924
-36.757999 -14.1035 95.257202
-36.472599 -14.1927 96.3834
-37.855301 -14.1803 95.824699
-37.641701 -14.2167 96.8041
-38.807899 -14.9167 95.971901
-38.5177 -14.8165 97.167801
-39.542599 -16.9324 95.845901
-39.579399 -16.6793 97.013603
-40.103298 -18.0819 96.860703
-32.006302 -18.5723 91.759102
-32.985401 -17.233101 90.873802
-32.7127 -17.8932 89.7146
-31.6838 -19.256901 90.625504
-34.567799 -16.6912 88.474297
-34.854698 -16.144699 89.696098
-36.431099 -16.4809 87.524002
-36.649601 -15.9778 88.864403
-38.193298 -17.007601 86.9356
-38.305599 -16.466299 88.270798
-39.288799 -18.1376 87.322403
-39.371101 -17.511499 88.4478
-39.8899 -19.319 88.391296
-39.9706 -18.782101 89.245499
-40.507301 -20.9433 89.311096
-40.589699 -20.3799 90.321602
-40.362701 -22.242399 90.520699
-40.508202 -21.624901 91.330704
-40.3354 -22.6451 90.895203
-40.4972 -21.985001 91.646599
-40.5242 -22.1712 91.8256
-40.341599 -22.7826 91.014503
-40.684101 -22.856701 92.730797
-40.414001 -23.594 92.023201
-40.212799 -23.498699 93.664299
-39.848499 -24.250401 92.957497
-39.582401 -24.472 93.344101
-40.005699 -23.7444 94.084198
-39.919899 -23.9492 94.381798
-39.4772 -24.6831 93.621696
-39.341702 -24.8139 95.320198
-38.849998 -25.417 94.536003
-38.847099 -25.217699 95.160301
-38.310101 -25.714399 94.711601
-37.4394 -25.3678 94.663696
-37.094398 -25.8009 94.346298
-35.5326 -25.333599 93.873497
-31.0951 -20.1444 91.187698
-31.2983 -19.7111 92.470802
-30.5581 -21.8873 91.942398
-31.0667 -21.33 92.614998
-30.827101 -23.6168 92.028999
-31.3041 -23.040001 92.555298
-31.867201 -24.949699 92.221703
-32.347099 -24.3543 92.731499
-33.194599 -25.8715 92.489899
-33.684799 -25.250099 93.0084
-35.026001 -26.065001 93.348396
-34.6213 -26.6366 92.908096
-35.695801 -27.0117 93.070297
-36.215199 -26.5126 93.6642
-36.942402 -27.0222 92.616699
-37.3652 -26.5541 93.474098
-37.9757 -26.4263 93.025497
-37.5704 -26.877399 92.210999
-38.671398 -25.909599 92.440598
-38.067501 -26.5263 91.819397
-38.754601 -25.719101 92.224899
-38.2085 -26.3661 91.597198
-38.7206 -26.126699 91.291603
-39.175499 -25.4662 91.929901
-39.5504 -25.3564 90.272202
-39.946602 -24.687 90.936897
-39.946899 -23.7953 89.725304
-39.622299 -24.620899 89.199303
-39.6241 -24.511999 89.053001
-39.925201 -23.7444 89.599297
-31.636999 -22.5877 92.914299
-32.074699 -22.093599 93.295403
-31.777399 -20.868601 93.314598
-32.709801 -23.8466 93.099503
-33.1343 -23.2115 93.498299
-40.336201 -19.6861 96.195297
-36.432999 -24.3769 94.879204
-35.052799 -14.8283 97.5756
-30.449699 -28.6583 74.668999
-29.788799 -29.2202 75.338799
-35.1259 -30.3002 76.050003
-36.1614 -29.2348 78.800201
-34.7099 -30.9863 76.791702
-33.620602 -32.216702 78.003998
-33.067501 -32.5546 78.402
-32.396099 -33.444 76.492699
-33.085201 -32.9529 76.042801
-33.453701 -32.571701 75.732201
-34.206501 -31.3113 80.720901
-33.9174 -31.962799 75.185402
-34.1511 -31.732901 77.509903
-34.316799 -31.3099 74.622498
-34.4748 -30.8494 74.213997
-34.519001 -30.163 73.634499
-35.4165 -29.2819 75.331001
-36.559399 -27.996401 77.5383
-37.0672 -28.137699 80.845299
-37.433399 -26.8141 79.536003
-35.129398 -28.447399 74.7164
-36.381401 -27.154699 76.669197
-29.4641 -29.7535 75.754303
-31.4813 -33.7855 76.9683
-30.481199 -33.7696 77.316704
-33.5327 -28.9466 73.005699
-34.175098 -29.5154 73.090103
-32.5467 -28.595301 73.155602
-31.410801 -28.3913 73.9347
-29.1521 -30.523701 76.228699
-29.0186 -32.437698 77.011597
-28.993 -31.4429 76.6866
-29.561199 -33.2915 77.266602
-35.990002 -28.698 88.1157
-37.683998 -27.336901 90.032997
-36.801998 -27.704599 90.490303
-34.775902 -29.870701 85.604698
-37.384899 -28.138599 87.329399
-38.844799 -26.252001 88.182404
-38.8405 -26.2248 88.012703
-35.642502 -30.094101 82.652
-37.086399 -28.774099 84.805397
-35.8936 -29.5783 85.281403
-34.265999 -30.749399 83.144897
-32.836399 -31.7822 81.308098
-38.624802 -26.687 88.985397
-39.283699 -25.27 86.699799
-35.944801 -27.9347 90.867699
-32.612 -26.862 90.712402
-32.093102 -28.082199 88.319099
-33.797798 -28.864401 88.343498
-34.032799 -27.630199 90.956497
-33.4841 -29.8881 85.821297
-32.910099 -29.7092 85.906502
-32.330399 -30.629101 83.642403
-30.125799 -32.2589 79.139603
-31.0828 -32.754501 79.154099
-30.612 -31.196199 81.332397
-31.679001 -31.6523 81.408096
-31.076401 -30.1173 83.608299
-31.5557 -29.093201 86.008499
-38.639599 -26.754 85.173798
-38.109798 -27.6555 86.443703
-34.7892 -28.9685 88.2976
-39.113098 -24.437401 95.909599
-39.941299 -23.718399 96.339996
-37.6217 -24.6912 95.2911
-29.798901 -30.406401 81.021202
-30.0746 -29.249399 83.384201
-29.616199 -28.167 82.7649
-29.4627 -29.3936 80.443199
-29.4664 -31.475201 78.844299
-29.256701 -30.518999 78.382103
-38.451401 -26.089899 84.467102
-38.041801 -26.7451 83.311996
-38.3713 -25.420401 82.2547
-37.990501 -27.7097 84.013199
-30.302601 -28.1255 85.926498
-29.646 -27.0014 85.4533
-29.601601 -28.7626 77.368301
-30.0208 -28.001801 76.768303
-29.784 -26.0429 81.018501
-30.502701 -24.9536 80.053101
-30.219601 -26.5319 78.461502
-29.6973 -27.4939 79.234596
-30.1877 -22.580999 85.985802
-31.352501 -21.032499 84.674599
-30.9589 -22.9487 82.354202
-29.948 -24.310801 83.5224
-32.051498 -19.2623 87.533501
-30.742901 -20.742201 89.0606
-32.273998 -16.528999 93.969498
-34.773201 -27.913799 91.015198
-33.4893 -30.860001 83.305
-32.106701 -32.820599 78.902298
-31.2073 -25.8123 90.7817
-30.617701 -26.989201 88.329002
-30.2381 -24.469 90.590103
-29.726 -25.820601 88.036697
-30.0364 -22.759199 89.957802
-29.603001 -24.3146 87.193398
-29.541 -25.784201 84.654999
-29.492901 -27.2001 82.030197
-29.389999 -28.483801 79.9291
-29.302099 -29.614201 77.910599
-32.016998 -18.2656 93.800499
-33.025299 -21.9846 93.897903
-32.664101 -21.6479 93.798698
-39.9021 -22.8095 97.315804
-39.581902 -18.7206 98.563599
-39.647701 -17.9993 98.542702
-39.178398 -24.9326 86.241501
-39.422199 -24.0002 84.636398
-36.7057 -29.1381 81.814301
-35.3829 -30.4361 79.827797
-33.921799 -17.981199 86.032204
-33.033699 -19.7731 83.224998
-32.307701 -21.7742 81.051003
-31.5616 -23.903799 78.953598
-31.0527 -25.6553 77.532898
-30.745501 -27.310301 75.985901
-33.983398 -14.7625 96.479301
-35.9277 -17.657301 84.932297
-35.139599 -19.5907 82.082901
-34.384602 -21.384001 79.989502
-33.4175 -23.4037 77.917702
-32.519299 -25.238001 76.553398
-31.8827 -26.995399 75.129898
-33.208599 -27.176901 74.570297
-34.132 -25.490499 76.051003
-35.067101 -23.7691 77.575302
-37.752102 -18.3311 84.500504
-36.969799 -20.164101 81.787003
-36.147099 -21.8811 79.630203
-37.086498 -15.4549 98.957397
-38.898602 -19.5182 84.990997
-38.270699 -21.298 82.239098
-37.401798 -22.9053 79.9151
-36.3508 -24.6738 77.8172
-35.444099 -26.275299 76.138702
-34.353901 -27.744499 74.494499
-39.566799 -20.7437 86.001297
-38.9533 -22.559601 83.252899
-38.200001 -24.041 80.720901
-37.173401 -25.790501 78.491997
-29.587999 -30.268801 74.746399
-30.372299 -29.6173 74.080597
-32.884899 -33.366199 74.784203
-32.061401 -33.916 75.451698
-33.453701 -32.732399 74.112
-33.8311 -32.0811 73.459099
-33.9534 -30.906 72.577103
-33.9944 -31.4981 72.933098
-31.1926 -34.134998 76.091698
-30.5341 -33.727901 76.591003
-33.654598 -30.2959 72.252502
-33.160599 -29.7449 72.086098
-32.5289 -29.4408 72.142899
-32.028099 -29.2838 72.351303
-31.097099 -29.229601 73.111504
-28.996401 -31.048401 75.156197
-28.718599 -31.946301 75.645599
-28.8855 -32.335098 76.167297
-29.148199 -32.579601 76.442596
-29.728901 -33.0737 76.657898
-24.217699 -35.9506 74.547699
-23.710501 -35.319099 74.7397
-26.7311 -34.370899 69.949303
-25.7854 -34.273201 69.504204
-25.731501 -34.788502 69.827301
-26.891199 -33.319698 69.415703
-25.934 -33.557701 69.158897
-24.8939 -34.226601 69.123596
-24.9044 -34.846199 69.498199
-25.632099 -35.291801 70.289803
-26.518999 -34.977901 70.375504
-24.881399 -35.0868 69.728104
-24.829599 -35.535599 70.191399
-25.714399 -35.753899 70.9375
-26.270599 -35.586498 71.018402
-27.9319 -34.232601 70.425598
-25.051001 -36.0569 70.856598
-26.1915 -35.802299 71.266403
-26.674999 -35.464199 71.077698
-26.721701 -35.854 71.6306
-25.271799 -36.205101 71.148399
-25.652399 -36.328201 71.560501
-25.2236 -36.519901 71.654503
-25.9604 -36.437 72.228104
-27.848101 -35.226799 71.389397
-27.9501 -33.1576 69.833801
-22.629601 -31.052401 69.584801
-22.8708 -30.8151 69.901901
-23.6085 -31.357901 68.499001
-24.1042 -31.4074 68.273499
-25.9475 -36.455898 73.509804
-26.786301 -36.128799 73.614502
-26.714899 -36.158401 72.485001
-26.9352 -35.844398 74.549698
-26.110399 -36.094799 74.442299
-27.7293 -35.816101 73.645798
-27.7847 -35.695999 72.571503
-25.273701 -36.711399 72.366096
-25.177099 -36.700901 73.247803
-27.610001 -35.6404 74.5821
-28.9786 -35.442799 72.714897
-28.7113 -35.6175 73.681198
-24.7687 -36.721401 71.664101
-24.763 -36.3745 71.191399
-24.797001 -36.104301 70.841904
-24.377199 -35.6469 70.127502
-24.3666 -36.166302 70.756203
-23.747801 -36.012501 70.2966
-23.8018 -36.219501 70.623596
-24.3225 -36.474098 71.1604
-24.559299 -35.134701 69.613701
-23.819401 -36.5369 71.069397
-24.2325 -36.903801 71.651299
-32.2104 -30.212601 70.902397
-32.519199 -30.598499 70.930801
-32.961399 -30.2981 71.652496
-32.496498 -29.8909 71.574799
-24.665501 -32.245499 68.302101
-25.243601 -32.194698 68.553101
-24.6712 -32.077999 68.283997
-24.600599 -32.795601 68.362801
-25.003201 -33.1077 68.5755
-25.3076 -31.3265 68.410698
-24.690599 -31.625 68.243301
-24.3846 -31.9839 68.264397
-24.321199 -32.256199 68.305603
-23.9256 -32.2188 68.260002
-24.009199 -32.0172 68.265099
-23.820999 -32.688801 68.190201
-24.1113 -31.8577 68.270599
-24.2542 -32.730499 68.262398
-30.410999 -29.7768 70.064903
-31.0448 -29.818701 70.308197
-30.7673 -29.162901 70.679199
-30.2141 -29.0951 70.507301
-29.914101 -30.705999 69.761299
-31.3022 -30.7026 70.147697
-31.3909 -29.329901 70.998299
-31.5264 -29.934999 70.563301
-30.352699 -28.799801 71.232101
-29.768499 -28.752501 71.060501
-29.8148 -29.754999 69.869797
-29.4555 -29.048599 70.292503
-28.4946 -29.310499 72.719398
-27.5404 -29.3004 72.360603
-28.2668 -28.7486 71.620697
-29.212 -28.7082 71.773598
-28.0532 -30.1057 73.331497
-27.018801 -30.3319 72.721901
-27.0457 -28.7111 71.151199
-26.5137 -29.2285 71.797096
-28.969 -28.7451 70.866501
-29.8522 -28.756399 71.950699
-29.216801 -29.278 72.8116
-27.617201 -28.716499 70.440697
-31.131399 -28.990499 71.519699
-29.5499 -30.416 74.202003
-29.7708 -29.9415 73.819397
-30.648199 -30.168699 74.092102
-30.422501 -30.533501 74.476898
-28.810699 -29.971901 73.591499
-28.699301 -30.5049 73.953102
-30.186001 -29.323799 73.054604
-31.1015 -29.6343 73.3479
-30.553499 -30.1651 74.114304
-29.9911 -31.066099 74.910896
-29.415199 -30.900299 74.620102
-31.813601 -29.4284 71.745499
-32.033699 -29.702101 71.705299
-31.6507 -29.612801 72.054199
-31.575701 -29.346701 72.4776
-31.1537 -29.6814 73.083702
-29.867701 -30.837999 74.7509
-23.9935 -29.1488 68.681503
-23.0138 -30.5779 70.339302
-23.0735 -30.5369 70.226303
-23.941099 -30.5341 70.832802
-23.3361 -29.7652 70.199303
-24.114599 -29.608601 70.468399
-23.760401 -31.5858 70.9198
-23.768499 -29.0595 69.081596
-24.195999 -29.124201 68.726997
-23.997101 -28.9944 69.189697
-23.5289 -29.178801 69.447899
-23.6998 -29.0599 69.660599
-23.4356 -29.485001 69.716599
-23.543501 -29.507999 70.008797
-22.0287 -35.565399 71.249001
-21.607201 -35.0387 71.714401
-23.3286 -34.068298 68.990097
-23.504 -32.295101 71.080101
-24.204201 -32.364399 71.278
-24.343399 -31.537399 71.212196
-24.268801 -34.7202 69.1763
-24.075001 -35.104099 69.182899
-24.1999 -35.2929 69.429398
-24.4792 -34.242298 68.972198
-24.867201 -33.695202 68.792603
-25.959999 -33.1049 68.998802
-24.492901 -33.896999 68.822701
-24.628599 -33.580601 68.610901
-24.4821 -33.639301 68.591003
-24.0016 -33.918201 68.798798
-23.962799 -34.209599 68.943901
-29.2782 -34.926998 71.664001
-29.2903 -33.993401 70.7528
-31.126301 -34.532902 72.195297
-30.8794 -33.998402 71.182701
-29.1933 -32.985699 70.187302
-30.6507 -35.086498 73.344498
-32.026798 -33.7994 71.808701
-31.0765 -33.1213 70.499901
-32.397301 -34.026798 73.633102
-32.9949 -33.373901 73.033798
-32.469101 -33.082699 71.344902
-31.712299 -34.472301 74.303101
-33.3349 -32.721901 72.406097
-21.5009 -34.602001 72.200203
-23.8363 -37.0355 71.616302
-23.807699 -37.224098 72.069
-23.2843 -36.534199 70.873901
-25.618401 -29.6716 68.6082
-26.107 -29.693001 68.768799
-25.6901 -29.0259 69.131104
-25.3808 -30.7279 68.338097
-26.111799 -30.8613 68.620102
-27.108101 -29.813999 68.9981
-26.6863 -29.0028 69.507301
-24.7829 -29.1229 68.883102
-24.9674 -29.561199 68.433502
-22.504999 -34.389099 72.908897
-22.4811 -34.976799 73.623901
-22.8479 -34.316502 72.993698
-26.3505 -28.7931 70.016899
-25.462 -28.8811 69.637299
-28.0345 -28.9818 69.905998
-25.1071 -28.950899 70.124496
-25.9937 -28.780701 70.574203
-24.5446 -28.9704 69.362503
-24.312401 -29.023001 69.860001
-24.7283 -29.6931 70.759903
-24.4974 -30.643 71.095001
-25.584299 -29.444901 71.313797
-25.3349 -30.608299 71.652
-25.254801 -31.533899 71.720497
-23.7775 -33.036999 71.609901
-23.1339 -32.961498 71.386803
-25.2299 -32.299801 71.850197
-23.004801 -33.861401 72.361397
-22.245399 -33.788101 71.996002
-24.550699 -32.903099 72.028603
-22.1245 -33.980202 72.161797
-23.5632 -33.651699 72.475601
-25.8146 -31.5233 72.0923
-25.8209 -32.1101 72.194
-25.9352 -30.4851 72.107498
-26.855101 -31.2278 72.781601
-26.7829 -31.677099 72.805496
-25.623301 -32.389999 72.423897
-24.9583 -32.698502 72.237396
-23.2138 -34.208099 73.071503
-22.8006 -34.9151 73.655899
-24.437901 -33.135799 72.783798
-23.724199 -33.685101 73.282501
-23.211 -34.417 73.847504
-22.703501 -35.514801 74.033997
-22.473801 -35.586399 73.9403
-25.287399 -32.625599 72.852097
-22.538 -36.915401 73.414001
-22.860001 -36.752499 73.586304
-23.193001 -37.082699 73.2043
-22.569901 -36.138 73.891502
-22.997 -36.723099 73.641197
-23.3759 -37.243198 72.7379
-22.823799 -36.067902 74.022003
-22.999201 -35.1203 74.203201
-23.044701 -35.533901 74.301201
-28.1681 -31.1315 74.561203
-27.530199 -31.197599 74.9608
-26.6506 -31.5993 73.9925
-27.170401 -31.389299 73.755798
-28.883101 -31.2507 75.106003
-28.222099 -31.4177 75.597397
-25.862 -32.0667 73.415199
-26.397699 -31.9655 73.141701
-27.791201 -31.123501 73.560898
-28.6087 -30.8363 74.187302
-23.0779 -34.8652 74.308197
-23.191799 -34.982201 74.551201
-23.1726 -35.786701 74.255402
-25.075399 -32.366001 73.924896
-25.1646 -32.613201 73.064301
-26.6415 -31.803699 72.926697
-24.500601 -32.865601 73.582603
-23.591 -33.712299 74.101799
-23.462299 -36.481499 73.903
-23.4027 -35.584 74.434303
-23.8389 -36.200699 74.217796
-23.698601 -36.835899 73.531601
-23.2948 -34.2197 74.562599
-25.053801 -36.268799 74.218697
-23.943899 -33.243198 74.302101
-29.400999 -31.5993 75.5019
-28.9049 -31.853701 76.032501
-29.7192 -31.3591 75.036598
-29.6402 -31.898899 75.741501
-29.523701 -31.7563 75.327003
-29.2845 -32.665298 76.437599
-29.5343 -33.319901 76.521301
-29.6541 -32.3675 76.0783
-29.4224 -32.540798 76.291199
-29.552299 -33.707699 76.439598
-29.228399 -32.016602 75.657898
-29.129499 -32.2127 76.100403
-29.0606 -32.387798 76.267403
-28.4086 -29.828501 69.335197
-30.731199 -28.9611 72.191002
-32.613899 -31.228201 70.819801
-31.4762 -32.080601 70.183701
-32.6591 -31.977699 70.840103
-33.338902 -30.891001 71.744003
-24.218599 -36.555698 73.847099
-24.166 -37.048801 72.149696
-23.99 -37.059399 72.779503
-23.303801 -36.195202 70.556
-24.3692 -31.4806 68.259399
-24.6868 -31.283899 68.205902
-27.857901 -30.8165 73.509697
-29.330099 -31.496901 75.0905
-23.679501 -33.526199 68.450897
-23.7805 -33.218899 68.323997
-24.167 -33.265099 68.390198
-24.570601 -33.315601 68.452797
-24.055599 -33.641602 68.546402
-24.667101 -33.374401 68.530899
-24.0688 -35.7127 69.8311
-23.6996 -35.871101 69.957001
-23.819401 -35.697601 69.718399
-23.9046 -35.3111 69.338203
-23.534599 -33.763 68.802696
-24.718399 -36.8983 72.261902
-24.537901 -36.905399 73.000801
-23.849199 -34.588299 69.083099
-26.012899 -31.508101 68.693398
-27.252001 -30.909901 68.881401
-25.032 -30.946899 68.190002
-24.990299 -31.1919 68.239998
-28.7421 -35.521099 74.9561
-29.945299 -34.942001 75.535004
-30.2642 -35.295101 74.447304
-30.5303 -33.616001 76.315002
-31.3428 -34.288799 75.442101
-29.552299 -34.260399 76.187202
-29.822201 -33.171902 76.497498
-29.3883 -32.828899 76.472198
-29.437 -33.952499 76.353203
-25.976999 -32.150002 68.7453
-27.0578 -31.873699 69.009201
-29.436899 -31.852501 69.832802
-28.0597 -31.861799 69.417999
-28.321699 -31.0044 69.2295
-32.6422 -32.438499 71.004997
-33.458599 -32.182999 71.983704
-33.4706 -31.652 71.764397
-24.7052 -35.641399 75.001297
-23.9172 -35.157398 75.011398
-26.653601 -31.450701 75.370003
-25.7349 -31.835501 74.530502
-23.7728 -34.7575 75.251801
-23.7285 -34.765701 75.1381
-23.476801 -34.915798 74.7976
-23.327101 -34.313099 74.789299
-23.5376 -34.287201 75.028
-26.994699 -35.348301 75.434502
-26.1744 -35.894001 74.747101
-26.261 -35.3512 75.564003
-25.422199 -35.8204 74.845802
-23.5354 -33.651001 75.018501
-23.594999 -33.5616 74.802399
-27.9265 -31.957001 76.594803
-27.3561 -31.5658 76.073196
-28.4403 -32.743 76.906502
-28.788401 -33.431 76.875504
-28.963699 -34.029202 76.637398
-24.3883 -32.812099 74.600601
-23.984699 -32.992901 75.068802
-24.848499 -32.271801 75.165398
-27.694799 -35.358898 75.325699
-28.820601 -35.254002 75.546501
-28.9055 -34.729 76.258904
-24.301901 -34.915199 75.452797
-24.0809 -34.6161 75.560898
-23.9342 -34.650501 75.4049
-24.5175 -34.8657 75.818298
-25.2799 -35.227402 75.630798
-24.1096 -34.649399 75.783699
-24.3773 -34.7999 75.983002
-25.4648 -33.899101 77.805702
-25.5287 -34.2089 77.659798
-25.748699 -33.7006 77.778999
-25.896099 -34.1576 77.546402
-25.4195 -34.692902 77.289101
-25.193701 -34.791599 77.1101
-25.6057 -34.932899 76.675102
-25.8416 -34.6175 77.200798
-25.506701 -35.0448 76.171997
-24.733101 -34.82 76.187599
-23.9568 -34.2407 75.624496
-23.704201 -34.305901 75.445602
-23.834 -34.269299 75.512001
-24.620501 -32.346802 76.287697
-24.0154 -32.739399 75.707001
-24.1049 -32.663101 75.616096
-24.7409 -32.1786 76.225304
-23.799101 -33.152401 75.483299
-23.812201 -33.064499 75.312103
-24.3764 -32.4874 75.417702
-24.995701 -32.0397 76.139
-25.2631 -32.1726 76.937302
-25.8846 -35.290901 75.5942
-26.134501 -35.1577 76.021797
-23.7722 -33.201401 75.565903
-23.683901 -33.7729 75.406097
-23.6257 -33.7281 75.235298
-23.7236 -33.788799 75.522003
-23.643499 -34.299999 75.286003
-23.8088 -33.780899 75.558197
-27.133699 -33.988701 77.1157
-26.269501 -34.086399 77.380501
-26.1245 -33.652802 77.546799
-26.951401 -33.543098 77.284302
-27.191299 -34.534801 76.743301
-26.27 -34.528999 77.067497
-25.849199 -33.024899 77.594704
-26.5254 -32.8829 77.371498
-27.9142 -33.295799 76.9776
-28.1134 -33.840698 76.723099
-25.5518 -32.0504 76.811897
-26.194599 -31.7787 76.502899
-26.9767 -31.9963 76.968597
-26.0476 -32.294601 77.267899
-25.4951 -31.8318 75.915604
-27.551201 -32.6026 77.132797
-25.5783 -32.392502 77.392197
-26.179899 -34.950199 76.642502
-27.159201 -34.917 76.431396
-28.1569 -34.710701 76.133797
-28.2267 -34.427399 76.397102
-25.096901 -34.241699 77.6763
-24.691601 -34.224201 77.641899
-24.8895 -33.893299 77.846298
-24.883301 -34.646801 77.320099
-24.4713 -34.584599 77.297897
-24.2362 -34.0317 77.615303
-24.462601 -33.696701 77.849098
-25.250099 -33.834 77.869698
-24.7624 -33.471199 77.903297
-24.1255 -33.462502 77.835701
-24.3687 -32.980801 77.808601
-25.3235 -33.505299 77.857597
-24.7584 -34.785702 76.980301
-24.7673 -34.8284 76.668098
-24.2913 -34.751598 76.697304
-24.3634 -34.730999 76.9617
-23.9431 -34.5214 76.263
-24.318899 -34.743301 76.207497
-23.944799 -34.337299 75.883797
-23.9478 -34.235199 75.666298
-23.580099 -34.137299 75.916702
-23.808701 -33.783298 75.597603
-23.647301 -33.737801 75.626602
-23.5707 -34.317299 76.249001
-23.945 -34.626598 76.6968
-23.621099 -34.453098 76.752899
-23.177401 -33.883801 75.922302
-23.207899 -34.128601 76.247704
-22.9333 -32.629002 77.792603
-22.947901 -32.3591 77.576202
-22.5226 -33.443699 75.780602
-22.598101 -32.918201 75.761497
-22.496799 -33.696602 76.004303
-22.4846 -33.8437 76.2052
-22.5271 -34.016499 76.621399
-22.923 -32.968601 77.867203
-22.903299 -33.385502 77.7174
-22.796 -33.7127 77.448502
-22.6549 -33.914398 77.069
-23.6954 -33.2658 77.848198
-23.7806 -32.887402 77.773003
-23.618099 -33.6688 77.682999
-23.863199 -32.4431 77.519402
