# .PCD v.7 - Point Cloud Data file format
VERSION .7
FIELDS x y z
SIZE 4 4 4
TYPE F F F
COUNT 1 1 1
WIDTH 1764
HEIGHT 1
VIEWPOINT 0 0 0 1 0 0 0
POINTS 1764
DATA ascii
-19.6464 64.885201 87.584503
-18.353701 67.724197 84.8778
-18.4258 63.350601 104.386
-19.898701 63.655499 99.613503
-20.5674 64.292397 95.446602
-20.739 65.4048 92.162201
-19.688999 67.571098 89.188004
0.063551001 60.913799 115.9
0 65.119904 117.046
0.003156 89.384399 72.910698
0.0022549999 85.9804 72.900398
0 72.642403 118.661
0 76.273102 118.987
0 106.57 97.673401
0 106.768 101.316
0 103.583 86.9786
0.051344 60.990898 66.461899
0 106.463 105.179
0 100.829 114.17
0.0022479999 91.181503 73.5783
0 91.0401 116.995
0 75.887901 73.3479
0 105.795 92.977097
0 101.926 113.797
0 94.348999 116.213
0 99.215103 114.729
0 93.098099 74.464699
0 87.4776 117.773
0 80.969498 73.545403
0 70.735497 71.926399
0 97.085503 115.476
4.6841698 104.368 107.398
4.3671699 102.991 110.036
5.5668702 101.759 110.601
6.1594 103.006 108.084
5.32059 101.302 111.251
4.2111201 102.34 111.055
3.8355999 101.679 112.079
5.06212 100.646 112.067
2.50911 100.734 113.84
3.3991301 99.513496 114.074
4.1599102 99.911003 113.318
3.0675099 101.081 113.252
2.7773399 99.447998 114.3
2.0555699 100.681 114
1.3655 100.845 114.057
1.85075 99.346703 114.517
1.08753 107.241 101.29
1.84831 107.314 102.021
2.4310801 107.621 97.522202
1.3142999 107.192 97.561302
1.45085 106.778 92.6381
2.5554399 107.555 92.364998
2.6724899 106.44 86.199699
1.35087 105.217 86.434799
2.33355 99.735199 76.613503
1.72883 101.546 80.063698
3.2869599 104.076 80.3666
1.23139 66.731697 70.099998
1.4459701 70.9599 71.918999
3.2381999 66.829201 70.197502
20.5229 61.457901 94.393799
19.807301 61.166199 98.0075
2.4310801 97.462898 115.074
3.0943301 94.688004 115.757
4.9962802 94.797699 115.191
3.7234399 97.687202 114.674
1.03144 94.348999 116.213
0.80954802 97.085503 115.476
0.84368598 106.424 106.015
0.35113001 106.461 105.335
1.70688 79.925903 118.948
1.60934 83.659103 118.544
3.0016699 107.414 102.202
4.35498 107.209 102.399
5.2108598 107.976 97.662598
3.7453799 107.875 97.553902
5.7326798 108.493 92.6623
4.4183798 107.636 86.6409
3.9672799 107.949 92.285698
8.0363302 63.6394 114.903
8.2369099 66.931602 115.893
5.01091 68.021599 117.31
4.9060602 64.349403 116.352
13.929 62.855202 110.092
13.9764 65.328598 111.163
11.323 65.8937 113.716
11.1205 63.021099 112.709
16.5107 63.1674 106.827
18.1703 63.3703 103.148
20.263201 64.715797 95.176498
19.690201 64.5616 99.302299
8.52005 61.8503 68.176102
5.2509398 61.545101 67.195801
14.9543 62.256901 73.125999
11.9946 62.159901 69.831802
19.787901 62.325401 81.360497
18.3001 62.473499 76.873901
20.987301 61.825199 90.5728
20.694799 62.043499 86.356796
17.0357 60.186699 104.933
18.820499 60.788898 101.453
11.4956 59.770199 111.392
14.4186 59.641201 108.454
4.99647 60.937099 115.245
8.2733402 60.465099 113.742
7.8467698 67.190102 71.353302
5.1791601 66.975502 70.509598
11.1654 67.463203 72.745697
13.4136 67.402199 75.098701
17.222401 68.074402 78.598602
18.090099 68.188202 82.622902
19.5275 67.684402 86.997299
20.336399 65.477798 91.421402
9.0025702 104.891 104.059
10.7509 103.529 104.159
12.1993 106.258 99.366203
10.4047 107.344 99.222603
5.81071 106.663 102.748
7.3688402 105.838 103.394
8.5148897 107.74 98.7248
6.7641201 107.939 98.061096
3.0845799 104.303 109.495
3.18699 105.607 106.866
1.8288 106.273 106.405
9.5560904 100.024 108.832
7.6468201 101.656 108.731
6.9591899 100.27 111.263
6.6543899 99.414398 112.114
8.7367897 97.435898 111.969
2.9797201 102.64 112.087
3.2845199 103.303 110.929
0.97779799 101.967 113.721
1.43378 102.034 113.662
2.0141201 102.244 113.107
7.9882002 95.517097 113.435
5.6619701 98.345299 113.425
4.6866002 97.767601 114.284
6.7421799 94.643501 114.516
13.2795 93.2015 111.09
14.2988 95.483101 108.131
11.9189 98.044899 108.488
11.3044 94.829002 111.629
15.9008 98.777901 103.664
14.4426 104.566 99.384102
13.1893 101.61 104.031
18.746401 95.063599 103.1
20.7166 90.313499 102.875
22.3601 91.900902 98.046501
20.2777 96.987198 98.5644
16.044701 86.4925 111.526
18.2563 87.972603 107.944
16.6591 92.347099 107.81
15.4229 90.2062 110.853
9.5682802 90.242699 114.752
11.0362 85.870697 115.305
13.8501 85.802399 113.601
13.4039 89.269798 112.911
11.1386 91.620399 113.333
3.8331699 91.054703 116.622
4.4110699 87.219101 117.459
7.6004901 86.682701 116.637
6.59831 90.788902 115.874
8.3490801 78.231201 117.705
8.0028296 82.478897 117.481
4.8255901 83.178703 118.273
5.1206398 79.216301 118.644
8.5978003 70.116203 116.708
8.6368198 73.907898 117.312
5.2986398 75.266098 118.568
5.2620702 71.508499 118.124
14.2622 75.875999 114.187
13.9891 80.841698 114.403
11.1435 81.457001 116.166
11.3898 76.875397 116.137
14.8352 71.025703 113.235
11.7799 72.244904 115.218
11.7653 68.555603 114.411
19.4536 75.898804 107.682
18.890301 81.888496 108.31
16.547001 80.8778 112.245
16.959101 75.405403 111.845
19.3125 67.500999 105.925
20.280199 70.586998 106.686
17.5711 70.882896 110.559
17.829201 67.7108 109.28
22.7771 74.702904 95.9534
21.911501 72.416298 101.228
20.837799 68.984398 100.787
21.8009 70.821297 95.727501
21.484699 84.123199 102.629
21.7481 77.712502 101.871
22.9844 79.644302 96.648003
23.254999 85.887199 97.431396
0.32674599 101.926 113.797
0.711923 61.130402 66.488701
2.5479901 61.283501 66.720398
0.49743399 105.827 92.974602
0.338938 103.717 86.917603
0.34869099 106.848 101.312
0.40477499 106.59 97.673401
1.7654001 76.273102 118.987
1.7532099 72.642403 118.661
1.47036 87.4776 117.773
1.27772 91.0401 116.995
0.59984702 85.9804 72.8993
0.58765399 89.384399 72.908997
0.61447698 91.181503 73.577103
0.64861399 93.098099 74.464699
1.63617 65.100403 117.046
1.6703 69.016502 117.968
0.61691499 99.215103 114.729
0.45598099 100.829 114.17
0.57790101 99.096603 80.170601
0.94609898 96.820602 76.366501
0.69006699 95.131699 75.5718
1.68092 61.068802 115.9
0 95.131699 75.5718
0 98.996597 80.211998
0 69.031097 117.968
0 66.495201 69.965897
0 83.659103 118.544
0 79.925903 118.948
0 96.209503 76.929901
18.822399 62.483101 77.746803
17.588301 68.299004 79.295303
15.6076 67.335197 77.739502
14.7282 67.368599 76.883598
16.7153 62.304298 75.9814
20.563101 68.9534 91.270401
20.779499 69.925697 91.139297
20.6369 68.961502 95.459396
20.343901 67.744904 95.449699
19.673201 70.3097 86.8601
19.9902 67.384804 100.358
19.625 66.383003 100.039
18.457701 66.2864 105.064
18.0581 65.401604 104.718
17.2442 66.476196 108.278
16.772699 65.341103 107.971
14.4537 67.585999 111.982
17.466299 101.259 99.089203
17.9734 100.544 99.0131
19.2787 63.047001 98.673203
19.9594 63.056099 94.7742
20.0366 63.704399 91.099503
19.3001 65.2491 87.271202
18.1721 64.165901 103.801
16.6828 64.472801 107.51
19.5033 63.750099 98.965797
20.1043 63.779202 94.952202
20.1423 64.481598 91.231201
19.399799 66.269997 87.265099
18.3004 69.448502 82.4077
18.192499 64.878601 104.386
19.646799 65.270599 99.614403
20.3004 65.821503 95.4496
20.4746 66.821404 91.386803
19.5508 68.983803 86.925903
3.75758 101.943 76.763496
2.0702 96.752899 74.409203
2.3652501 98.500298 75.205399
3.61127 100.094 74.905502
3.38938 98.2267 73.4338
3.0675099 93.919998 71.733101
1.8409899 92.112099 72.604401
1.9434 94.520798 73.417702
3.2186899 96.182198 72.540604
2.99436 86.694603 71.431503
1.79466 86.348602 72.148201
1.76052 89.796501 71.992203
2.9333899 91.389603 71.062302
3.45278 76.680397 73.043098
1.38257 76.087799 73.333298
1.29723 81.1548 73.306503
3.2455101 81.671799 72.6091
3.6137099 71.615799 72.206802
6.3861699 108.707 87.246902
13.6502 108.212 83.021301
15.735 107.654 83.368301
15.9008 106.339 78.679298
13.9891 106.587 78.459
5.0938201 100.572 74.011902
7.3956699 72.371696 72.870003
5.0548 72.032799 72.377403
4.8329101 77.070503 72.877296
10.5168 72.2425 73.452797
12.5187 72.553703 73.537399
16.7908 72.829697 75.893501
18.783001 74.796097 77.165604
22.7015 78.800201 82.665398
21.1507 75.762199 82.2855
21.7505 77.279404 77.540398
22.9258 80.654503 78.190201
21.835899 71.9618 91.289902
21.1604 73.751801 86.738403
22.430799 77.118896 87.044701
22.740499 75.970901 91.488998
5.49371 106.555 81.229301
7.6224399 107.937 81.795502
8.8977203 106.109 77.367897
7.3078899 104.997 77.143997
5.8838601 103.917 77.088898
9.6536303 108.529 82.1782
11.7214 108.587 82.615097
12.3749 106.792 78.173203
10.607 106.81 77.757202
9.7926102 108.85 93.899399
10.9582 109.534 88.307602
8.6904602 109.64 88.059898
7.7150998 109.042 93.149498
12.9869 108.977 88.610802
11.6604 108.359 94.124496
13.5673 107.534 94.260498
15.0644 108.296 88.879898
17.6199 105.245 78.931702
17.490601 106.559 83.644302
16.815201 107.21 89.057503
15.5448 106.263 94.345398
23.8841 89.708603 83.679001
23.2355 84.705002 83.241699
23.372101 86.2715 78.928703
23.6793 90.647202 79.175499
21.801701 98.608299 83.945198
23.3501 94.078796 83.822899
22.9575 94.269402 79.207802
21.4872 98.275101 79.210403
23.5403 87.334801 92.759499
23.138 81.218903 92.103996
23.1404 82.987 87.624298
23.732901 88.704102 88.233597
20.9629 98.273598 94.0215
22.8941 93.1325 93.534401
23.228201 93.916702 88.813499
21.4725 98.874901 89.148102
17.519899 73.265297 76.659599
13.7404 72.367401 74.190903
15.1571 71.943802 74.7957
20.109501 71.362297 86.790703
18.566 72.374397 82.253601
19.0975 73.562103 82.150398
19.0341 102.544 79.140198
19.5023 101.561 79.1745
19.1292 103.457 89.123703
19.612101 102.392 89.145401
19.763201 102.291 83.873199
19.2463 103.329 83.832001
18.334299 102.67 94.242996
18.948799 101.726 94.200897
18.5392 70.760803 82.279198
17.437 72.062698 77.613602
16.888399 71.454697 76.994102
15.2815 70.510696 76.201302
14.1452 70.119102 75.571198
4.8987498 95.569504 70.255501
4.2940202 95.448303 70.977203
4.4744601 97.152397 71.677101
5.0718699 97.246201 70.939301
7.9540601 98.259804 67.308296
9.2732296 99.449699 64.514503
8.7904301 97.892601 64.177696
7.5907402 96.6259 66.8731
11.9604 105.722 60.117401
11.6287 104.867 62.604401
12.3286 105.632 62.783298
12.6065 106.441 60.272999
10.49 102.291 62.0266
11.0313 103.571 62.327
11.4166 104.529 59.8937
10.9484 103.421 59.660599
9.4049101 99.6661 61.4077
10.0096 101.029 61.709999
10.5534 102.401 59.4338
9.9291601 101.194 59.129398
8.3588305 96.570099 60.894001
8.6733904 98.229897 61.1273
9.0732899 99.801804 58.742699
8.6709499 98.337303 58.355701
9.4878101 92.8657 60.136799
8.4929504 94.647598 60.661499
8.7270298 96.790398 57.959202
9.6560602 95.326401 57.275101
13.16 89.634804 58.041401
11.4044 91.033997 59.108101
11.5263 93.744003 56.0825
13.1698 92.704597 55.172798
10.2803 99.717598 52.844799
9.9047804 97.699402 54.952599
9.1098604 98.825401 55.686001
9.6146097 100.608 53.536701
12.9699 95.530502 53.2108
11.5068 96.379097 53.9869
11.6117 98.615997 52.029099
12.865 97.928001 51.395302
9.5755997 101.349 54.1674
9.0781603 99.847298 56.279701
9.5000095 101.054 56.834202
9.9754896 102.477 54.750099
10.807 104.001 55.291199
10.3632 102.478 57.384701
10.9021 103.591 57.741901
11.2678 104.993 55.604801
11.3751 105.57 55.7164
11.1191 104.391 57.905399
11.4775 105.353 58.136902
11.6214 106.344 55.988998
12.0262 107.434 56.4338
11.975 106.477 58.4282
12.5919 107.162 58.615601
12.587 108.108 56.711201
12.0676 109.83 52.263401
12.1115 108.612 54.162102
12.5919 109.321 54.534
12.5236 110.514 52.573502
11.6799 106.773 53.187698
11.8482 107.494 53.483101
11.8677 108.692 51.7188
11.3751 107.169 51.222198
11.2654 105.757 52.884701
10.1584 102.849 52.049999
10.4973 104.071 52.5205
10.5924 105.378 50.723099
10.251 104.075 50.191399
10.8119 101.288 50.8587
10.2486 102.091 51.473202
10.351 103.261 49.6269
10.9216 102.431 49.078098
12.9138 99.832298 49.653099
11.875 100.381 50.1366
11.9799 101.553 48.546299
12.9211 101.07 48.239101
9.9096603 104.098 48.097401
10.5948 103.107 47.617901
11.9091 102.068 47.169201
12.9406 101.504 46.914398
10.2632 106.408 49.3325
9.85357 105.032 48.601601
11.1386 108.331 50.173698
11.5531 109.854 50.648602
11.7726 110.952 50.781101
12.2749 111.624 50.8783
14.0988 107.51 58.721001
14.0769 108.462 56.829601
13.3185 108.375 56.812698
13.3307 107.422 58.706699
13.9793 109.631 54.634102
13.9403 110.79 52.657299
13.2308 110.748 52.648499
13.2868 109.574 54.625
13.9208 111.851 50.940102
13.1381 111.811 50.929199
13.6867 101.416 46.8563
14.4548 101.449 46.869598
14.5646 101.01 48.151798
14.7791 99.771698 49.507301
13.8525 99.757103 49.5186
13.7526 100.988 48.151001
15.1181 97.7416 51.005901
15.5302 95.2117 52.659401
14.2549 95.257797 52.749298
14.0086 97.736099 51.037102
15.8496 92.377403 54.680401
16.0422 88.942596 57.214199
14.6719 89.003799 57.2967
14.5353 92.406898 54.742699
13.1308 105.857 62.8535
13.933 105.933 62.868099
14.1135 106.756 60.3605
13.3551 106.687 60.3494
15.3985 111.134 50.8503
14.8206 111.758 50.912102
16.2934 108.575 50.3638
15.7252 110.048 50.7743
17.349199 106.743 49.621899
17.9417 105.407 48.9034
15.2498 101.608 46.954899
16.268999 102.26 47.283199
18.0734 104.465 48.383999
17.514999 103.413 47.850601
16.2276 101.711 48.594002
16.5811 100.449 50.044701
15.6813 99.899002 49.640099
15.3546 101.15 48.251999
17.6882 103.626 49.8027
17.971001 102.524 51.517399
17.510099 101.47 50.769402
17.190701 102.681 49.181099
17.1737 105.781 50.9627
17.6052 104.837 52.7967
17.995399 103.551 52.210899
17.661301 104.516 50.387901
15.5521 108.844 51.972599
16.013 107.079 53.5485
16.6908 106.279 53.239101
16.2251 107.408 51.5243
14.6767 109.498 54.562698
15.2619 108.848 54.280701
15.179 109.99 52.3685
14.6475 110.642 52.597698
15.5521 106.889 58.490601
15.4082 107.707 56.499298
14.806 108.4 56.780102
14.9059 107.429 58.6712
17.080999 105.793 58.229198
16.5348 106.458 56.0835
18.468399 104.088 57.802299
17.707701 105.077 55.632
17.178499 105.875 55.948601
17.797899 105.189 58.1278
19.602301 100.988 56.495602
18.895201 102.496 54.401901
18.5026 103.797 55.109299
19.287701 102.564 57.271301
18.0173 96.133797 53.4683
16.7859 95.3638 52.906601
16.2544 97.870796 51.214298
17.356501 98.543602 51.709301
19.702299 99.306198 55.542999
19.2146 97.6875 54.514702
18.4172 99.880997 52.606201
18.9195 101.167 53.4842
18.466 93.444199 55.558899
18.7367 90.241203 58.1091
17.3468 89.149902 57.456001
17.1273 92.581001 54.942402
20.309401 96.994499 57.742599
20.6045 94.804497 60.557899
20.09 92.529602 59.557598
19.8071 95.055099 56.665199
19.7169 101.312 59.251598
19.880301 99.641602 61.673302
20.285 97.4105 61.210602
20.0485 99.128098 58.589199
18.3953 104.048 59.892601
18.339199 103.072 62.253502
19.1122 101.674 62.060299
19.1171 102.621 59.589001
16.7152 104.5 62.491699
17.2346 103.878 62.337799
17.6735 104.841 60.007999
14.7328 105.901 62.843498
15.5887 105.436 62.715302
15.618 106.108 60.18
14.8962 106.664 60.316399
11.0069 104.141 74.329102
12.5066 104.537 74.487999
12.6212 104.493 73.496201
11.1581 104.114 73.460197
13.1381 104.472 69.081802
13.5478 104.909 66.190598
12.6602 104.869 66.171898
12.0847 104.354 69.051201
8.1637602 102.289 73.726799
9.5122004 103.445 74.102097
9.7462902 103.453 73.181702
8.36127 102.257 72.862503
15.4546 79.431396 66.737503
15.2132 75.366699 70.478104
13.7038 76.100601 69.857498
13.8062 80.022202 66.719101
14.5743 85.351402 60.580399
16.027599 85.204399 60.427101
15.8252 82.129898 63.698299
14.25 82.531197 63.849201
12.2481 76.770897 69.921303
10.1998 77.173698 70.782204
10.3461 82.104202 67.909302
12.3724 80.774002 67.049896
11.758 104.664 66.107903
10.9777 103.847 65.849602
10.0169 103.073 68.738197
11.024 104.036 68.979401
11.3166 87.599403 62.168499
12.9942 85.994003 61.272999
12.7236 83.244003 64.449402
10.8899 84.830101 65.255699
8.4807501 92.2939 63.618801
9.5073204 90.097 63.186901
8.8318901 87.182297 66.146103
7.65414 89.766197 66.480003
8.3051901 96.335403 63.937698
8.1954603 94.487701 63.7729
7.2810602 92.772697 66.463997
7.2639899 95.023499 66.564201
10.3193 102.429 65.410004
9.7511597 100.99 64.965401
8.3563995 99.923798 67.867104
9.0440302 101.517 68.342499
5.3913002 98.935501 71.482002
4.6500301 98.834801 72.408501
6.11063 100.812 73.220398
6.6641502 101.027 72.484299
4.8865499 90.818298 69.545898
4.1916099 88.747597 70.479797
4.1062698 93.1063 70.2799
4.5939498 93.871002 69.760696
7.0542898 76.794998 72.606697
4.5451798 81.961899 72.170197
6.0130901 87.018997 69.317299
7.5346599 84.068497 69.1464
15.7057 104.339 65.971397
14.4231 104.786 66.163696
14.1671 104.369 69.077698
15.6984 103.953 68.920303
15.8423 104.274 74.690804
15.813 104.127 73.641602
14.011 104.495 73.525597
14.0062 104.624 74.584602
17.819799 101.549 65.1306
16.927401 103.297 65.599403
17.1127 102.573 68.596397
17.827101 100.626 68.286201
18.4587 100.336 72.877296
17.4126 102.674 73.546799
17.541901 102.902 74.820801
19.312099 99.482498 64.7976
18.3221 100.649 64.859398
19.297501 97.683701 67.874397
22.206499 94.632599 74.985298
20.889799 95.661697 71.560699
19.6511 98.249001 72.196098
20.655701 97.767303 75.053802
20.584999 95.435699 64.083603
19.8388 97.897003 64.544701
20.5655 95.2201 67.593201
21.297001 92.673897 67.248802
23.3526 87.738197 74.512199
22.677099 90.0121 70.642502
21.8993 93.0261 71.021797
23.0965 91.525497 74.8536
17.3955 85.380203 60.617401
18.922001 86.670502 61.1092
19.695 83.3172 64.295799
17.5711 82.104698 63.889702
20.350901 89.538597 62.447601
20.843399 92.447403 63.534401
21.8237 89.7099 66.674202
21.297001 86.375999 65.561996
22.413799 79.370201 72.671997
22.2285 82.670998 68.729897
22.901501 86.218803 69.915497
23.3379 83.143997 73.786797
17.7418 78.915802 66.896103
20.297199 79.962898 67.471802
20.1509 76.501701 71.564903
17.3102 74.958298 71.0923
16.373899 106.168 58.245998
16.1593 106.328 58.311001
16.3958 105.473 60.049999
16.6884 105.284 60.024101
16.052 106.802 56.196201
15.874 107.004 56.261398
15.6984 107.59 53.750198
15.5789 107.862 53.865002
18.926901 100.548 75.052498
18.5879 101.292 75.033897
19.875401 99.805298 0.25921401
17.380899 101.8 0.095841996
20.3363 101.144 0.29335201
17.461399 97.688698 0.23483101
16.386 100.647 0.086088002
18.844 98.622597 0.242146
14.0574 96.9328 0.25921401
14.8474 100.076 0.090965003
15.7301 97.005997 0.237269
11.1215 98.2715 0.34211999
13.3478 100.51 0.125103
12.4432 97.469299 0.29822901
9.5682802 100.629 0.429903
12.309 101.561 0.161678
10.0901 99.337097 0.38357401
9.71702 103.863 0.50305498
12.0823 103.051 0.200693
9.5560904 102.149 0.47867101
10.5485 106.962 0.51037002
12.4017 104.745 0.215323
10.0511 105.601 0.50793201
12.2578 108.14 0.47867101
13.2137 105.716 0.21288501
11.2093 107.772 0.50061601
15.1888 107.971 0.429903
14.6085 105.906 0.195816
13.6916 107.903 0.44940901
17.9198 108.074 0.415272
16.0788 105.845 0.176309
16.744499 108.347 0.42258701
17.0005 104.95 0.156802
18.712299 107.318 0.40551901
19.3731 106.009 0.393327
20.221701 102.644 0.34699699
17.4809 103.297 0.134856
19.899799 104.324 0.38113499
11.1606 108.815 3.4510801
12.2432 109.271 3.4242599
10.4681 107.964 3.54618
9.9925604 106.691 3.7071099
9.7340899 105.17 3.9485099
9.6706896 103.573 4.2338099
9.8048096 102.075 4.5727401
10.3632 100.861 4.8824201
11.3508 99.924698 5.1701498
12.6236 99.342003 5.4018002
11.0972 98.634804 2.14166
11.0264 98.083702 0.77371699
12.3944 97.2547 0.72982597
12.448 97.878899 2.25383
9.9632998 99.183502 0.817608
10.0462 99.690697 2.02705
9.4926901 100.998 1.92952
9.4219799 100.517 0.86637598
9.40979 102.083 0.91514403
9.4366102 102.556 1.85149
9.5682802 104.297 1.78078
9.5755997 103.863 0.94440597
9.9218502 105.679 0.94684398
9.8877096 106.043 1.72225
10.3949 107.43 1.69543
10.4364 107.096 0.94928199
11.1191 107.932 0.93952799
11.0874 108.279 1.69056
12.1798 108.701 1.71982
12.2018 108.325 0.91514403
15.2302 109.254 3.5510499
13.7111 109.193 3.4632699
13.6745 108.53 1.78321
15.2254 108.598 1.87344
15.2302 108.181 0.86393797
13.6843 108.11 0.88344502
15.7911 96.776802 0.66398901
15.7911 97.500999 2.46597
14.0964 97.427803 2.3684299
14.0623 96.6987 0.68593502
15.7643 99.183502 5.67734
14.1866 99.112801 5.58956
16.8347 108.905 1.99536
18.049 108.583 2.1050799
18.0515 108.242 0.84930801
16.8396 108.537 0.85662299
18.8708 107.791 2.20262
19.536501 106.462 2.3025899
19.553499 106.101 0.82492399
18.8708 107.462 0.83955401
20.3363 103.068 2.5123
20.4338 102.592 0.78103203
20.099701 104.336 0.81516999
20.051001 104.77 2.42208
19.916901 100.173 2.60252
20.0753 99.663803 0.68837398
20.5508 101.046 0.724949
20.3948 101.532 2.5708201
19.007299 98.444603 0.67130399
18.9049 98.993301 2.59764
17.529699 98.103302 2.55375
17.5784 97.483902 0.661551
18.585501 100.269 5.5749302
17.3517 99.551697 5.6700201
19.933901 102.6 5.1360102
19.460899 101.332 5.37498
19.8242 105.626 4.5727401
20.002199 104.07 4.8555999
18.783001 108.306 4.0411701
19.397499 107.091 4.27526
17.9832 109.093 3.85585
16.7981 109.454 3.6924801
19.665701 104.477 5.9553199
19.5121 105.879 5.6139398
19.558399 103.117 6.29669
19.1049 101.956 6.5917401
18.307501 100.99 6.8502102
17.183399 100.369 6.9916401
15.713 100.091 7.0233402
14.2378 100.02 6.9331198
12.7675 100.164 6.7161002
11.58 100.661 6.4381199
10.6631 101.515 6.1016202
10.1218 102.622 5.7382998
9.9511099 103.994 5.3335299
9.9974403 105.443 4.9897099
10.2608 106.947 4.6995401
10.7314 108.22 4.5117798
11.3922 109.003 4.4093699
12.3993 109.449 4.3898602
13.7672 109.564 4.4435101
15.2034 109.622 4.5312901
16.664 109.627 4.6556501
17.756399 109.254 4.8141499
18.504999 108.51 5.0092201
19.0902 107.42 5.2725701
-3.7154801 96.100601 74.920998
-2.0329199 93.846001 74.033401
-2.32552 94.914597 74.5009
-3.5620799 93.637497 73.6129
-3.3345399 91.871399 72.702003
-3.0062101 89.012901 71.891602
-1.80443 91.089302 72.644096
-1.90558 92.318497 73.320099
-3.15959 90.315804 72.309601
-2.9469399 86.448898 71.502403
-1.76559 86.348602 72.160797
-1.72653 89.796501 72.006798
-2.8777599 88.043198 71.397598
-3.4345601 76.680397 73.050102
-1.38257 76.087799 73.333298
-1.28637 81.1548 73.3116
-3.2117901 81.671799 72.622002
-3.61288 71.615799 72.2071
-6.3647199 106.877 84.743103
-13.631 103.443 79.0354
-15.7161 102.992 79.515297
-15.8676 99.848198 75.2052
-13.9556 100.028 74.925499
-5.0416999 92.432503 72.563904
-7.3622999 72.373199 72.876099
-5.0422101 72.032799 72.381302
-4.8000398 77.071602 72.887199
-10.4595 72.244301 73.456497
-12.4534 70.904999 74.997498
-16.720699 69.060204 80.0084
-18.710699 69.883102 82.737801
-22.648199 75.025101 87.2714
-21.0928 72.152397 87.5261
-21.682199 71.838898 83.1334
-22.863001 75.007004 82.9804
-21.826099 71.172096 94.666801
-21.111099 71.779503 91.269402
-22.3873 74.930801 91.311897
-22.710699 75.057098 95.2117
-5.4686999 101.895 78.067902
-7.5996599 102.72 77.883698
-8.8607702 99.120499 74.007698
-7.2690001 97.869202 74.115898
-5.8435402 96.713699 74.388298
-9.6325998 103.469 78.117699
-11.7016 103.686 78.5392
-12.3409 100.136 74.593498
-10.572 100.001 74.186203
-9.7954502 107.684 90.323097
-10.955 106.66 84.189102
-8.6867905 106.689 83.911201
-7.7048302 108.258 90.768303
-12.9839 106.196 84.620796
-11.6695 107.26 90.660599
-13.5755 106.48 90.9664
-15.0613 105.596 85.042603
-17.5861 98.794502 75.752701
-17.4711 101.96 80.056
-16.811199 104.557 85.4552
-15.5517 105.246 91.303596
-23.845501 85.321503 85.2285
-23.190399 80.454002 86.464203
-23.317301 80.513199 81.875603
-23.6299 84.7257 80.667503
-21.7735 93.816704 82.554604
-23.316601 89.496498 83.926903
-22.912201 88.157997 79.507103
-21.4461 91.944 78.194099
-23.525999 86.205902 94.314301
-23.115601 80.268799 94.8358
-23.105801 80.512802 90.732002
-23.7066 85.872902 89.8619
-20.962 97.197701 92.549797
-22.8871 91.803802 93.414497
-23.2087 90.986702 88.694199
-21.4585 96.034698 87.4758
-17.4485 69.214401 81.250298
-13.674 70.023201 76.433899
-15.0909 69.2062 77.596298
-20.0872 69.811996 90.406303
-18.506201 69.757698 86.477097
-19.036501 70.4636 87.007401
-18.997601 96.028999 76.741898
-19.4648 95.039101 77.082497
-19.1208 100.765 86.3395
-19.602301 99.681396 86.604698
-19.7391 97.597 81.386597
-19.223301 98.668503 81.065201
-18.337799 101.661 91.895401
-18.951401 100.71 92.0373
-18.5105 68.672501 85.633598
-17.371201 68.864403 81.495796
-16.824699 68.641602 80.306503
-15.2222 68.804001 78.094902
-14.0883 69.294403 76.434799
-4.8313599 86.472603 70.664101
-4.2284002 86.596901 71.386703
-4.4125299 88.436096 71.486298
-5.0081 88.280701 70.7575
-7.8818498 88.037102 66.989098
-9.1949797 88.238503 63.9566
-8.70961 86.658203 64.1521
-7.5156202 86.351601 67.116798
-11.8773 92.709 57.733898
-11.5513 92.720703 60.364498
-12.2524 93.500702 60.280102
-12.5247 93.437798 57.642799
-10.4083 90.100098 60.669399
-10.9518 91.406898 60.530499
-11.3317 91.509499 57.916698
-10.8617 90.387199 58.062401
-9.3187399 87.4198 60.951401
-9.9257202 88.805199 60.7868
-10.465 89.350403 58.1847
-9.8386698 88.112 58.295799
-8.2688999 84.3293 61.488098
-8.5849304 85.972801 61.1609
-8.98318 86.671501 58.3923
-8.5804195 85.162201 58.511101
-9.3909397 80.580002 61.989799
-8.3994198 82.437103 61.900799
-8.6337605 83.5709 58.645699
-9.5557804 81.961197 58.477901
-13.0542 76.832397 61.067001
-11.3028 78.508102 61.617401
-11.4198 80.070801 57.868
-13.0597 78.786797 57.347698
-10.1797 84.648903 52.852901
-9.80509 83.437302 55.5056
-9.0158501 84.743797 55.830898
-9.5185204 85.719299 53.216099
-12.8577 80.8097 54.5653
-11.3976 81.869202 55.021801
-11.5032 83.337097 52.438499
-12.7507 82.476097 52.061901
-9.4814596 86.626099 53.567101
-8.9862499 85.904198 56.054699
-9.40835 87.225403 56.1782
-9.8819304 87.881798 53.742901
-10.7123 89.496803 53.747299
-10.2698 88.748497 56.225201
-10.8105 89.9161 56.194801
-11.1725 90.535698 53.7146
-11.2804 91.117104 53.6297
-11.0289 90.725502 56.085201
-11.3889 91.709396 55.986301
-11.5282 91.937202 53.631901
-11.9354 93.112396 53.692101
-11.8884 92.865501 55.8904
-12.5065 93.572998 55.8405
-12.4977 93.839104 53.7309
-11.9727 93.976997 49.0163
-12.0164 93.472504 51.162998
-12.4981 94.253799 51.290199
-12.4279 94.719597 49.096001
-11.5835 91.420898 50.847198
-11.7523 92.197998 50.887901
-11.7713 92.732101 48.855499
-11.2773 91.149498 48.867599
-11.169 90.362602 50.8983
-10.0608 87.344803 51.075802
-10.401 88.652397 51.1147
-10.4929 89.296097 48.993099
-10.1487 87.892097 48.924
-10.7081 85.477997 50.462502
-10.1486 86.439598 50.7812
-10.2453 86.937599 48.660198
-10.8119 85.968002 48.403999
-12.7992 83.6978 49.7854
-11.7656 84.3806 50.0732
-11.8656 84.954597 48.159599
-12.804 84.392799 48.007198
-9.7920599 87.224701 46.920601
-10.4717 86.130501 46.765301
-11.7798 84.999901 46.6493
-12.806 84.380997 46.572201
-10.1571 89.813202 47.351501
-9.74125 88.272301 47.112801
-11.0386 91.8908 47.5355
-11.4562 93.480598 47.5159
-11.6769 94.562798 47.309101
-12.1791 95.229797 47.194599
-14.0141 93.933403 55.8223
-13.9882 94.209999 53.7229
-13.2297 94.1231 53.7374
-13.2459 93.847 55.839401
-13.8862 94.571999 51.2855
-13.8433 95.0037 49.087101
-13.1337 94.962898 49.092899
-13.1936 94.517998 51.2957
-13.8206 95.460899 47.175098
-13.0398 95.420502 47.18
-13.5485 84.277 46.535198
-14.3144 84.308899 46.5257
-14.4454 84.302101 47.930099
-14.6618 83.586403 49.657299
-13.7352 83.578201 49.674999
-13.6342 84.282997 47.940701
-15.0025 82.167702 51.750702
-15.4162 80.322403 54.1441
-14.1412 80.397797 54.216499
-13.8931 82.174896 51.784401
-15.7379 78.3106 56.984798
-15.9334 75.9011 60.507702
-14.5633 75.988602 60.568298
-14.4238 78.361504 57.036701
-13.0551 93.735001 60.270599
-13.8574 93.809998 60.257702
-14.0322 93.761002 57.618698
-13.2738 93.693604 57.632401
-15.2989 94.748299 47.301701
-14.7202 95.362 47.1749
-16.1926 92.168701 47.607601
-15.6255 93.693802 47.553299
-17.2446 90.205299 47.4604
-17.8318 88.704498 47.2141
-15.1143 84.4823 46.547901
-16.1406 85.201401 46.6511
-17.9585 87.637802 47.010502
-17.394199 86.470802 46.828201
-16.1133 85.107399 48.1255
-16.4711 84.404198 49.944099
-15.5668 83.750702 49.7425
-15.2373 84.465401 47.9772
-17.582899 87.321198 48.657902
-17.870501 86.845299 50.6446
-17.4055 85.604698 50.287102
-17.0812 86.222801 48.380798
-17.0735 89.739998 49.050999
-17.5086 89.451202 51.096001
-17.8976 88.043098 50.9627
-17.559099 88.354301 48.919701
-15.4512 92.950897 49.033501
-15.9142 91.819504 51.076199
-16.5928 90.960999 51.044601
-16.125 91.4636 49.053299
-14.5832 94.423401 51.258099
-15.167 93.724403 51.194099
-15.0804 94.155502 49.0564
-14.5501 94.844101 49.074501
-15.4661 93.268402 55.806
-15.3179 93.385498 53.656898
-14.7171 94.133698 53.695
-14.821 93.8386 55.800301
-16.993099 92.144096 55.917
-16.441999 92.0672 53.673
-18.379 90.3909 56.071602
-17.6145 90.6119 53.697701
-17.0847 91.471298 53.736
-17.709101 91.539398 56.018398
-19.512699 87.0308 55.851501
-18.802401 87.7668 53.378201
-18.410801 89.229698 53.6208
-19.199699 88.775803 56.067402
-17.911301 81.454201 54.596298
-16.6728 80.544899 54.324799
-16.1409 82.356003 51.902
-17.249201 83.151703 52.142502
-19.6098 85.128899 55.503899
-19.1168 83.262901 55.067402
-18.3169 84.707298 52.543701
-18.8239 86.209702 52.947498
-18.3599 79.602097 57.4566
-18.631599 77.416702 60.919399
-17.2388 76.173897 60.664902
-17.0165 78.5867 57.162399
-20.218599 83.669296 58.342499
-20.514099 82.528099 61.724098
-19.993099 80.051804 61.530201
-19.7104 81.484398 57.965302
-19.6306 88.244003 58.350101
-19.794701 87.464302 61.188
-20.197201 85.204498 61.4841
-19.960199 85.963402 58.441601
-18.3099 91.042099 58.059101
-18.2589 90.897797 60.609798
-19.0299 89.512604 60.885899
-19.0299 89.593201 58.240398
-16.6371 92.327599 60.368099
-17.155399 91.688797 60.4263
-17.589199 91.829697 57.908699
-14.6571 93.769897 60.243301
-15.5122 93.286903 60.273602
-15.5355 93.0867 57.658298
-14.8147 93.657799 57.605701
-10.9595 95.895798 71.676003
-12.46 96.326103 71.693497
-12.5719 95.951202 70.770302
-11.1084 95.584503 70.863998
-13.0772 94.477097 66.607697
-13.4798 93.937599 63.7328
-12.5921 93.894501 63.730598
-12.0237 94.357697 66.619904
-8.1127501 93.9543 71.723
-9.4634199 95.166496 71.694099
-9.6950998 94.870903 70.8218
-8.3079596 93.639198 70.917
-15.3604 70.056099 72.632401
-15.1302 69.509399 75.2034
-13.62 70.333603 74.189903
-13.7127 70.611 72.424103
-14.4705 73.620903 64.871597
-15.9232 73.428802 64.772102
-15.726 71.602997 68.873497
-14.1517 72.034599 68.887199
-12.1653 71.383003 73.764099
-10.1225 73.343399 73.364304
-10.258 72.975304 72.869797
-12.2806 71.432503 72.491898
-11.6895 93.681503 63.739498
-10.9077 92.826599 63.766102
-9.9536896 93.049004 66.750397
-10.9624 94.036003 66.658897
-11.2194 76.272598 65.638
-12.8929 74.458603 65.317398
-12.6276 72.908096 69.222603
-10.7977 74.674698 69.465698
-8.3923998 81.188103 65.468102
-9.4154501 78.969597 65.781197
-8.7446299 77.192703 69.536499
-7.57056 79.744797 69.003601
-8.2220497 85.109703 64.439201
-8.10989 83.310898 64.891998
-7.2006998 82.579102 67.999603
-7.1863298 84.737503 67.353302
-10.2466 91.344803 63.819
-9.6757498 89.840797 63.8741
-8.2874498 89.791496 66.968102
-8.9780502 91.4515 66.890999
-5.33078 90.053802 70.713203
-4.5918298 90.265198 71.622704
-6.0567002 92.396698 71.735397
-6.60851 92.355904 70.968597
-4.81217 81.752701 71.558197
-4.1202798 83.9133 71.575302
-4.0370498 85.639198 71.085602
-4.5234299 84.706497 70.756699
-6.9966302 76.7994 72.617104
-4.4903002 81.967003 72.185898
-5.93399 78.087799 72.590599
-7.4519 75.242599 73.397301
-15.6366 93.322502 63.709202
-14.355 93.810799 63.746101
-14.1061 94.376701 66.635498
-15.6366 93.9291 66.620697
-15.7959 96.130997 71.963699
-15.7637 95.6474 71.021202
-13.9619 95.959602 70.794502
-13.9599 96.4506 71.755699
-17.745399 90.407799 63.828899
-16.8561 92.213997 63.698299
-17.0485 92.516998 66.765999
-17.76 90.574699 67.112602
-18.403299 91.810699 71.542099
-17.3615 94.240601 71.406898
-17.494301 94.875099 72.534401
-19.2346 88.343697 64.191704
-18.246 89.467499 63.868099
-19.226101 87.657997 67.689201
-22.1504 87.112396 75.402
-20.8258 86.959198 71.832298
-19.5916 89.6138 71.583199
-20.603201 90.097801 74.438103
-20.5012 84.285004 64.847099
-19.7589 86.762299 64.473801
-20.4907 85.236801 68.232002
-21.2185 82.717796 68.7435
-23.2878 80.444298 77.222397
-22.6047 81.318901 72.821297
-21.8311 84.291199 72.189003
-23.036699 84.133301 76.298698
-17.2918 73.654999 64.890999
-18.8209 75.032402 64.927399
-19.5986 72.913498 69.038696
-17.472401 71.638901 69.058899
-20.256399 78.178398 65.244003
-20.754999 81.281998 65.311699
-21.740499 79.728798 69.175499
-21.2073 76.215599 69.2239
-22.3351 71.938698 78.241501
-22.143 73.758202 73.432899
-22.823 77.4972 73.383102
-23.2663 75.867401 78.049896
-17.647499 69.617104 72.947098
-20.205601 70.790497 73.140602
-20.0662 69.139603 77.8265
-17.2271 68.852997 76.323799
-16.2864 92.505898 55.8106
-16.072201 92.677902 55.82
-16.3123 92.442596 57.743
-16.6047 92.255302 57.780201
-15.9598 92.430199 53.667099
-15.7822 92.642197 53.6628
-15.6007 92.369598 51.098801
-15.4818 92.664398 51.117901
-18.877399 92.726196 73.5252
-18.5392 93.423103 73.263496
-18.8685 71.783203 -0.023344999
-16.3857 73.797997 -0.085029997
-19.339199 73.117203 0.043271001
-16.4396 69.684097 -0.070928998
-15.3827 72.651901 -0.112788
-17.828699 70.608299 -0.058680002
-13.0313 68.949997 -0.012367
-13.8404 72.091499 -0.099333003
-14.7039 69.012901 -0.060059
-10.1067 70.304604 0.159759
-12.3447 72.533997 -0.027117001
-11.4217 69.495499 0.069712996
-8.5716295 72.6689 0.34425899
-11.3141 73.590202 0.058359001
-9.0835505 71.375099 0.25042599
-8.7442198 75.897499 0.51198
-11.0984 75.079597 0.145882
-8.5709 74.185898 0.43882301
-9.5974197 78.989601 0.59846503
-11.4299 76.771004 0.206057
-9.0904903 77.632896 0.56348199
-11.3142 80.156601 0.57358402
-12.2485 77.735802 0.219193
-10.2636 79.794701 0.60198301
-14.2427 79.970802 0.470806
-13.6441 77.917297 0.184535
-12.7456 79.911697 0.51327401
-16.9737 80.055901 0.41361499
-15.1135 77.847397 0.138634
-15.8007 80.336304 0.448771
-16.0285 76.947502 0.076858997
-17.760599 79.295502 0.36792201
-18.412001 77.982697 0.30537099
-19.236 74.615196 0.14383399
-16.496799 75.292603 -0.00275
-18.9266 76.295502 0.23378401
-10.2709 80.749298 3.58286
-11.3557 81.187599 3.5302401
-9.57411 79.900299 3.6639199
-9.0924301 78.626297 3.7944801
-8.8273296 77.099899 3.99437
-8.7574596 75.4953 4.2325902
-8.8866501 73.987701 4.5241199
-9.4415598 72.761002 4.7878199
-10.4271 71.809998 5.0307498
-11.7002 71.205002 5.2688799
-10.1145 70.613701 1.96955
-10.0174 70.1045 0.58705097
-11.3786 69.268303 0.495426
-11.4618 69.846001 2.0363801
-8.9628601 71.209297 0.68171102
-9.0692797 71.679298 1.90429
-8.5234003 72.992203 1.85531
-8.4317703 72.544601 0.77955198
-8.4313602 74.107903 0.87550598
-8.4769497 74.552299 1.82506
-8.6196404 76.2938 1.8044699
-8.6100998 75.885101 0.95543402
-8.9690704 77.698502 1.00664
-8.9502897 78.038498 1.79307
-9.46667 79.422798 1.79945
-9.4934597 79.111198 1.04302
-10.1818 79.943001 1.04698
-10.1649 80.266602 1.80849
-11.2606 80.680298 1.83214
-11.2666 80.329002 1.0163
-14.3439 81.138397 3.5878201
-12.8235 81.099403 3.5434101
-12.7549 80.498001 1.8654
-14.3075 80.553497 1.93169
-14.2928 80.167099 0.91018897
-12.7469 80.105904 0.953399
-14.7703 68.7705 0.35850599
-14.8051 69.440002 2.18117
-13.1086 69.380898 2.1098199
-13.0416 68.703102 0.40698999
-14.8446 71.0159 5.5342498
-13.2651 70.957901 5.4592299
-15.9207 80.846397 2.0358701
-17.134399 80.513496 2.1155701
-17.113701 80.210098 0.85024601
-15.9042 80.512703 0.88667202
-17.952101 79.713097 2.1755199
-18.610001 78.377403 2.2244
-18.6001 78.061203 0.73648
-17.927299 79.425102 0.80337203
-19.389299 74.973297 2.31868
-19.455 74.549599 0.57252902
-19.133699 76.293297 0.66458702
-19.1145 76.679001 2.28439
-18.9512 72.080299 2.3289399
-19.074499 71.627602 0.397971
-19.5602 73.005302 0.468097
-19.438101 73.435699 2.33006
-17.997801 70.416397 0.362149
-17.931101 70.907402 2.3055301
-16.549101 70.028099 2.25793
-16.5623 69.465698 0.34743199
-17.6705 72.087799 5.3694201
-16.434 71.374298 5.4994302
-19.0271 74.428902 4.9335098
-18.5492 73.157402 5.1421599
-18.9293 77.471199 4.4632802
-19.101 75.906502 4.69628
-17.897699 80.1576 4.0002599
-18.507999 78.947701 4.2171202
-17.0996 80.936203 3.8069999
-15.9144 81.306198 3.6665399
-18.785601 76.2826 5.8132
-18.635099 77.6763 5.4594998
-18.675699 74.923599 6.1877699
-18.220501 73.777 6.5351
-17.422001 72.827301 6.84589
-16.296801 72.218102 7.0275102
-14.8255 71.949799 7.0886998
-13.3482 71.882401 7.0097599
-11.8748 72.024696 6.7845702
-10.6853 72.520103 6.48388
-9.7676401 73.374496 6.1106601
-9.2266798 74.4963 5.7008801
-9.0589399 75.882004 5.3396401
-9.1097403 77.339699 5.0387502
-9.3786402 78.846497 4.7817502
-9.8532104 80.084999 4.5321102
-10.5166 80.848602 4.3807802
-11.5255 81.278801 4.31533
-12.8945 81.379204 4.3277402
-14.332 81.423302 4.37082
-15.794 81.413803 4.44697
-16.8864 81.034302 4.5853801
-17.633699 80.291 4.7872901
-18.2167 79.205902 5.0734801
-0.92540598 115.439 114.701
-1.28455 115.554 114.755
-1.20377 112.365 114.95
-1.2768199 109.884 114.851
-1.47586 109.482 114.863
-1.52913 112.514 115.051
-1.1748 106.583 113.978
-1.10632 106.914 113.916
-1.04486 106.477 113.943
-1.1011 109.577 114.727
-1.01009 112.132 114.914
-0.97630697 112.143 115.125
-1.07602 109.11 114.782
-0.57747197 115.522 115.09
-0.64593899 115.372 114.825
-2.02738 114.9 111.011
-1.1490901 114.579 110.323
-2.87114 115.124 113.28
-2.7455001 114.94 112.032
-1.7262599 115.726 114.957
-2.2473099 115.559 114.533
-0.50414801 116.134 115.871
-0.716905 115.894 115.499
-2.1758499 113.096 111.334
-2.3146999 111.281 111.464
-1.34552 111.97 110.669
-1.2246 113.295 110.589
-3.10236 112.292 113.686
-3.0672901 109.428 113.602
-3.0855999 110.033 112.582
-2.98053 112.497 112.514
-2.3273301 109.474 114.669
-2.5069301 112.497 114.749
-1.99169 112.578 115.219
-1.80827 109.502 115.104
-0.938021 112.561 115.98
-0.94990897 109.436 115.623
-1.14753 109.299 115.247
-1.11066 112.408 115.584
-0.47791299 109.506 115.918
-0.44927701 112.588 116.33
-2.40484 109.504 111.298
-2.30916 107.977 110.81
-1.52156 109.237 110.35
-1.49986 110.638 110.671
-2.76758 106.736 112.821
-2.6017699 104.94 112.183
-2.8651199 105.938 111.382
-2.98948 107.665 112.041
-0.740363 104.818 113.938
-1.52156 104.814 113.279
-1.76657 106.708 113.902
-1.23777 106.674 114.313
-1.01379 106.622 114.351
-0.75470001 106.777 114.69
-0.49255699 107.14 108.105
-1.47767 106.838 108.607
-2.2481999 105.744 109.378
-2.8041601 104.51 110.836
-2.5676401 103.782 112.063
-1.53863 103.483 113.046
-0.76809603 103.328 113.591
-0.25603199 103.341 113.668
-0.08794 113.12 110.147
-0.236913 112.097 110.226
-0.0091840001 114.143 109.803
-0.250999 104.946 114.129
-0.26778701 106.94 114.958
0.056171 116.237 116.216
-0.50718701 109.726 110.005
-0.414987 111.019 110.236
-1.12166 103.389 113.384
-1.15336 104.807 113.631
0 109.726 110.005
0.326184 112.088 110.237
0.512972 113.098 110.173
0 103.341 113.668
-0.023948999 106.939 114.958
-0.222993 109.494 115.939
0.118801 111.011 110.249
0.35319 116.202 116.275
-0.0071589998 104.946 114.129
0.66989303 114.131 109.795
0 107.116 108.094
-0.180756 112.559 116.384
2.01121 115.08 115.276
2.33634 115.111 115.465
1.33044 112.108 115.388
1.0783401 109.775 115.04
1.26689 109.379 115.042
1.61682 112.183 115.619
1.15144 106.581 113.976
1.08336 106.912 113.914
1.0229 106.474 113.941
0.92649198 109.498 114.862
1.11233 111.927 115.262
1.0006 111.949 115.458
0.89580399 109.052 114.881
1.55138 115.263 115.508
1.69671 115.085 115.283
4.17379 114.441 111.707
3.0383301 114.37 110.563
4.3989401 114.355 114.495
4.7182598 114.232 113.165
2.6740201 115.193 115.821
3.3608699 114.902 115.577
1.27793 115.922 116.223
1.5783401 115.619 115.95
3.4270699 112.795 111.816
2.83095 111.136 111.696
2.0680699 111.881 110.813
2.51756 113.152 110.788
3.5653701 111.716 114.608
3.0604999 109.273 113.856
3.2591801 109.884 112.821
3.85216 112.033 113.256
2.14801 109.314 114.945
2.6231599 111.975 115.639
1.97067 112.156 115.958
1.54115 109.37 115.337
0.67325997 112.382 116.304
0.57582098 109.373 115.737
0.86601299 109.226 115.376
0.98229003 112.187 115.976
0.031925999 109.483 115.96
0.087765999 112.529 116.438
2.4304099 109.517 111.277
2.30916 107.977 110.81
1.52156 109.237 110.35
1.69742 110.61 110.715
2.76758 106.736 112.821
2.6017699 104.94 112.183
2.8651199 105.938 111.382
2.98948 107.665 112.041
0.73243099 104.818 113.937
1.52156 104.814 113.279
1.74473 106.704 113.9
1.2055 106.67 114.311
0.98082 106.618 114.349
0.71321201 106.773 114.688
0.49255699 107.14 108.105
1.47767 106.838 108.607
2.2481999 105.744 109.378
2.8041601 104.51 110.836
2.5676401 103.782 112.063
1.53863 103.483 113.046
0.76809603 103.328 113.591
0.25603199 103.341 113.668
1.1606801 113.11 110.136
0.90225899 112.062 110.276
1.39069 114.123 109.777
0.23668 104.946 114.129
0.21989 106.938 114.958
0.65021002 116.167 116.334
0.50718701 109.726 110.005
0.65258801 111.002 110.262
1.12166 103.389 113.384
1.15336 104.807 113.631
-1.87325 120.408 97.720703
-1.61238 120.196 97.617798
-2.0516901 118.452 103.161
-1.94364 118.505 102.624
-1.82898 119.294 100.323
-2.02771 119.469 100.441
-1.97106 117.716 105.991
-2.0889001 117.778 106.091
-1.91623 116.998 108.001
-1.82805 116.979 107.937
-2.0581701 119.778 100.524
-2.21278 119.976 100.587
-2.20295 118.852 103.359
-2.0783601 118.685 103.264
-2.1577699 120.989 97.839798
-1.92623 120.753 97.776703
-2.56914 118.429 106.574
-2.4423399 117.318 108.802
-2.1499801 116.99 108.071
-2.29228 117.785 106.161
-2.7101901 120.803 100.879
-2.6575899 119.706 103.786
-2.42577 118.911 103.41
-2.49086 120.067 100.626
-2.7736001 121.84 98.053398
-2.54533 121.12 97.905899
0.076909997 127.396 99.056999
-0.29717201 127.407 99.084801
-0.178947 126.158 102.651
-0.29694599 124.576 106.03
-0.69593197 124.714 106.06
-0.535151 126.248 102.683
-0.31290099 122.623 109.095
-0.330652 120.556 111.631
-0.70575702 120.668 111.674
-0.68921298 122.755 109.139
-0.51722598 118.343 113.586
-0.899086 118.438 113.628
-0.17498501 118.39 113.752
-0.061379999 118.636 114.022
0.041177999 120.644 111.779
0.077519998 122.764 109.218
0.25246301 123.184 109.426
0.19994999 120.952 112.024
0.344313 125.189 106.279
0.140413 124.738 106.125
0.242036 126.349 102.722
0.47635099 126.864 102.839
0.71161002 128.186 99.088501
0.47422701 127.621 99.058296
-1.14861 120.121 97.468903
-0.32273301 119.737 97.273201
-2.38625 124.803 98.824898
-2.8515699 123.158 98.392601
-0.64759302 127.657 99.144699
-1.35221 126.806 99.100197
1.18756 129.756 99.1903
0.795286 129.123 99.145103
0.66255897 117.562 102.549
0.77213001 118.403 99.810799
-1.60862 118.484 102.467
-0.88497299 118.081 102.75
-0.62546998 118.935 99.959099
-1.4398201 119.251 100.164
-2.46559 123.986 102.059
-2.5694499 122.727 105.158
-2.90417 121.241 104.482
-2.8686199 122.359 101.48
-1.06271 125.145 106.218
-1.65841 124.471 105.917
-1.50726 125.847 102.588
-0.87058598 126.634 102.804
0.92681199 128.287 103.122
0.71935397 126.476 106.69
0.31648999 125.927 106.49
0.49107999 127.696 102.98
0.56308198 116.647 105.275
0.47684601 115.8 107.399
-0.99739403 117.19 105.571
-1.82482 117.649 105.29
-1.93821 117.597 105.864
-1.79207 116.913 107.811
-1.02701 116.432 107.858
-2.6480801 121.18 108.086
-2.73423 119.535 110.519
-2.9309599 118.391 109.653
-2.9084899 119.832 107.331
-1.76396 120.614 111.513
-1.75993 122.6 108.971
-1.05911 123.159 109.349
-1.08943 120.976 111.907
0.57860702 124.39 109.987
0.46874699 122.002 112.716
0.14695901 121.552 112.384
0.218602 123.874 109.721
-2.1554799 116.293 110.305
-1.05572 115.626 109.445
-1.71257 116.101 109.464
-1.80334 116.12 109.525
-2.7664299 117.691 112.424
-2.8411801 116.958 111.379
-1.92922 118.426 113.479
-1.31319 118.677 113.88
0.069218002 119.384 114.755
-0.17721801 119.078 114.4
1.16065 122.295 113.006
1.3688999 124.737 110.221
0.88066399 119.096 97.120499
0.076701 115.046 108.911
1.5604399 126.842 106.89
1.78153 128.63901 103.268
2.0116701 130.06599 99.270302
0.69722098 119.537 115.122
1.27007 115.754 107.422
1.36602 116.6 105.298
1.446 117.515 102.571
1.02272 119.497 115.186
1.75562 124.712 110.231
1.5262901 118.356 99.8312
2.1996801 128.60899 103.279
0.83212602 115.02 108.903
1.59794 119.046 97.139702
6.0273299 119.89 97.162697
5.6742301 119.706 97.149002
5.55937 117.916 103.269
5.4451799 117.987 102.702
5.59339 118.784 100.206
5.9296799 118.93 100.294
4.9969702 117.212 106.278
5.1800098 117.248 106.392
4.76265 116.499 108.371
4.66715 116.498 108.286
6.03546 119.234 100.372
6.3089199 119.41 100.404
5.8605099 118.287 103.467
5.6396999 118.142 103.375
6.47225 120.448 97.163597
6.1535501 120.232 97.192802
5.9850602 117.785 106.931
5.3192201 116.686 109.324
5.0125799 116.448 108.493
5.4915299 117.217 106.481
7.2072101 120.171 100.595
6.6953201 119.059 103.883
6.2169099 118.309 103.508
6.7455802 119.464 100.387
7.45189 121.25 97.130898
7.0026002 120.537 97.081497
4.7285199 127.051 98.984901
5.2238202 127.009 98.9245
4.3166499 125.822 102.749
4.0023699 124.278 106.141
4.4523802 124.354 106.205
4.8271399 125.857 102.754
3.7145 122.336 109.234
3.3819499 120.259 111.864
3.7895601 120.298 111.994
4.1535501 122.404 109.334
2.8211 117.994 114.087
3.1891 118.013 114.234
2.4434299 118.106 114.172
2.28385 118.371 114.423
2.9841101 120.415 111.942
3.2841201 122.541 109.312
3.1287 122.987 109.506
2.83744 120.751 112.166
3.4279001 124.977 106.36
3.5838101 124.5 106.214
3.8687899 126.077 102.813
3.6996701 126.623 102.921
4.0062199 127.929 99.115601
4.2311201 127.333 99.057098
5.0928602 119.688 97.142998
3.96944 119.418 97.178596
7.47718 124.247 98.007103
7.81218 122.591 97.424103
5.7172198 127.206 98.884102
6.4602098 126.288 98.624397
3.61604 129.563 99.251503
4.0558 128.868 99.175598
2.22858 117.453 102.59
2.27918 118.289 99.849197
4.9189901 118.022 102.554
3.81744 117.745 102.868
3.8968101 118.598 100.017
5.0534701 118.794 100.11
7.3691702 123.346 101.84
7.0002899 122.06 105.313
7.2996402 120.539 104.592
7.7003398 121.689 101.171
4.9233198 124.726 106.41
5.79316 123.948 106.117
6.20084 125.311 102.538
5.34374 126.191 102.837
3.42589 128.104 103.188
3.1854501 126.311 106.756
3.5315399 125.709 106.575
3.78743 127.452 103.066
2.16873 116.547 105.32
2.0632999 115.707 107.445
3.82532 116.87 105.722
4.84518 117.181 105.536
4.9443598 117.106 106.145
4.6262698 116.443 108.149
3.7337201 116.109 108.07
6.4338102 120.47 108.535
5.8193698 118.765 111.244
5.96838 117.599 110.342
6.6728301 119.099 107.755
4.88413 120.038 112.078
5.3271999 122.06 109.346
4.6079898 122.742 109.612
4.2058702 120.528 112.335
2.89889 124.236 110.049
2.63536 121.841 112.833
2.94837 121.337 112.551
3.24066 123.669 109.81
4.77706 115.742 110.953
3.4700601 115.342 109.695
4.3854198 115.652 109.921
4.4776101 115.653 110.008
5.1663198 116.92 113.42
5.3558998 116.226 112.302
4.2108698 117.805 114.347
3.5450399 118.168 114.613
2.02244 119.148 115.131
2.3461101 118.788 114.846
1.88548 122.248 113.026
2.1423399 124.686 110.241
2.3141999 118.981 97.157997
1.58755 114.995 108.894
2.3824999 126.787 106.913
2.61782 128.578 103.29
2.8232501 130.002 99.292503
1.34822 119.457 115.249
2.41746 130.034 99.281403
1.97147 126.814 106.902
1.52306 122.271 113.016
-16.6311 125.56 54.0033
-16.870199 125.972 55.137402
-17.8645 125.246 52.862701
-17.573099 124.24 52.752201
-16.8466 124.089 51.306
-15.9137 125.098 51.680302
-16.260201 125.228 52.851398
-16.5702 123.791 49.698601
-16.290701 123.722 48.5327
-17.814199 122.175 67.461601
-17.707399 121.752 67.106201
-18.849701 121.402 63.4874
-18.9111 121.792 63.757
-18.846001 121.957 63.746201
-19.0137 122.414 63.483799
-18.0252 122.87 67.010201
-17.777901 122.385 67.319199
-19.2999 122.045 60.748901
-19.2974 121.648 60.743401
-19.0263 121.33 57.967701
-19.104401 121.937 57.933102
-19.4072 121.527 60.428699
-19.4156 121.21 60.332802
-19.285101 120.776 58.548302
-19.179001 121.104 58.1838
-19.417601 122.929 58.0895
-19.5182 123.714 59.574902
-19.4081 122.716 60.446701
-19.3936 124.235 62.416698
-18.5271 124.673 66.2687
-18.550699 123.631 66.528397
-19.399799 123.172 62.955399
-12.9518 128.161 63.376301
-13.5786 128.04201 64.632797
-14.9734 126.934 59.162399
-14.4651 126.889 57.772301
-15.4407 127.092 59.858898
-14.0716 128.108 65.038902
-14.3932 128.23399 65.276199
-15.7417 127.284 60.407001
-19.323 120.7 60.4533
-19.1127 120.031 60.564999
-19.3428 119.951 59.4016
-19.336901 120.346 59.058102
-18.7054 125.039 54.641998
-18.552 125.474 57.231701
-19.5886 125.02 58.111599
-19.375401 123.814 55.833
-18.692301 124.232 54.065899
-16.983999 126.475 56.254799
-17.680599 126.449 56.956299
