# .PCD v.7 - Point Cloud Data file format
VERSION .7
FIELDS x y z
SIZE 4 4 4
TYPE F F F
COUNT 1 1 1
WIDTH 1747
HEIGHT 1
VIEWPOINT 0 0 0 1 0 0 0
POINTS 1747
DATA ascii
5.0303502 -7.6987 131.938
4.7593098 -7.4639702 135.149
-11.7721 -9.3740301 137.82401
-11.5228 -9.6351995 137.033
-10.5371 -10.56 137.44901
-2.7963099 -10.5229 134.653
-2.8650801 -11.0719 133.964
-0.84377402 -10.4965 134.905
-8.02598 -10.2211 134.705
-9.7913599 -10.1305 135.01601
-10.1647 -9.8146696 133.87399
-8.1857004 -10.754 134.286
-10.327 -10.4922 136.10899
-10.8172 -9.8077402 136.237
-10.054 -10.3878 135.373
-8.2943201 -11.0901 135.847
-8.1408501 -10.6718 134.98801
-5.67032 -11.3848 134.13901
-5.2000799 -9.9311399 134.48199
-5.2304301 -10.7977 134.739
-2.7266901 -11.0788 134.86
-0.52510798 -11.247 133.67
1.1853499 -10.0436 134.53
0.85681099 -9.5573797 135.493
-0.598028 -11.517 132.14301
-2.9763899 -11.3879 133.161
-2.9628799 -12.168 131.93401
-3.1210301 -12.833 128.254
-11.3247 -9.5054903 135.03799
-11.4792 -9.6661901 133.478
-10.6919 -10.5464 132.90401
-11.676 -10.5857 131.19
-8.5741596 -12.2701 127.935
-5.57233 -13.3418 128.114
-10.2352 5.08641 152.46001
-9.70473 3.43629 151.43401
-10.4155 2.8004301 150.537
-10.1372 2.6135299 150.717
-10.5312 1.66432 149.52699
-10.4574 1.16171 149.75999
-10.9015 -0.072355002 147.83701
-10.7482 -0.74252498 148.276
-11.5414 -2.56882 145.49001
-11.199 -3.16731 145.938
-11.5847 -3.06845 144.62601
-11.1494 -3.7106199 145.162
-11.6451 -3.5264599 144.05099
-11.8247 -4.0352402 143.39101
-11.4638 -4.9530401 143.8
-11.2324 -4.2729502 144.48399
-12.1772 -6.1805301 140.72301
-11.8531 -7.3324399 141.138
-12.2741 -6.68648 140.05901
-11.9908 -8.4851103 139.436
-12.0926 -8.4720602 137.83501
-11.6438 -8.7376604 136.935
-11.0857 -9.3405399 136.12399
-10.7637 -10.9044 131.86501
-11.7656 -11.2995 128.85201
-11.0858 -11.7095 129.375
-9.0043602 0.79869199 150.487
-11.7912 -2.9003401 144.69901
-11.7571 -2.52314 145.308
-9.8875303 -4.9195499 145.77
-9.9741602 -4.21703 146.94
-7.1886501 -5.9313402 146.67999
-7.0970302 -5.0686898 148.067
9.3814497 -0.203141 129.188
8.7143898 -3.22224 129.37
7.57058 -5.2252498 128.86301
8.5971098 -2.2390001 127.857
3.30106 -8.8888998 134.12399
1.49252 -10.2763 133.017
-2.73577 18.9804 150.43401
-1.35286 19.302299 149.325
-0.74773198 19.816 146.67101
-2.63604 18.9151 146.56
-2.0510399 18.849001 151.49699
-4.8320599 2.29141 152.231
-4.5682302 1.48719 151.98199
-10.3897 4.08779 151.259
-8.7320299 2.3373599 151.69501
-1.18023 17.273399 127.859
0.766056 17.9972 127.919
2.9361601 17.9543 128.005
4.9050102 17.1716 128.578
5.8003898 16.258801 128.853
6.3657699 15.5589 128.91901
8.0227699 14.8551 128.72301
10.5259 13.0872 128.489
12.1483 10.714 128.226
13.3951 7.8695898 128.164
11.6079 1.08367 129.07899
-1.27952 18.6966 130.616
13.7373 5.2567701 128.244
12.7842 2.8008399 128.54601
-1.23708 19.532101 134.222
-5.6702099 -11.4244 133.845
-5.7877498 -12.2569 132.808
-8.1439199 -10.8251 134.021
-12.4319 -9.1413603 135.106
-12.2622 -9.2632399 133.808
-12.248 -10.3047 131.46899
-8.4952202 -11.1991 132.561
-5.5500202 -13.2072 130.151
-8.6116896 -12.0189 130.015
1.74514 -10.6882 131.209
-0.37885499 -11.9495 130.478
-12.5201 -8.9799805 135.992
-12.5227 -8.7002401 136.61301
-5.4640999 -11.7949 135.728
-4.2708302 19.0611 146.38699
-4.8635101 19.164301 150.22
-0.95224899 20.1138 142.66
-0.99807 19.966499 138.506
-8.30019 -11.3488 137.062
-5.09341 3.0954001 152.481
-10.6768 2.8782101 150.39999
-6.44139 0.57043499 151.174
-11.2249 0.002969 147.52901
-10.8887 1.75834 149.27699
-9.4652004 -1.47436 149.149
-6.6547699 -2.2330799 150.14999
-11.9538 -4.0142298 143.28101
-11.8793 -3.56142 143.806
-10.142 -6.2049398 144.461
-7.4434099 -7.3357201 145.306
-7.2258 -6.1697202 146.39101
-9.9143295 -5.2204199 145.395
-12.2855 -6.1764498 140.62601
-10.2809 -8.1733599 141.72
-7.6929598 -9.0788097 142.14799
-12.3508 -6.5839701 140.142
-10.4567 -9.8612204 139.15601
-10.3575 -8.8939896 140.59599
-8.2319803 -10.9286 138.86301
-7.9513502 -9.9639702 140.5
-12.479 -7.9649401 137.936
-12.1098 -11.1382 128.825
-2.5562699 18.327999 134.358
-2.1945801 17.655899 130.702
-2.1147001 16.6413 128.021
-3.0465701 -12.6411 130.00101
-1.61445 19.041901 150.388
-13.0531 20.297199 155.159
-11.7979 18.876801 156.451
-13.3703 18.402201 156.284
-14.5019 19.587099 154.867
-15.8049 13.7132 153.07899
-15.5025 15.1203 153.358
-14.9075 14.8937 154.782
-15.3679 13.7058 154.479
-15.2044 12.8832 154.299
-15.5395 12.5585 152.842
-10.7425 20.319799 154.886
-9.8469 18.885 156.52
-14.1457 17.4184 155.978
-14.9269 18.1101 154.679
-14.3909 16.512199 155.59
-15.1805 17.047001 154.03799
-14.4154 15.6406 155.127
-15.1232 15.9111 153.371
-12.3658 17.441099 157.23399
-13.2532 16.724001 157.168
-11.0955 17.8459 157.21001
-13.5955 16.3018 157.008
-14.0453 15.5423 156.42799
-7.05616 17.634001 157.13
-7.0432 18.226601 156.183
-14.7088 14.8648 156.15199
-15.3185 12.1383 155.97301
-15.2076 13.0516 155.58099
-13.0932 5.92488 156.502
-12.1301 4.7618198 156.814
-12.6156 5.6865702 156.59801
-11.5912 4.7965598 155.39
-10.8403 5.4498 152.606
-11.2352 5.58179 152.58501
-12.1139 5.6146598 155.033
-15.1243 12.1288 154.192
-15.7069 10.712 156.25999
-15.3144 10.5548 154.09599
-15.2297 11.4972 152.66
-15.3679 9.9386997 152.472
-15.1464 8.1030302 154.627
-15.0605 8.1775198 152.302
-15.437 8.8886299 154.561
-14.6182 6.8891301 156.686
-14.0194 6.1691098 156.66299
-13.7839 6.2156 152.161
-14.4134 6.3740401 154.96201
-13.7653 5.5989299 155.189
-12.926 5.0469599 152.158
-15.117 7.7765698 156.64301
-15.3289 8.3580198 156.63901
-15.7237 9.1649103 156.452
-15.2688 13.6752 155.711
-8.3295002 18.577 156.468
-7.8501801 17.9139 157.133
-9.1815596 18.0798 157.158
-12.3207 5.83957 154.814
-8.7445498 19.8652 154.789
-7.0276198 18.978901 154.48399
-11.5924 5.7028399 152.56599
0.51783001 15.4669 157.207
-1.5839 15.2415 157.91901
-0.688788 13.8904 158.145
1.21716 13.9933 157.269
-0.99469203 8.4404297 155.448
-0.42238301 9.7513704 155.754
-1.3645 10.0811 156.854
-1.6811301 8.8401403 156.582
-2.26422 8.2818899 156.29201
-1.84138 7.6802502 155.06
-1.1006 16.885099 156.33299
-3.01405 16.451599 157.465
-0.656192 12.6216 157.981
0.66279298 12.5608 157.075
-0.94389498 11.7326 157.60699
0.35440001 11.5154 156.463
-1.35235 10.9996 157.10899
-0.21659 10.6003 155.737
-2.21682 13.839 158.645
-2.00406 12.7347 158.76199
-2.89766 14.9322 158.341
-1.98024 12.1793 158.66901
-1.98757 11.2605 158.18201
-6.5352898 17.4244 157.129
-6.0174499 17.264 157.27299
-6.1718402 17.976999 155.94701
-5.4261599 17.6499 156.40601
-1.8523999 10.2974 158.03799
-3.03581 7.7903199 157.78101
-2.46771 8.5230198 157.468
-8.6412802 4.3743401 157.158
-10.1469 4.0866899 157.092
-9.1639795 4.4885001 157.09599
-10.1675 4.3388901 155.61501
-9.6024904 5.0351501 152.814
-9.2255201 4.89217 152.91901
-9.1908703 4.6265702 155.504
-2.7618999 7.7323098 156.097
-3.6925001 6.4769402 158.037
-3.5639901 6.3845 155.91499
-2.67361 7.02812 154.715
-3.4797599 5.7123599 154.42599
-5.3214102 4.6471 156.168
-4.7416401 4.5155401 153.99899
-4.6079102 5.0693898 156.24699
-6.9583998 4.2036901 157.827
-7.8429198 4.0104198 157.58501
-6.84587 3.7630301 153.30299
-7.0042601 3.79159 156.142
-8.0144997 3.6094401 156.11301
-8.1937599 3.3824401 152.938
-6.0279899 4.58392 157.994
-5.5111899 4.9075298 158.095
-4.6771302 5.28089 158.09399
-2.0692799 8.9837103 157.666
-4.3207402 17.148399 157.021
-5.2533002 16.9893 157.492
-4.1651602 16.294701 157.851
-8.8436203 4.6552 155.377
-2.8255 17.754801 155.661
-4.5584998 18.0972 154.836
-5.7519798 18.558399 154.442
-10.9595 4.4417601 155.744
-10.2124 5.23458 152.63901
-8.8836899 4.7639499 153.015
-11.0962 4.3764501 156.534
-10.5212 2.7439301 168.312
-10.3333 3.0213301 168.422
-10.3585 3.0199299 168.431
-10.557 2.9723599 168.479
-13.2139 2.5823801 169.55701
-13.2291 2.72507 169.903
-13.4667 2.8503499 169.791
-13.4802 2.69311 169.48399
-13.219 2.6361599 169.241
-13.4299 2.7237 169.198
-12.667 2.57286 169.63499
-12.6996 2.66102 170.024
-12.9454 2.7228799 170.035
-12.9969 2.5879099 169.606
-11.9625 2.4261701 169.599
-11.9599 2.4702899 169.826
-10.7863 2.7465401 168.87801
-10.6971 2.7385299 169.082
-11.3392 2.4519899 169.517
-11.3945 2.48721 169.214
-10.4827 2.91646 168.686
-10.4093 2.8950901 168.81799
-12.004 2.4663999 169.30299
-12.6819 2.5422101 169.304
-13.148 2.3000901 168.65401
-13.1674 2.48281 168.811
-13.4161 2.5945499 168.765
-13.4477 2.4414401 168.599
-13.4784 2.2404799 168.30299
-13.1455 2.12819 168.36301
-12.755 2.1780601 168.688
-12.7397 2.37819 168.866
-11.9696 1.95183 168.76801
-11.9909 2.2648301 168.93401
-11.4089 2.1085 168.72
-11.4041 2.3513899 168.85699
-11.0137 2.3923299 168.478
-10.9458 2.59919 168.595
-11.4081 1.97496 168.521
-10.9798 2.28423 168.37
-11.9252 1.8017401 168.53101
-12.773 2.04936 168.39101
-13.002 2.58535 169.27699
-13.3651 2.79913 168.922
-13.1683 2.71381 168.959
-12.7204 2.60394 169.024
-12.004 2.5906701 169.075
-11.4039 2.6087301 168.97099
-10.8882 2.8308101 168.7
-10.5466 2.98595 168.534
-13.454 2.9028499 169.83501
-13.2211 2.77404 169.952
-12.9545 2.7691801 170.088
-12.7012 2.7003 170.08
-11.95 2.5106499 169.87801
-11.333 2.4783299 169.578
-10.6714 2.7681 169.142
-10.3738 2.90446 168.88699
-10.3325 3.0265901 168.42999
-10.3301 3.0271001 168.43201
-10.3557 3.0230801 168.437
-10.8958 2.8118501 168.64799
-11.4081 2.59214 168.92101
-11.9991 2.5708499 169.026
-12.7138 2.57937 168.96899
-13.1662 2.69085 168.90401
-13.3651 2.7783 168.869
-13.3546 2.81971 168.899
-13.2331 2.75981 168.924
-13.2335 2.75718 168.92
-13.3548 2.8183899 168.897
-12.8004 2.6489699 168.98199
-12.8023 2.65242 168.98599
-12.1055 2.64447 169.041
-12.1036 2.6410301 169.037
-11.5318 2.6651599 168.946
-11.5313 2.6644001 168.94099
-11.031 2.8785901 168.685
-11.0326 2.8799701 168.681
-10.6883 3.0369201 168.52
-10.6918 3.0332201 168.517
-13.4708 2.23663 168.23801
-13.1325 2.1245999 168.297
-12.7686 2.04826 168.319
-11.9132 1.79496 168.465
-11.4019 1.95674 168.448
-10.6381 2.9715099 167.513
-10.6092 2.9538701 167.58
-10.3481 2.9405701 167.507
-10.3301 2.96067 167.42799
-10.9724 2.81319 167.674
-10.9372 2.80285 167.733
-11.4635 2.5919199 167.94
-11.4338 2.57617 168.006
-11.9759 2.53438 168.04401
-11.976 2.5188601 168.118
-12.633 2.53174 167.995
-12.6529 2.51893 168.069
-13.1189 2.6559701 167.922
-13.1343 2.64152 167.996
-13.2515 2.72121 167.89799
-13.2672 2.7054601 167.97
-12.9503 3.76456 169.42599
-12.993 3.6120501 169.304
-13.1051 3.6700301 169.283
-13.0672 3.82284 169.40199
-12.5796 3.6252301 169.407
-12.6079 3.5195501 169.358
-11.8595 3.57864 169.42101
-11.8673 3.50401 169.41701
-11.2289 3.5790601 169.334
-11.2203 3.5018401 169.319
-10.7356 3.7943699 169.075
-10.716 3.7241499 169.054
-10.397 3.9445801 168.918
-10.3966 3.86865 168.909
-9.9996996 3.91892 168.82899
-10.0338 3.8435199 168.825
-13.1109 3.0441999 168.77
-13.1373 2.96826 168.76601
-13.2586 3.02948 168.744
-13.2321 3.1054001 168.748
-13.2416 3.04636 168.66499
-13.259 3.02684 168.74001
-13.1368 2.96752 168.761
-13.1206 2.98385 168.685
-12.7037 2.8593099 168.823
-12.685 2.8761301 168.75
-11.9876 2.8480999 168.882
-11.9927 2.8698299 168.804
-11.4004 2.8677399 168.78101
-11.4236 2.8921101 168.709
-10.8918 3.0857899 168.51199
-10.9282 3.10531 168.448
-10.5623 3.23926 168.355
-10.5855 3.2636199 168.283
-10.2625 3.2297001 168.27499
-10.2553 3.24927 168.198
-10.26 3.2302201 168.278
-10.2311 3.3066499 168.284
-10.5597 3.24108 168.35899
-10.569 3.3215499 168.369
-10.8914 3.0884299 168.517
-10.9141 3.16271 168.532
-11.4 2.8703699 168.785
-11.4095 2.9495299 168.793
-11.9895 2.8515401 168.88499
-11.9853 2.93098 168.88901
-12.7065 2.8608699 168.828
-12.6844 2.9397299 168.834
-10.3243 3.02192 168.41499
-10.3173 3.02934 168.42101
-10.3184 3.02952 168.42999
-11.996 4.8190598 166.285
-11.8216 6.0413399 167.946
-12.0387 6.1352601 167.908
-12.2403 4.9240198 166.245
-11.2548 4.6054201 166.396
-11.2535 5.8296299 167.95399
-10.2565 4.4911098 166.489
-10.2081 5.5452299 167.853
-9.5341196 4.4596601 166.411
-9.2632399 5.4325099 167.808
-8.8584604 4.6153202 166.17101
-8.5754204 5.5808201 167.57401
-8.4201899 4.7344499 166.02499
-8.0993795 5.6881599 167.427
-7.9856701 4.6835799 165.96001
-7.5703101 5.6038799 167.366
-10.168 3.6161101 168.492
-10.325 3.1719 167.841
-10.6574 3.17854 167.923
-11.0184 3.013 168.088
-11.4922 2.80089 168.34599
-12.0076 2.76963 168.44501
-12.6677 2.77107 168.39101
-13.1008 2.8792901 168.32899
-13.2289 2.94292 168.30499
-13.149 3.41731 168.95
-13.0323 3.3577199 168.97099
-12.6433 3.2630301 169.02901
-11.9463 3.2563901 169.086
-11.3805 3.2672901 169.004
-10.9052 3.4814301 168.759
-10.5437 3.6376901 168.58501
-11.4257 8.1831598 176.183
-10.8118 7.96978 176.215
-10.9483 8.2635899 176.638
-11.3669 8.4284801 176.65401
-9.8969698 7.7723498 176.358
-9.9160204 8.0071402 176.799
-10.8851 8.6829004 177.034
-9.9194803 8.4166403 177.123
-8.7423601 7.8738599 176.76401
-8.6672401 8.3771296 176.968
-7.6069398 7.8589602 176.55299
-7.60885 8.1875095 176.714
-6.64852 7.8618798 176.235
-6.0683699 8.1757698 175.808
-6.6069498 8.1379995 176.36099
-8.7487001 7.69416 176.478
-7.63586 7.71804 176.32401
-6.7102699 7.7238798 176.062
-5.8662601 8.0427303 175.457
-8.5971899 9.17626 173.94
-9.2835903 9.5249395 173.685
-9.6932497 9.7103796 173.065
-9.8371401 9.6134596 172.894
-9.7274904 9.3566904 172.761
-9.4286604 9.0625601 172.882
-8.6751499 8.5202599 172.88901
-8.0664196 8.3618097 172.892
-7.1800098 8.5099897 172.789
-6.66924 8.8665104 172.711
-6.3905301 9.1767902 172.588
-6.4832902 9.0481997 173.08
-7.1419802 8.9906197 173.677
-7.7415099 9.0655403 173.922
-8.1884298 9.0694704 173.97501
-9.3744497 7.9082098 174.56599
-9.3722401 8.0847702 174.47501
-8.7762499 7.7832198 174.69299
-8.79603 7.6136899 174.778
-8.4226198 7.6880898 174.722
-8.5661697 7.5565701 174.8
-8.3387604 7.4904499 174.81599
-8.0332804 7.6863098 174.67599
-8.0729799 7.5194898 174.761
-7.5157299 7.6221299 174.467
-7.56814 7.45822 174.55701
-6.9439001 7.67099 173.94701
-7.0143299 7.5058899 174.05099
-6.8631501 7.7841401 173.521
-6.9341402 7.6146402 173.63699
-7.1071601 7.51437 173.63
-7.1700101 7.3521199 173.743
-7.54777 7.2044201 173.698
-7.6016402 7.05129 173.80701
-8.3160496 7.0738902 173.785
-8.2898903 6.9300799 173.886
-8.4067202 6.9221101 173.899
-8.8457298 7.2124 173.782
-8.8084202 7.04954 173.886
-8.9147997 7.07021 173.897
-9.4997396 7.6830502 173.77699
-9.4981899 7.5161901 173.884
-9.7571297 7.9391599 173.673
-9.7504396 7.7660999 173.784
-9.8531303 8.16078 173.786
-9.8422499 7.98349 173.894
-9.7289305 8.2451296 173.936
-9.72155 8.0641203 174.03999
-9.4486904 8.5364599 174.302
-8.7614498 8.1896496 174.55499
-8.3535299 8.0809698 174.591
-7.9059501 8.0776196 174.535
-7.3085198 8.0048304 174.29201
-6.6500101 8.0611 173.69299
-6.55478 8.1901903 173.203
-6.8366299 7.8788199 173.327
-7.34512 7.5215001 173.405
-8.23172 7.3720102 173.507
-8.8404503 7.5304599 173.504
-9.5939503 8.0727596 173.49699
-9.8917503 8.37008 173.37601
-10.0039 8.6263504 173.506
-9.8583498 8.7218904 173.68201
-6.6350698 18.091 159.55499
-6.5562901 18.3897 159.754
-6.2792702 17.9629 159.577
-6.8588099 17.216801 158.922
-6.3344798 17.106701 158.981
-6.84655 16.9184 158.065
-6.2973599 16.818199 158.13901
-2.82307 9.5827103 166.726
-2.28789 10.5861 167.59
-2.9603901 9.0183096 166.98599
-2.7802701 14.1051 159.569
-2.4963701 14.984 160.174
-2.5515101 13.683 159.64101
-2.79322 13.67 159.03799
-2.6384799 12.7542 159.078
-4.0433798 19.4189 160.877
-4.4882202 18.326599 160.34
-5.6613402 18.793301 160.17101
-5.16681 20.082701 160.70599
-7.3148098 5.4086099 162.17
-6.92981 5.5078802 163.097
-7.7592001 4.7701602 163.008
-8.1475201 4.92589 162.13699
-8.3433599 4.5485601 160.416
-8.9592505 4.38551 161.95599
-9.6889296 3.4358799 162.64101
-9.80441 4.1739202 161.634
-9.0925503 4.2416501 160.108
-9.9189901 4.1657801 159.903
-1.89441 11.7893 163.506
-1.6245 12.6985 163.00301
-1.44969 13.7191 164.084
-1.80639 12.3481 164.214
-2.0996499 10.9601 164.02901
-7.46878 4.90836 160.981
-6.7242699 5.3287401 161.214
-6.4530301 5.9468598 162.21001
-5.6287699 6.5020199 162.30099
-4.69806 7.0548 162.201
-4.3041801 8.0116501 164.065
-5.0096798 7.3482599 163.742
-8.1547699 5.6937499 172.87801
-8.1372604 5.2464399 172.411
-7.0486898 5.2683702 172.22
-7.2059398 5.83425 172.832
-8.11378 4.6963601 171.84399
-6.9671102 4.8094501 171.58
-1.04931 11.261 165.269
-0.36410001 12.0817 165.27499
-0.150207 12.1527 165.13699
-0.66574401 11.3697 165.077
0.149498 13.023 165.45399
0.284136 13.0823 165.293
0.56909901 14.2325 166.382
0.78220701 14.3185 166.119
0.71131003 15.0263 167.304
0.97661602 15.169 167.13
0.774131 15.3173 167.978
1.0320801 15.4794 167.85001
0.59022498 15.3184 168.936
0.83690202 15.469 168.936
0.31042099 15.0809 169.50101
0.49400899 15.234 169.62399
-0.064427003 14.6713 169.895
0.046188001 14.7652 170.054
-0.93945998 13.8148 170.24699
-0.618729 13.9654 170.429
-5.8899498 6.3807001 163.334
-8.5576401 3.9449699 162.88499
-9.2028503 3.3150699 162.968
-11.5217 0.449729 164.80499
-12.02 0.35399199 164.97301
-11.8941 0.56721598 164.66701
-11.6488 0.277006 165.224
-12.6 0.76377898 164.59599
-12.6845 0.49324301 164.94701
-12.9572 0.89877701 164.545
-13.0839 0.60280401 164.927
-13.3624 1.0853601 164.48199
-13.5215 0.78780699 164.868
-11.1761 0.41699499 165.05299
-11.9504 0.239851 166.104
-12.0962 0.275617 165.32401
-11.4159 0.27872401 165.868
-3.0138099 9.0932903 166.203
-2.88938 9.4000502 165.96001
-3.3882201 8.7556496 165.114
-3.3493099 8.40979 165.284
-3.93487 7.5587602 164.40199
-0.63990802 15.3176 169.13
-0.74822199 14.9922 169.92799
-0.86810398 14.7445 169.685
-0.59927899 15.2295 169.157
-1.44756 12.4732 165.36
-1.50705 12.5427 164.759
-1.19186 13.4118 165.79401
-2.6389699 9.9614697 164.532
-1.66395 11.8385 165.198
-2.3577499 10.5524 165.30299
-1.37668 12.4224 165.41499
-1.6264 11.6921 165.248
-1.14307 13.3224 165.815
-0.890495 14.5627 166.937
-0.836824 14.4913 166.96899
-0.72474498 15.0364 167.411
-0.67014402 14.9716 167.453
-0.60105699 15.3375 168.02901
-0.54794103 15.2622 168.05499
-0.60908902 15.4106 168.692
-0.56423998 15.3409 168.698
-1.19051 11.324 165.282
-1.87649 10.5728 165.424
-1.46034 11.5091 165.237
-0.75702399 12.0728 165.395
-1.11259 12.2589 165.369
-0.29611999 13.032 165.681
-0.75582701 13.2143 165.71899
-1.53756 12.1393 168.142
-1.59468 12.1497 168.129
-1.48561 12.2423 168.58
-1.58143 12.2685 168.14999
-1.42742 12.453 168.323
-1.26683 12.5367 167.81
-1.53176 12.3348 167.658
-1.92356 11.4051 167.04201
-1.98349 11.6238 167
-2.16734 11.5568 167.214
-1.95995 11.3893 167.151
-1.883 11.3439 167.02499
-1.92504 11.3128 167.136
-1.95508 11.9015 166.88499
-2.1219101 11.7847 167.07401
-1.7933 11.7673 166.823
-1.64511 11.97 166.839
-1.72481 12.2205 167.24899
-1.9751101 11.4901 167.256
-1.79175 11.5108 167.343
-1.62544 11.624 166.80701
-2.1269 11.7238 167.332
-1.93957 11.569 167.354
-1.79356 11.8698 167.714
-1.75411 11.9384 167.79401
-1.59083 11.8843 167.776
-1.90847 11.997 167.797
-2.0186 11.9042 167.561
-1.80888 12.1826 167.72301
-1.93861 12.1131 167.463
-0.94817799 12.5029 167.058
-1.0938801 12.0132 166.62399
-0.93763298 12.0026 166.48599
-0.84492302 12.552 167.02299
-1.32678 12.0286 166.839
-1.4388601 11.5042 166.791
-1.2661901 12.3514 167.17599
-1.27464 12.5258 167.535
-0.986893 12.6759 167.52
-0.67784297 12.2952 166.41701
-0.71645302 12.988 166.666
-1.72066 11.7076 168.414
-1.48313 11.9521 168.287
-1.59516 12.0188 168.647
-1.48858 11.6886 167.931
-1.78687 11.4324 168.033
-1.7377 11.3571 167.614
-1.90017 11.2093 167.692
-1.98781 11.003 167.379
-1.23903 12.6862 168.58
-1.0668499 12.7032 167.83
-1.4842 11.7575 167.868
-1.72008 11.4455 167.506
-1.4639 12.0378 168.23599
-1.39726 12.4793 169.44099
-1.19718 12.9213 169.868
-1.33771 13.0083 170.16499
-1.48607 12.3813 169.52901
-1.5399801 12.1409 168.58099
-0.62738001 14.7011 169.72
-1.2282 13.9032 170.25999
-0.36612999 15.1417 169.265
-0.247122 15.3114 168.877
-0.219762 15.2528 168.054
-0.29693899 14.9733 167.439
-0.42654499 14.3916 166.821
0.048303999 18.7617 168.328
0.134045 18.8426 169.05099
0.02238 17.172899 168.771
-0.005835 20.3337 169.369
-0.172277 20.2798 167.89999
-0.47553399 16.0159 166.27499
-0.205457 16.754499 167.508
0.146733 14.8993 167.47501
0.063605003 14.2109 166.71899
0.254426 14.4953 169.778
0.49509999 14.8379 168.95399
0.50893497 14.821 169.47301
-0.493983 13.8958 170.064
-0.45014399 13.9245 170.047
-0.47078699 13.8714 170.13499
-0.99353898 13.3872 170.047
-1.00225 13.3859 169.993
-0.51827002 13.8622 170.058
-1.57626 12.7547 169.32899
-1.08884 13.1523 169.33701
-1.3396 13.0232 169.72501
-1.09822 13.1783 168.545
-1.16567 13.0777 168.528
-0.80728501 13.409 167.843
0.95698398 14.7573 167.289
0.89862603 14.7324 167.27
0.74843901 14.0491 166.42599
-1.37264 12.774 168.94299
-1.36546 12.8216 168.976
-1.59524 12.6849 169.34399
-1.35811 12.9916 169.759
0.89287198 15.0215 168.03799
0.94973999 15.0358 168.041
0.71873403 14.9508 168.94901
0.77501899 14.9693 168.966
0.55623603 14.8299 169.51199
0.269896 14.4895 169.821
0.210504 14.4619 169.784
0.90884 14.4448 167.381
0.91078001 14.6959 168.071
0.86547703 14.0655 167.853
0.81296003 14.9704 167.994
0.79531997 14.6317 167.248
1.09244 15.0141 168.048
1.08549 14.7573 167.341
1.1394399 14.804 167.298
1.13708 15.0613 168.054
1.2296799 15.3497 167.95599
1.19824 15.0286 167.186
0.43169999 15.1839 168.092
0.36274499 14.9167 167.467
0.175597 15.1574 168.08299
-0.71562898 13.2473 168.76801
-1.21464 12.7557 168.58299
-1.3763601 12.5548 169.067
-1.37398 12.4801 169.06599
-1.00482 12.8121 167.85001
-1.40868 12.5727 169.367
-0.91384298 12.7795 167.485
-1.57327 12.282 169.621
-1.79231 11.737 168.97099
-0.90110099 13.1299 169.451
0.90534002 14.0761 166.38
0.981372 15.0162 168.97301
1.01701 15.0629 168.98599
0.670102 14.8466 169.506
0.70151299 14.8748 169.53999
0.29572299 14.4759 169.883
0.309241 14.491 169.91901
-0.389911 13.7313 170.21001
-0.39333001 13.7314 170.25301
-0.876728 13.2542 170.049
-0.879336 13.2339 170.091
-1.18616 12.9553 169.819
-1.90292 11.1921 167.23199
-0.160864 13.4855 168.974
-0.220402 13.2186 168.983
-0.0098519996 13.3799 168.647
-0.064043 13.5349 168.797
0.2929 13.9872 168.965
0.080332004 13.8506 168.96201
0.088117003 13.7803 168.8
0.32017601 13.8326 168.614
0.129618 14.3134 169.66499
-0.29394001 13.9759 169.709
-0.481576 13.8422 169.722
-0.60955697 13.674 169.705
-0.16107801 13.7501 169.034
0.021326 13.6817 168.72701
-1.10303 13.2821 170.30499
-1.17854 13.2868 170.37199
-1.40619 13.0413 170.29201
-1.0975 13.7903 170.213
-0.40169901 14.6104 169.686
-0.25933701 14.6073 169.724
-1.15377 14.2959 170.808
-1.68478 13.6245 171.716
-1.79825 12.7568 170.793
-2.19469 9.6472797 166.575
-1.91673 10.0528 166.798
-2.14973 10.3584 167.13699
-2.48996 9.6159296 166.64799
-2.29199 9.4308205 166.287
-2.6718099 9.4289703 166.12199
-2.5472801 9.4260302 166.177
-2.5846901 9.60781 166.67101
0.26094601 15.2016 168.922
0.044422001 14.963 169.366
1.0462199 15.3563 169.00101
0.71612799 15.1236 169.67799
-0.10364 14.9683 169.31799
0.098160997 15.2162 168.91
-0.027930999 17.008801 169.64101
-1.11914 11.3188 166.77699
-1.24687 11.3847 166.77499
-1.6171499 10.9378 167.021
-0.777964 11.8384 166.47501
-0.60571301 11.6822 166.508
-1.34569 10.6773 166.879
-1.68233 10.4005 166.884
-1.4982001 10.3576 166.592
-1.90098 10.6251 167.13699
-1.88827 11.0319 167.07201
-0.506181 12.2245 166.371
-0.409872 12.8602 166.631
-0.749286 13.3777 167.21001
-0.391931 13.3117 167.173
-0.38213199 13.3422 167.938
0.256163 14.4148 169.653
0.70725501 14.2515 168.96899
-0.823026 13.2681 169.506
0.40277699 13.5633 168.058
0.162424 13.6276 168.50999
0.044941001 13.1929 168.033
-0.30251601 13.1059 168.83299
0.59847403 14.5446 168.96201
0.27500799 14.1788 166.636
-0.070283003 12.9917 165.605
-2.4946301 9.8412304 165.76801
-2.3684299 9.7805796 165.813
-1.75931 10.4817 165.437
-0.60659599 12.0339 165.377
-2.3808701 9.4022999 166.214
-1.9760799 9.6432505 165.755
-2.0655501 9.6585798 165.686
-0.53046697 13.8679 170.446
0.268327 14.6462 170.105
0.97131401 14.1713 166.185
0.51435101 12.956 165.38
0.070602998 12.0313 165.24699
-0.47322401 11.2595 165.19501
-1.28698 10.3721 165.325
-1.40271 10.3833 165.24699
-1.92114 11.4365 168.563
-2.0489399 11.1392 168.155
-2.38977 10.8654 169.069
-2.5782499 10.3425 168.614
-2.16101 10.88 167.864
-0.78799999 11.1246 166.619
-0.93624699 10.889 166.159
-1.61724 10.1488 166.444
-1.1014 10.8721 166.007
-1.6929801 9.9977999 166.187
-1.25102 10.7201 165.659
-1.20813 10.8158 165.841
-0.59653699 11.5011 165.76601
-0.556261 11.4447 165.64999
-0.52902001 11.4636 165.88
0.76543999 13.9261 166.515
0.490159 12.7598 165.75
0.47497401 12.8043 165.653
0.51995498 12.8347 165.556
0.041956998 12.0921 165.612
0.088872001 12.0704 165.53799
0.080067001 12.0589 165.685
0.58761501 13.5047 166.87
0.33471999 12.6595 166.334
-2.7834101 9.8822098 165.564
-4.5879898 5.0773902 165.104
-4.0419102 5.9200101 165.437
-4.9884501 4.7637401 165.87399
0.0092559997 18.6001 170.27699
-0.345882 17.6444 171.599
-0.37186801 16.2425 170.726
-3.5987201 24.847099 166.42999
-3.4395199 24.947599 167.08701
-2.27001 23.9944 167.03
-2.3352001 23.9093 166.715
-3.7427599 25.179001 167.12
-1.49046 23.024401 167.05099
-5.07163 10.4863 176.58299
-4.7694702 10.5937 175.86099
-4.5194702 11.2506 176.064
-4.7260199 11.3208 176.91
-3.9883101 10.5427 174.058
-3.87941 9.7620897 173.09
-3.0868499 10.8361 172.44
-3.2820001 11.3654 173.537
-3.4734001 11.6912 174.743
-4.19627 11.0007 175.12
-3.91886 12.0769 175.903
-4.3179002 12.2684 177.05701
-3.3253 13.0324 175.69
-3.7656701 13.3173 176.931
-3.6285901 13.6426 176.85201
-3.0494201 11.5882 173.35201
-2.3950901 12.5687 172.64999
-2.4491501 11.8303 171.743
-3.6183701 9.2382002 172.022
-3.12183 10.0926 171.552
-3.0144801 12.2655 174.41
-1.4981 14.5328 172.70599
-2.3126199 13.2766 173.821
-13.1075 4.4224 173.81599
-12.7001 4.7603898 173.58701
-12.4204 5.4664102 173.87199
-12.8511 5.2611599 174.082
-13.4331 4.5121598 173.834
-13.1642 5.3722801 174.103
-12.2691 6.95889 174.63699
-12.6059 7.17137 174.694
-12.8483 6.3952498 174.451
-12.5078 6.2715001 174.40601
-11.8674 6.9405098 174.345
-12.1178 6.2758298 174.144
-10.6976 8.0603104 175.847
-10.2619 8.3993502 174.755
-10.631 8.0661201 175.55
-11.0337 8.1173201 175.30901
-10.7388 8.0763702 174.35201
-10.5298 8.02738 173.90199
-10.2321 8.3214703 174.034
-10.5851 8.2027597 174.472
-11.6727 8.1195698 175.104
-11.2336 8.0848799 174.877
-11.5701 8.2063999 175.644
-9.5395298 8.3063002 175.2
-9.7333498 7.9473801 175.547
-8.7491703 7.6574602 176.40601
-7.69699 7.59905 176.101
-6.9080801 7.5758801 175.771
-6.1880698 7.7999401 175.13901
-5.4219599 8.0875301 174.64
-5.84378 7.8207698 174.47501
-5.27072 7.7676101 173.83501
-5.6623402 7.5104799 173.911
-8.11448 10.8102 178.629
-7.4780002 12.0789 179.19701
-8.9036398 12.5275 179.565
-9.2458 11.0357 178.823
-0.95420402 15.5021 171.75301
-2.66469 10.9652 170.88499
-0.95528698 16.725901 172.836
-1.67485 15.5718 173.923
-2.52074 14.1592 175.052
-0.178734 19.905199 170.899
-0.67324799 18.9554 172.58501
-1.28328 17.9072 173.908
-1.9941601 16.623899 174.99699
-2.8993499 14.9987 176.14
-0.56365502 21.770599 167.99699
-0.71081901 21.6355 167.353
-0.385346 21.838499 169.927
-0.56806499 21.3867 171.601
-1.02408 20.325899 173.422
-1.72045 19.1031 174.769
-2.52478 17.5683 175.981
-3.44296 15.8709 177.07001
-4.15066 14.2529 177.746
-1.22934 23.186199 168.35699
-1.07292 23.0966 170.323
-1.1418999 22.632299 172.067
-1.83445 21.527 174.03101
-2.5355101 20.1348 175.506
-3.3712101 18.4431 176.74899
-4.2442899 16.653 177.783
-5.0486302 14.9169 178.627
-2.14908 24.266001 168.519
-2.17344 24.2892 170.554
-2.3594 23.8323 172.522
-3.57845 21.307501 176.082
-2.87795 22.698099 174.51199
-4.4463401 19.366699 177.465
-5.2483201 17.479401 178.54601
-6.0839 15.6071 179.342
-3.3355899 25.1877 168.694
-3.3044 25.1852 170.714
-3.5399699 24.6616 172.53
-4.1405201 23.513599 174.64301
-4.9546399 22.1903 176.26401
-5.9605298 20.354401 177.802
-6.8208098 18.4555 178.87801
-3.9250901 25.6092 168.73801
-4.2775798 25.7372 170.66
-4.7518501 25.276699 172.59
-5.3891101 24.1696 174.565
-6.2133498 22.7981 176.19099
-7.0680199 20.9494 177.77299
-8.0010405 19.1572 178.819
-8.8162899 17.1647 179.687
-7.6364102 16.5236 179.67799
-5.0248899 26.164499 168.702
-4.9333601 25.852699 167.23399
-5.2544298 26.208401 170.48
-5.70684 25.6931 172.43201
-6.3737402 24.6036 174.459
-7.1117902 23.1675 176.108
-7.9747801 21.3419 177.658
-8.7755499 19.536301 178.80901
-9.6105604 17.517599 179.657
-9.3815098 15.7008 179.95399
-10.1843 16.020599 179.95799
-8.0430899 15.1879 179.845
-6.4736199 14.576 179.508
-5.2867999 14.0369 178.709
-4.40693 13.5855 177.864
-9.6924801 14.5873 179.905
-10.6112 14.7888 179.87601
-8.3873396 14.1079 179.897
-6.8603702 13.6102 179.52
-5.67591 13.0257 178.78999
-4.87918 12.5238 177.98199
-10.2584 13.024 179.561
-11.1108 13.2355 179.493
-6.34196 11.7322 178.58099
-5.3559499 11.4629 177.795
-11.5132 11.7902 178.683
-10.7463 11.6771 178.77299
-9.7474203 11.2175 178.842
-6.9892602 10.4593 178.157
-5.9697299 10.4636 177.511
-7.4966202 6.72788 173.403
-7.0423698 6.92945 173.42999
-7.10431 7.0704498 173.618
-7.5160098 6.80756 173.636
-9.6246204 7.30584 173.728
-10.0375 7.8469 173.70799
-9.6886196 7.2717099 173.48
-4.9121599 25.570499 166.35201
-5.3666601 4.63835 164.149
-6.2183499 5.0662098 163.55499
-5.3914499 5.9189401 163.75101
-4.6066599 5.5859299 164.22301
-4.4805598 6.9690099 164.075
-4.0071802 6.3927398 164.493
-6.1016598 3.85693 164.076
-6.9292402 4.3478398 163.489
-7.0493498 3.3080001 164.12
-7.6698399 3.6008999 163.54601
-7.7983999 2.7460101 164.12801
-8.3639202 2.9767399 163.601
-8.5889902 2.1417799 164.31
-9.1277599 2.2987299 163.72
-9.7610102 1.65561 163.985
-9.3805103 1.53052 164.49899
-10.3646 0.83341098 164.86
-10.7313 0.98007601 164.377
-10.3347 1.86549 163.65199
-9.8556995 2.55949 163.217
-11.6598 1.17568 164.158
-11.4001 2.0906899 163.38499
-11.0244 2.82301 162.644
-10.691 3.6756401 162.028
-10.3667 4.1291299 161.47099
-5.9626498 5.7136898 161.34399
0.0038729999 13.1545 167.17101
-0.117494 12.6832 166.666
0.019277999 11.9629 166.201
-0.290773 12.1037 166.446
-0.40742099 11.4427 166.30701
-0.90284699 14.6815 165.099
-2.9904799 8.6016197 166.564
-3.1938 9.25 164.78999
-3.24931 7.8640299 165.61099
-3.8226399 8.3096905 163.707
-5.1617799 6.1485801 161.144
-3.6064301 7.0281501 164.77699
-1.56882 13.6371 162.56
-1.93128 11.6259 161.875
-1.94161 12.6311 161.476
-1.30566 14.7895 163.47301
-0.75433302 16.077999 164.35001
-0.33936501 17.417101 165.57001
-0.09725 18.363501 166.937
-2.5461099 13.0753 159.73801
-2.2313199 11.7816 160.30701
-2.3724201 10.8264 159.173
-2.63183 11.802 159.11
-2.4389701 14.1379 160.67999
-2.09548 15.2844 161.75101
-1.35946 16.1141 162.79401
-0.91812003 17.4613 163.73
-0.58802903 18.834101 164.972
-0.386951 19.7341 166.308
-2.2985799 16.3573 161.10899
-1.98409 17.5072 161.94501
-1.5675499 18.9081 162.916
-1.18186 20.0452 164.302
-0.98608798 20.979099 165.707
-3.45543 15.257 159.392
-3.45398 14.8675 158.819
-3.4024799 16.064301 159.955
-3.2546 17.5161 160.60201
-2.842 18.624901 161.246
-2.36673 20.0515 162.311
-2.02438 21.366899 163.827
-1.81469 22.271099 165.244
-4.7652898 16.3248 159.173
-4.7634702 16.096901 158.532
-4.6592002 17.083599 159.717
-3.4260001 20.7946 161.784
-2.99547 22.154499 163.39999
-2.6969199 23.2055 164.892
-6.0231299 17.0891 159.005
-5.91675 16.7887 158.29401
-5.9356899 17.7337 159.504
-4.55968 21.406601 161.459
-4.14533 22.9013 162.93401
-3.89153 24.0145 164.57001
-6.3794498 19.009701 160.07001
-5.9439702 20.434299 160.586
-5.5444899 21.8032 161.22
-5.21488 23.281799 162.644
-4.9889898 24.5868 164.37199
-11.4364 4.1812401 161.37601
-11.7852 4.2094002 161.10001
-11.4121 4.56389 159.356
-10.9424 4.4387798 159.54601
-11.4926 3.99581 161.62601
-11.8751 4.0918498 161.44901
-11.9198 3.0992801 162.147
-12.2542 3.23351 161.985
-12.3751 2.19049 163.086
-12.747 2.2427599 163.004
-3.9000499 7.61274 162.017
-4.4499002 6.48841 160.856
-3.1688399 8.9672899 163.463
-3.04039 8.6206903 161.618
-3.5698199 7.5292802 160.452
-2.56657 9.9039402 162.89301
-2.57652 9.3794603 161.158
-3.0441101 8.1840801 159.78999
-2.13729 10.651 162.38699
-2.2142501 10.4382 160.769
-2.6319799 9.1700602 159.42599
-10.924 0.47368401 165.83099
-9.3083296 1.48768 165.474
-10.1549 0.91407001 165.705
-8.5089598 2.0400801 165.20799
-7.4705501 2.79651 164.94701
-8.1949396 2.2666299 165.12399
-6.85711 3.3146999 164.901
-5.91716 3.8116801 164.836
-5.0451298 4.6052999 164.87399
-3.7435701 6.8898802 166.437
-3.5550799 7.8279901 167.47099
-2.7701099 9.7779598 167.96201
-3.3787601 8.5932102 168.507
-3.0759499 9.44979 169.39101
-2.9070201 10.0163 169.892
-2.01984 11.8801 170.02499
-2.2690699 11.2011 169.362
-3.2602701 9.2683001 170.67599
-2.8450799 10.2256 170.078
-3.7052801 8.6570101 171.30499
-3.4394701 8.6464396 170.069
-3.85325 7.8728499 170.75301
-3.78197 7.93643 169.548
-4.36025 6.91787 170.43401
-4.4600501 6.8313098 169.155
-3.7799301 7.98914 168.761
-5.2484198 5.8015599 169.453
-5.1745 6.0023699 170.495
-6.01546 4.9258099 169.69099
-5.9536901 5.20718 170.612
-6.8911901 4.4586 170.74899
-6.9098701 4.2656798 170.008
-8.1651802 3.94558 170.299
-7.6549602 4.0024099 170.11501
-7.2088299 4.3125801 170.76401
-8.2422104 4.18015 171.06599
-4.2469602 6.0464802 166.91
-5.0555201 5.1268702 167.052
-5.0580502 5.2145901 167.353
-4.3454099 6.5521498 168.076
-9.8686895 1.38823 166.461
-9.4330997 1.62247 166.367
-11.0499 0.791628 166.618
-11.6575 0.724406 166.839
-13.1572 0.573484 166.084
-12.5572 0.36227 166.16499
-12.3479 0.89198601 166.84599
-13.0313 1.1018699 166.70399
-13.1593 0.48428601 165.37601
-12.715 0.398619 165.35899
-13.6281 0.66368002 165.321
-13.6699 0.79176098 165.955
-12.5068 1.33961 164.08
-13.1611 1.47123 164.017
-12.7908 1.35862 164.05
-8.8738804 4.2126002 171.283
-9.8653297 4.3702302 171.612
-9.27847 4.0054698 170.825
-10.7787 4.6761799 171.605
-10.1905 4.22895 170.993
-10.6032 4.7564402 172.073
-10.8697 4.6397901 171.396
-10.9705 4.5351501 171.213
-10.4878 4.2186999 170.53
-5.2000999 6.2937298 171.47
-6.00664 5.4812002 171.438
-4.28023 7.83076 171.811
-4.3632102 8.4608498 172.561
-4.6125598 8.9019299 173.539
-4.2463899 10.2421 174.246
-4.9025302 9.2396202 174.60201
-4.6472902 10.5303 175.379
-4.9436402 9.9915304 175.59
-5.3780699 9.3302002 176.07001
-5.1636 9.6581497 175.83299
-5.0991902 8.7014999 174.791
-6.29634 9.2540398 177.063
-7.57129 8.5413103 177.10899
-6.5222702 8.5025597 176.66901
-7.3351498 9.5227098 177.625
-8.41716 9.7072401 177.979
-9.6434698 9.9181299 178.2
-10.3068 10.1788 178.23199
-11.203 10.4552 178.13901
-11.8177 10.6533 177.959
-11.5634 9.3288202 177.42999
-12.0985 9.55299 177.158
-12.242 8.8840199 176.47301
-11.7738 8.5574102 176.62601
-12.3038 8.5211201 175.985
-11.7267 8.2670498 176.12199
-12.2712 8.4220104 175.493
-5.73036 8.6944904 175.83
-4.90137 8.2747097 173.713
-5.4540701 7.28198 173.23
-4.8622098 7.75776 172.92799
-11.6153 7.5541701 174.61
-11.1063 7.6228199 174.12399
-12.4008 7.802 174.834
-12.0154 7.69175 174.82001
-12.273 8.2575998 175.08099
-10.2367 8.0543098 173.89
-10.3307 7.6075201 173.59
-10.7913 7.6094098 173.907
-11.7288 5.4594898 173.267
-11.46 6.1517601 173.539
-11.6643 6.1936798 173.728
-11.9875 5.4644599 173.491
-11.1619 5.32618 172.787
-10.8139 6.0155001 173.12
-10.3867 5.2037902 172.37601
-10.1211 5.7716398 172.841
-9.4975901 4.92133 172.22099
-9.2927504 5.4633398 172.68201
-8.5582705 4.7467599 171.98
-8.3432102 5.2622199 172.46899
-6.1966 5.7765398 172.196
-6.5324302 6.1909199 172.86099
-9.1236496 6.00459 173.022
-9.99335 6.4738598 173.17799
-10.6818 6.6977201 173.448
-11.144 6.8400998 173.817
-11.3809 6.87957 173.991
-4.5743399 7.0311999 171.53999
-5.4472699 6.4831901 172.27499
-4.94347 7.2184401 172.373
-5.8814602 6.67906 172.939
-6.2480602 7.5367198 173.854
-6.3600402 7.3517299 173.60201
-5.8922501 7.2744999 173.493
-12.3516 4.81463 173.32001
-12.066 4.81106 173.03799
-13.592 3.9974699 173.659
-13.4015 3.9360499 173.69
-13.7505 3.4033899 173.27699
-13.4966 3.33887 173.313
-13.4756 3.5064499 173.479
-13.7138 3.57253 173.44701
-13.7912 3.0910201 172.76601
-13.5991 3.0116401 172.776
-13.5637 3.15418 173.077
-13.782 3.2260599 173.048
-13.6566 3.2565801 172.217
-13.3477 3.1398001 172.24899
-13.1314 3.2699399 172.03799
-13.5409 3.4451699 171.864
-13.4239 3.6429801 171.52499
-13.0723 3.4805 171.717
-13.0194 3.36198 171.97501
-13.2106 3.9651799 170.81
-12.8769 3.8628399 170.88901
-12.8307 3.7571499 171.32201
-13.3118 3.83886 171.217
-12.5862 3.93679 171.28
-12.5547 3.9052 171.103
-11.3822 3.89381 170.614
-11.4807 3.9623799 170.995
-12.1164 3.92136 171.22099
-12.3209 3.68857 170.77901
-11.1064 4.21174 170.873
-11.2349 4.2108898 171.045
-11.5457 4.0596299 171.168
-11.2623 4.1634998 171.19701
-11.2977 3.9232099 171.76199
-11.5608 3.95263 171.683
-11.4761 4.0239501 171.46001
-11.2015 4.0665698 171.50999
-11.6108 3.81583 171.938
-11.7271 3.8884201 171.853
-12.0434 3.7516799 172.071
-12.084 3.8733499 171.94099
-12.3777 3.6991899 172.05099
-12.3344 3.57128 172.164
-13.4669 3.0251999 172.83701
-13.051 3.0906 172.46899
-12.7903 3.5553601 173.158
-13.2453 3.32126 173.319
-13.3451 3.0915201 172.996
-12.8035 3.19731 172.71001
-11.4389 3.7721 172.093
-11.3948 4.0654001 172.436
-12.073 3.9727399 172.743
-12.0279 3.6779001 172.356
-11.1326 3.9878199 171.924
-11.1321 4.2673802 172.282
-11.4841 4.40165 172.739
-11.2541 4.5893302 172.50101
-12.0935 4.25319 173.047
-11.0588 4.8025198 171.91901
-10.9075 4.8887501 172.237
-11.0889 4.8281798 172.222
-11.0309 4.2355299 171.74899
-11.024 4.4254098 172.132
-12.6787 4.06042 173.463
-12.3959 4.47822 173.39799
-12.2203 4.58529 173.02499
-12.2826 4.2074699 173.146
-12.0931 4.73456 173.037
-11.5743 4.7297101 172.763
-11.3779 4.8843098 172.57001
-11.1435 4.7950702 172.248
-11.0604 4.4524999 171.444
-13.2312 3.9110701 173.69701
-13.2378 3.4950099 173.485
-12.9592 3.7269101 173.48199
-12.3102 3.8888299 172.86501
-13.5726 1.29037 166.536
-9.4349699 7.7602 174.623
-9.4558897 7.9977298 174.76199
-9.8560896 8.1887999 174.24001
-9.7607403 7.9585199 174.10899
-8.8641005 7.4520302 174.912
-8.8347902 7.6286201 175.06
-8.1061497 7.3192801 174.94
-8.0811901 7.3800702 175.105
-7.5573001 7.2587099 174.664
-7.4332299 7.3563499 174.77299
-7.0157099 7.3004599 174.13699
-6.8969798 7.4517102 174.215
-6.98524 7.4911599 173.72701
-6.8703499 7.5481 173.81599
-6.3187699 7.7267799 174.233
-6.6465001 7.7196498 173.979
-6.6279702 7.52741 173.784
-6.5531101 7.7370901 174.74699
-6.7035799 7.73453 174.31799
-7.1093998 7.5077901 175.295
-7.26332 7.5932798 174.89
-7.7873802 7.55023 175.533
-7.9531698 7.63869 175.203
-8.6838398 7.6547399 175.73599
-8.7051697 7.8930101 175.218
-9.99683 8.4356604 174.40199
-9.4560003 8.3664103 174.89999
-9.5534897 7.4059601 173.963
-9.8050804 7.6564298 173.85899
-8.9898701 6.8777499 173.737
-9.0239801 6.86938 173.52699
-8.2021399 6.6433101 173.438
-8.2479296 6.7000198 173.67
-10.8875 7.4468899 173.901
-11.386 4.9692998 172.58299
-12.3238 3.51824 172.46201
-9.79072 7.8952298 175.84801
-10.7928 9.19802 177.599
-9.9048405 8.9376097 177.604
-8.61306 8.7958403 177.371
-8.7135296 7.64469 176.00101
-7.7555799 7.5679498 175.745
-6.80757 7.3006001 173.57401
-6.6016998 7.10221 173.424
-10.5004 7.1637902 173.562
-9.8731804 6.8712802 173.312
-9.0568199 6.4505701 173.25301
-8.1550703 6.1279101 173.149
-7.3346801 6.2806802 173.101
-6.8284302 6.5083399 173.158
-6.23033 6.8270798 173.239
-6.8113599 7.5138602 173.754
-7.1490998 7.2589998 173.786
-7.5742202 6.93468 173.894
-8.2932301 6.7848902 173.97099
-8.9302197 6.90628 173.983
-7.0153799 6.8702002 173.384
-7.4782 6.6848302 173.34801
-8.1893902 6.5935302 173.38699
-9.0225401 6.8287902 173.46899
-9.7145004 7.2318602 173.43201
-10.0697 8.1258602 173.98
-9.8690996 7.9120698 173.942
-6.7925301 7.7708902 174.26199
-7.3078599 7.65381 174.82001
-7.3150301 7.5660601 174.81599
-6.8256698 7.67695 174.241
-7.9596801 7.7028499 175.11301
-7.9893198 7.6121702 175.11301
-8.6878901 7.9612598 175.117
-8.7344103 7.8696599 175.105
-9.4000797 8.3849897 174.808
-9.42941 8.28372 174.797
-9.9348803 8.4721203 174.312
-9.9229603 8.3712702 174.306
-6.7370501 7.7488499 173.916
-6.7817898 7.6666498 173.877
-11.0893 4.77144 171.927
-11.0773 4.4194598 171.481
-11.2733 4.1465902 171.25301
-11.5465 4.0695901 171.237
-12.6706 3.6468599 173.09399
-12.6135 3.2808101 172.606
-12.6213 3.3408301 172.30701
-12.6566 3.4524601 172.189
-12.8425 3.3919699 172.093
-12.8749 3.25611 172.187
-12.1692 4.30546 171.895
-12.1872 4.3512402 172.14301
-12.4561 4.1929302 172.24699
-12.5794 4.3274102 171.86
-12.1224 3.90924 171.32899
-12.5759 3.9519 171.41499
-12.7787 3.7894499 171.44501
-12.1113 3.92625 171.46201
-11.5797 4.0675802 171.37801
-11.5395 4.03936 171.506
-11.613 3.98579 171.692
-11.7601 3.9363 171.83701
-12.1011 3.9279101 171.922
-12.401 3.75161 172.034
-12.6526 3.5178299 172.158
-12.8025 3.4621799 172.07899
-12.944 3.4377799 171.983
-12.9912 3.53899 171.791
-12.5457 4.26581 171.75999
-12.724 4.1264 171.784
-12.134 4.2424898 171.799
-11.6557 4.3642201 171.729
-11.6265 4.3431301 171.842
-11.6968 4.2962599 172.00301
-11.8295 4.2566199 172.125
-12.1291 4.2504201 172.2
-12.39 4.0980201 172.299
-12.6081 3.8917 172.40199
-12.7398 3.8466401 172.332
-12.8643 3.82446 172.25
-12.9043 3.91172 172.084
-12.7159 4.2051902 171.873
-11.7286 4.4185901 171.811
-11.6988 4.4169798 171.856
-11.7953 4.3754101 171.976
-11.9008 4.35256 172.076
-12.6457 4.0027499 172.33701
-12.7424 3.96065 172.285
-12.8328 3.9467399 172.224
-12.8649 4.0158901 172.12399
-10.4502 1.05975 166.55701
-10.7374 3.9491 170.377
-10.1444 3.8001599 169.951
-10.3183 4.0109 170.241
-10.3389 3.52544 169.744
-8.5510998 3.56229 169.744
-8.2459297 3.7276299 169.679
-8.2032099 3.8120401 169.909
-8.3753099 3.45209 169.339
-8.1446896 3.6519001 169.317
-7.4605699 3.9990301 169.67999
-7.9885502 3.8783901 169.82899
-7.8559799 3.8915901 169.67799
-7.5331998 3.86549 169.12399
-7.8461199 3.76372 169.276
-10.6907 2.20557 167.755
-10.1818 2.4174399 167.63901
-10.1357 2.6845601 168.05
-10.5576 2.4762199 168.14999
-10.8089 2.28701 167.99001
-8.9325705 2.6200299 167.619
-9.3897104 2.7903299 168.005
-9.8923502 2.7409501 168.021
-9.6031904 2.50913 167.55901
-9.2159595 2.3091099 167.112
-10.1083 2.0890999 167.3
-11.1703 1.89755 167.505
-10.5445 2.0037799 167.386
-11.3022 2.02034 167.851
-6.0588598 4.6870799 168.784
-5.3036499 5.6314101 168.468
-6.1055799 4.4170599 167.802
-5.96312 4.10463 167.269
-5.87117 3.80268 166.05
-6.95333 4.0525398 169.11099
-7.1139898 3.79 168.198
-6.9764299 3.5169699 167.291
-6.8354201 3.2418001 166.089
-7.47682 2.8670299 166.045
-7.6993098 2.92645 167.187
-7.7227602 3.3134401 167.95799
-7.7119002 3.67015 168.629
-8.7305298 3.7298701 170.114
-7.9820299 3.6263001 169.037
-8.3424196 3.1189899 168.658
-8.0703201 3.34042 168.73199
-8.67659 3.1898201 169.16299
-9.30478 2.9619901 168.72099
-8.9991503 3.28425 169.513
-9.4961596 3.0885601 169.149
-9.9626398 3.0281799 168.325
-9.6812201 2.94064 168.40601
-8.9839001 2.7880001 168.254
-8.1382799 2.3943501 166.121
-8.2640104 2.6380601 167.11301
-8.6619301 2.07109 166.17101
-10.4709 1.3536299 166.95399
-11.032 1.38701 167.173
-11.7296 1.80865 167.547
-11.6222 1.43578 167.358
-12.8897 2.2832999 167.399
-12.9146 1.83069 167.131
-12.3428 1.62932 167.27299
-12.4026 2.0487001 167.48199
-13.2322 3.74666 170.403
-12.8398 3.82038 170.52901
-13.2968 3.4507401 170.108
-12.9392 3.33498 170.187
-11.5192 3.5446701 170.423
-11.2329 3.0314901 169.84399
-11.7149 3.0496099 170.07401
-12.4508 3.13604 170.315
-12.6419 3.2195599 170.27
-9.7024202 3.80546 170.355
-9.77775 3.33497 169.498
-9.3067904 3.44029 169.856
-10.2129 3.4084201 169.53101
-10.0623 3.15204 169.159
-10.594 3.1358199 169.45399
-10.2593 3.0060799 169.00101
-8.1330299 3.0767701 168.052
-8.1121502 2.93945 167.755
-8.3533001 2.8192999 167.642
-8.6635399 2.61305 167.334
-8.57514 2.77127 167.858
-11.0168 3.5901899 170.17101
-12.5069 3.74459 170.702
-13.2432 2.6070199 167.543
-12.8939 2.4254401 167.645
-12.5326 2.21771 167.76401
-11.8143 1.9942501 167.845
-10.2024 2.91294 168.25301
-13.3885 1.99545 167.019
-13.2744 2.4276299 167.306
-9.8774405 3.0343699 168.72701
-10.0428 3.0257001 168.541
-15.2457 4.6399002 167.83299
-15.3525 4.7960401 167.742
-15.3683 4.8120298 167.728
-15.374 4.4698 167.64301
-13.7485 2.9098101 169.83099
-13.7652 2.77847 169.481
-13.6519 2.7901101 169.181
-13.9356 2.9217401 169.47701
-13.9934 3.0956099 169.89101
-14.2124 3.1990399 169.815
-14.198 3.1173601 169.424
-14.8351 3.4928501 169.42999
-14.8058 3.4373801 169.207
-15.099 3.8047099 168.703
-15.235 3.8375399 168.98
-15.4314 4.4222698 168.429
-15.3109 4.3557301 168.255
-15.4854 4.7003698 168.118
-15.3856 4.6601601 168.00999
-14.1263 3.0559199 169.105
-14.6787 3.41766 168.93401
-13.6823 2.66594 168.74001
-13.7723 2.5221 168.567
-13.8108 2.36479 168.271
-14.0794 2.85463 168.681
-14.1494 2.6739399 168.495
-14.7249 3.23715 168.558
-14.895 2.9922099 168.364
-15.0904 3.6624 168.349
-15.2046 3.45841 168.19701
-15.2153 4.11763 168.006
-15.265 3.90429 167.892
-15.3314 3.8318501 167.77
-15.2402 3.3378301 167.993
-14.9645 2.8826399 168.112
-14.1445 2.5371399 168.202
-13.8541 2.8883901 169.159
-13.5738 2.8580401 168.903
-13.9917 3.0560701 168.849
-14.5466 3.49493 168.724
-14.958 3.87275 168.481
-15.1395 4.3427701 168.11301
-15.2581 4.6615801 167.884
-13.736 2.95716 169.881
-13.9706 3.1305599 169.948
-14.2003 3.2334499 169.873
-14.8298 3.5348301 169.481
-15.4467 4.4664202 168.48399
-15.238 3.86713 169.039
-15.5227 4.7356701 168.17799
-15.3676 4.8172898 167.73599
-15.3696 4.8194199 167.737
-15.3542 4.8008099 167.748
-14.9531 3.8529201 168.43201
-15.1334 4.3189502 168.064
-14.5508 3.4783499 168.674
-13.9988 3.03636 168.79201
-13.5763 2.8367 168.847
-13.4883 2.8505599 168.88901
-13.4887 2.84793 168.88499
-13.894 3.03789 168.83099
-14.4293 3.4709499 168.72
-13.8913 3.0397301 168.836
-14.432 3.46912 168.716
-14.8217 3.83518 168.493
-14.8212 3.83443 168.487
-14.9998 4.2900801 168.138
-14.9968 4.2898402 168.13499
-15.1173 4.6120801 167.909
-15.1163 4.60676 167.907
-13.8069 2.36444 168.20399
-14.131 2.5328 168.131
-14.9616 2.8791001 168.045
-15.2385 3.3212299 167.91901
-15.1692 4.6816802 166.761
-15.1871 4.6615801 166.839
-15.0017 4.5160599 166.974
-14.9532 4.5061598 166.918
-14.8877 4.20786 167.189
-14.8409 4.1890302 167.14101
-14.7236 3.7462001 167.552
-14.6759 3.7344 167.49699
-14.3818 3.37451 167.786
-14.3544 3.3803 167.716
-13.865 2.94999 167.90199
-13.8541 2.9660499 167.827
-13.4123 2.74037 167.95799
-13.3968 2.7548201 167.883
-13.2299 3.6963201 169.272
-13.1964 3.8520701 169.392
-13.5875 3.86797 169.22301
-13.5547 3.9720299 169.272
-14.1638 4.3207598 169.10001
-14.1241 4.3840399 169.108
-14.6241 4.7123799 168.849
-14.5734 4.7685299 168.873
-14.7986 5.1761498 168.491
-14.7454 5.2204399 168.522
-14.9122 5.4746099 168.286
-14.867 5.5343299 168.302
-15.1782 5.6731 168.116
-15.1577 5.7533698 168.118
-13.3925 3.05901 168.731
-13.366 3.1349499 168.735
-13.3757 3.0746 168.64999
-13.392 3.05827 168.726
-13.7831 3.26668 168.59801
-13.7973 3.24824 168.672
-14.3165 3.69631 168.48399
-14.3525 3.6891601 168.556
-14.7043 4.0588899 168.257
-14.754 4.0604501 168.31799
-14.8787 4.5103102 167.903
-14.9335 4.52321 167.955
-14.9963 4.8323002 167.675
-15.046 4.8338699 167.737
-15.2311 5.0188899 167.51199
-15.2565 5.0058098 167.58701
-15.2342 5.086 167.59399
-15.2586 5.0079498 167.589
-14.9934 4.8950901 167.759
-15.0479 4.8373098 167.74001
-14.8738 4.57096 167.98599
-14.9331 4.5258498 167.959
-14.6994 4.1195598 168.339
-14.7536 4.0630898 168.32201
-14.3046 3.7558401 168.569
-14.3498 3.6909699 168.56
-13.7643 3.3238001 168.685
-13.7955 3.2481699 168.67799
-15.3762 4.82831 167.73199
-15.3751 4.8281398 167.724
-15.373 4.8174701 167.71899
-12.2681 6.20015 167.884
-12.4972 4.9973202 166.216
-12.8255 6.38871 167.73801
-13.2095 5.3006301 166.12601
-13.7577 6.8076301 167.364
-14.0476 5.8393898 165.966
-14.5215 7.3026099 167.08299
-14.5874 6.2568302 165.715
-14.8863 7.8252702 166.70399
-14.9369 6.7771101 165.33299
-15.1393 8.1918898 166.45599
-15.1548 7.1296 165.097
-15.5717 8.4495401 166.263
-15.4949 7.3542299 164.925
-15.1413 4.88481 167.177
-15.1392 5.38411 167.80701
-14.9087 4.6904998 167.336
-14.7821 4.3515701 167.569
-14.6225 3.9142001 167.91499
