# .PCD v.7 - Point Cloud Data file format
VERSION .7
FIELDS x y z
SIZE 4 4 4
TYPE F F F
COUNT 1 1 1
WIDTH 1767
HEIGHT 1
VIEWPOINT 0 0 0 1 0 0 0
POINTS 1767
DATA ascii
-42.9902 -11.0633 148.021
-42.8395 -11.1828 147.826
-42.342701 -11.7468 147.24899
-42.729198 -11.6644 147.20599
-43.18 -11.2823 147.75301
-42.2771 -11.4677 148.436
-42.311001 -11.5073 148.455
-41.987499 -11.9427 147.866
-42.507099 -11.2376 148.422
-42.481998 -11.2024 148.408
-42.289799 -11.5139 148.487
-41.940399 -11.9827 147.884
-41.9925 -11.8797 147.58701
-42.3825 -11.3206 148.16901
-42.5341 -11.2236 148.47501
-42.755501 -11.0856 148.263
-42.727798 -11.0527 148.245
-42.786499 -11.0668 148.30701
-42.5588 -11.2102 147.98199
-43.059101 -11.0792 148.075
-42.139301 -11.8203 147.375
-42.325298 -11.7605 147.198
-42.105701 -11.8356 147.336
-41.9431 -11.9109 147.569
-41.925701 -12.246 146.679
-41.5518 -12.4666 147.037
-42.451 -12.1742 146.564
-41.759499 -12.083 147.379
-41.9757 -11.9388 147.15401
-41.4095 -12.7182 147.472
-41.5704 -13.0895 147.82401
-41.702202 -12.262 147.819
-41.872299 -12.492 148.19501
-42.119301 -13.2685 148.01601
-42.431099 -12.731 148.427
-42.603298 -13.1746 147.95
-43.150101 -12.5573 146.88
-42.8801 -12.2797 146.629
-43.143799 -12.8219 147.261
-43.448101 -12.0758 147.35001
-43.180302 -11.8934 147.067
-42.932598 -13.0189 147.66499
-43.4258 -12.3199 147.703
-43.204899 -12.5932 148.08
-42.897598 -12.7193 148.339
-42.6796 -11.8318 146.925
-42.145699 -11.8905 147.03
-43.409 -11.3302 147.745
-42.4608 -11.7319 148.681
-43.2682 -11.0906 148.144
-42.986401 -11.125 148.48199
-42.719501 -11.2864 148.645
-43.577099 -11.5804 147.88499
-43.519299 -11.7517 148.117
-43.432598 -11.3487 148.284
-43.310501 -11.8875 148.452
-43.2005 -11.3753 148.586
-42.968899 -11.5576 148.75
-42.7869 -11.9604 148.783
-43.055 -12.0166 148.689
-46.228901 -15.5198 147.88499
-45.870098 -14.6434 147.756
-46.149601 -15.1844 148.099
-45.667999 -15.5028 147.41701
-45.345501 -14.5636 147.47
-46.7747 -15.5759 148.272
-47.010502 -15.9448 148.067
-46.747101 -13.4625 146.578
-46.2883 -13.4997 146.89101
-45.840599 -13.4093 146.478
-46.3386 -13.54 146.19701
-46.4767 -13.1671 146.75999
-46.229099 -13.4075 146.983
-46.007801 -13.6483 147.31
-45.553799 -13.5792 146.877
-46.183201 -13.643 145.91499
-47.374802 -14.0753 146.36501
-46.933102 -13.8817 146.17599
-48.317001 -15.4069 147.086
-47.159599 -14.6953 145.95399
-47.092602 -15.2362 146.12601
-48.9739 -14.5171 147.69
-48.441502 -14.5725 146.868
-46.382 -14.6867 145.46001
-46.338902 -15.1455 145.56599
-47.947102 -15.8147 147.267
-46.844601 -15.6058 146.472
-44.621601 -14.6157 144.17101
-44.993401 -14.7585 144.42101
-44.587502 -14.8352 144.18201
-43.835098 -15.3963 144.881
-43.701 -15.4145 145.11501
-44.1973 -15.2178 144.394
-44.291901 -15.6028 145.16299
-43.979599 -15.5744 145.418
-44.7216 -15.4166 144.771
-45.052101 -14.995 144.56799
-47.3871 -15.6556 148.61099
-46.0923 -15.9205 147.295
-45.334801 -13.6129 145.24899
-44.980301 -13.4682 145.69701
-44.181702 -14.5508 146.51601
-44.193199 -15.001 146.453
-44.2813 -14.0479 146.373
-44.645 -13.7384 146.062
-45.851501 -14.9057 147.821
-45.811001 -14.1265 147.754
-45.580299 -14.3438 147.735
-45.8283 -14.1211 147.737
-46.021198 -13.6143 147.44
-45.888 -13.8313 147.479
-46.379002 -13.271 147.174
-45.291698 -14.0177 147.342
-44.828602 -13.9942 146.957
-45.016102 -13.5168 146.461
-44.8536 -14.5613 147.13
-45.363499 -13.4021 146.04601
-46.520699 -13.1993 146.981
-44.953602 -15.1403 147.10899
-46.3195 -13.9181 146.49001
-48.752602 -15.2839 147.752
-48.908699 -15.0078 148.09599
-48.980202 -14.8556 148.002
-48.455399 -15.6254 147.88499
-48.633202 -15.344 148.304
-48.9562 -14.7014 148.367
-49.099499 -14.3667 148.19099
-48.251999 -15.6248 148.25101
-48.676899 -15.0154 148.64
-47.605499 -15.8906 147.709
-48.354301 -15.1278 148.88901
-47.901001 -15.7109 148.342
-48.0755 -15.1178 149.12199
-46.416698 -14.1022 145.55
-45.8591 -14.059 145.162
-45.7645 -13.6751 145.569
-45.7038 -14.5799 144.97501
-45.575001 -14.0388 144.97501
-44.4562 -15.5903 146.07899
-44.8493 -15.6878 145.58
-45.249001 -15.6774 146.746
-45.632801 -15.7469 146.304
-45.207901 -15.5485 145.12601
-46.355701 -15.7369 146.85201
-46.0611 -15.589 145.864
-45.5774 -15.0838 144.95599
-44.453098 -14.2914 144.11501
-44.252998 -14.0876 144.133
-44.236301 -14.4657 144.049
-43.4757 -14.307 144.395
-43.765301 -14.8178 144.291
-43.944 -14.0001 144.129
-43.485298 -15.1188 144.797
-43.222198 -14.6706 144.866
-43.9081 -12.2302 145.438
-44.243999 -12.1962 145.46201
-43.3923 -12.3979 145.70399
-43.0634 -12.6054 146.161
-43.529499 -13.0838 146.967
-43.175999 -12.9432 146.63
-44.080002 -13.1302 146.96201
-43.5611 -13.7007 146.614
-43.158298 -13.6014 146.213
-44.747799 -12.2084 145.83
-44.318699 -12.8583 145.011
-44.824799 -12.8364 145.433
-44.8437 -12.5106 146.228
-44.847099 -13.7321 145.463
-44.910702 -13.6467 145.54401
-44.956699 -13.3861 145.162
-45.0229 -13.6805 145.05
-44.515301 -14.0054 145.79201
-44.6343 -13.7973 146.04601
-45.034599 -13.0164 146.00301
-44.5923 -13.3481 144.80701
-44.8022 -13.7693 144.60699
-44.7481 -13.3771 146.476
-43.911598 -14.5877 146.147
-43.737999 -14.7196 146.146
-43.575001 -14.2746 146.327
-43.830002 -14.2624 146.427
-43.202301 -14.2641 145.851
-43.384201 -15.0385 145.659
-43.6754 -13.7061 146.705
-44.206902 -14.2588 146.09399
-44.268902 -14.124 146.32401
-44.263699 -13.6439 146.77901
-44.489601 -12.8635 146.661
-43.853901 -13.5417 144.38
-44.1716 -13.7392 144.299
-44.564201 -14.121 144.237
-43.253601 -14.8975 145.05299
-43.426899 -15.211 145.159
-43.113701 -14.6057 145.379
-43.3918 -15.1998 145.383
-44.3391 -13.396 144.589
-43.8979 -12.8322 144.948
-43.091202 -13.3241 145.64799
-43.103298 -14.0891 145.179
-43.376202 -13.037 145.15601
-43.3778 -13.7692 144.64799
-44.222 -11.6134 145.903
-43.9547 -11.5661 145.974
-43.351002 -11.7153 146.159
-43.129398 -11.8331 146.72099
-43.359501 -12.5805 147.12
-43.075901 -12.2021 147.048
-43.944 -12.7826 147.04601
-44.657001 -11.8642 146.11099
-44.753899 -12.2809 146.392
-44.332901 -12.5777 146.76601
-45.5905 -11.3908 147.67999
-45.584702 -11.3577 147.70399
-44.9716 -11.3431 147.321
-45.563301 -11.3388 148.054
-45.549099 -11.3068 148.05499
-44.734299 -11.3119 147.38499
-45.473301 -11.2756 147.89101
-45.6152 -11.4223 147.629
-44.959702 -11.319 147.289
-44.622002 -11.5764 148.533
-44.613701 -11.6084 148.52699
-44.2271 -11.505 147.89
-44.9146 -11.5094 148.563
-44.9021 -11.4772 148.554
-44.199799 -11.4836 147.88
-44.5527 -11.6517 148.539
-44.331402 -11.4016 147.696
-44.7892 -11.4638 148.476
-45.613602 -11.3687 148.08
-45.323101 -11.3272 148.353
-45.305698 -11.2991 148.349
-45.3605 -11.3454 148.388
-45.146999 -11.2694 148.19701
-44.933998 -11.5426 148.61
-44.501301 -11.2968 147.51199
-44.307098 -11.3718 147.66701
-44.473499 -11.2672 147.483
-44.6996 -11.2818 147.353
-44.596802 -11.3178 147.03
-45.041698 -11.5082 146.85699
-43.8633 -11.7286 147.90199
-44.0201 -11.4227 147.592
-44.576698 -11.4724 146.388
-44.3354 -11.3445 146.483
-44.958 -11.8797 146.511
-43.809299 -11.3136 146.834
-44.241501 -11.2116 147.287
-43.558498 -11.5695 147.25999
-43.442699 -11.9408 147.52499
-45.696499 -11.6534 148.078
-45.442101 -11.587 148.42999
-45.044701 -11.7502 148.57899
-44.670502 -11.9673 148.52901
-45.706001 -11.7449 147.58501
-43.726898 -12.3958 147.57899
-44.2043 -12.7344 147.48399
-45.054001 -12.3422 146.80299
-44.611198 -12.6716 147.15199
-45.203201 -12.4684 148.03999
-45.720699 -12.066 148.03101
-45.691399 -12.1543 147.69701
-45.5256 -12.0579 148.36
-45.412601 -12.3038 147.222
-44.968201 -12.6327 147.683
-45.229198 -12.1804 148.472
-44.931198 -12.4482 148.345
-44.585602 -12.663 147.979
-44.056702 -12.2487 148.01801
-45.410599 -11.9245 147.002
-46.684799 -13.2048 146.15601
-46.959301 -13.3319 146.332
-46.869801 -13.0532 145.99001
-46.8848 -12.8133 146.08701
-48.200298 -13.7931 144.565
-48.968399 -13.9576 145.146
-49.0387 -13.4434 144.98
-48.235298 -13.3667 144.508
-47.9776 -14.2301 144.862
-48.835602 -14.3386 145.412
-49.559399 -13.6859 145.89
-49.493099 -13.1085 145.545
-49.0285 -13.3301 144.933
-47.3545 -13.8228 144.19099
-47.415298 -13.2064 144.076
-49.1707 -13.0267 145.133
-44.9034 -14.1908 143.96899
-45.479801 -14.4253 144.46001
-45.6577 -13.6401 143.151
-46.431301 -13.8739 143.688
-46.401299 -13.4649 143.468
-45.348301 -13.9679 143.36
-46.144798 -14.2256 143.858
-46.677299 -13.1747 143.68401
-44.995602 -14.1736 143.715
-45.7575 -14.4374 144.188
-47.158501 -14.2153 144.446
-45.754002 -14.3013 144.82201
-45.940899 -14.4294 144.285
-48.4189 -14.4595 146.55299
-47.209301 -14.4082 145.694
-47.122002 -14.424 145.834
-47.431702 -14.2403 146.09399
-48.539902 -14.4906 145.896
-47.569 -14.4269 145.282
-46.491299 -14.3117 145.34801
-46.322399 -14.0545 145.59
-46.574001 -13.6161 145.899
-46.531898 -13.0853 145.839
-46.700401 -12.6208 145.60899
-47.054798 -12.6747 145.78101
-46.146801 -13.4703 145.733
-46.142899 -12.9497 145.73399
-47.053902 -12.3872 145.159
-47.643799 -12.3978 145.353
-46.9897 -12.5257 145.825
-46.330399 -12.567 145.47701
-47.552601 -12.5351 144.78799
-48.127899 -12.5767 145.11301
-47.316898 -12.3272 145.381
-46.691502 -12.3408 145.017
-47.020901 -12.5723 145.75999
-46.876801 -12.7893 146.088
-48.016602 -12.9841 144.515
-48.6068 -13.026 144.856
-48.3755 -12.7174 145.133
-47.009602 -12.541 144.435
-48.877998 -12.891 144.953
-47.2192 -12.4661 145.498
-46.991199 -12.6112 145.623
-46.7384 -13.0911 145.98599
-46.713402 -13.2016 146.125
-46.643799 -13.3759 146.00301
-45.2243 -12.8869 145.062
-45.0336 -13.2218 145.04601
-45.481701 -12.5781 144.88
-45.494801 -12.8273 145.40199
-45.519699 -13.3529 145.367
-45.6399 -13.9543 145.179
-45.679901 -12.3831 144.395
-45.784698 -12.5348 145.15401
-46.0728 -12.3575 144.653
-46.272499 -12.515 144.09599
-46.8438 -14.4323 144.911
-49.220699 -14.2535 145.974
-49.4259 -13.9997 146.321
-49.475399 -13.8534 146.239
-49.133499 -14.2046 146.567
-47.298698 -12.8684 144.14999
-46.5219 -12.8119 143.70599
-44.6562 -14.0366 143.991
-44.4986 -13.8097 143.96201
-44.309898 -13.5025 144.26801
-44.5891 -13.9682 144.332
-44.696301 -13.9246 143.74001
-44.452702 -13.526 143.841
-44.3424 -13.2431 144.112
-44.3078 -12.8645 144.909
-45.311699 -13.0509 143.15601
-45.577 -13.2816 143.129
-45.6768 -12.918 143.27
-45.308601 -12.5285 143.41701
-45.295898 -13.3576 143.12199
-45.810501 -12.772 143.34
-45.498001 -12.0716 143.75301
-44.978199 -12.5791 143.56599
-45.035999 -13.0298 143.252
-44.6003 -12.8855 143.755
-44.6712 -13.2115 143.55
-44.309601 -12.6337 144.554
-45.023102 -12.1623 143.86501
-44.563301 -12.3764 144.157
-44.977501 -13.6822 143.339
-45.0336 -11.0315 144.66299
-45.033401 -11.0737 144.631
-45.448502 -10.9163 144.661
-44.922798 -11.0733 144.709
-45.015301 -11.6436 144.265
-45.4888 -11.526 144.23399
-44.519299 -11.2527 144.922
-44.270302 -11.5603 145.263
-44.510502 -11.2954 144.88
-44.507401 -11.1427 144.987
-44.270699 -12.1536 144.873
-44.540401 -11.9021 144.506
-44.493099 -11.0602 145.026
-44.655499 -12.0201 145.843
-44.3451 -11.8495 145.61
-44.993099 -11.9859 145.959
-44.628799 -12.4486 145.52
-44.3475 -12.3474 145.31599
-45.7225 -10.9556 144.901
-45.787102 -11.4897 144.427
-45.8801 -11.1823 145.155
-45.071098 -13.0827 145.274
-45.027599 -12.5451 145.63
-45.450199 -12.5196 145.62801
-45.409599 -13.0119 145.211
-44.649899 -13.0805 145.15401
-45.379902 -11.8435 145.96001
-45.600498 -12.6257 144.97
-45.819 -12.3758 145.41299
-45.0494 -13.1866 145.153
-46.067299 -11.9936 145.08
-46.065601 -11.6553 144.83099
-46.087101 -12.0913 144.39999
-45.967602 -12.4313 144.629
-45.896198 -11.4204 145.38499
-45.807999 -11.934 143.968
-46.070702 -12.4695 144.108
-45.690102 -11.7299 145.76401
-44.781399 -13.5704 144.911
-45.9739 -12.4423 143.636
-45.492001 -10.7123 144.918
-45.068501 -10.6542 144.91701
-44.256699 -11.2307 145.491
-44.506199 -10.9182 145.12801
-44.654598 -11.6551 146.035
-44.3372 -11.6021 145.787
-44.9361 -11.6752 146.078
-45.7206 -10.8851 145.06599
-45.8913 -11.111 145.27699
-45.280602 -11.6589 145.97701
-45.586399 -11.5512 145.789
-45.845901 -11.3204 145.487
-46.2892 -10.5117 146.63
-46.282101 -10.4381 146.655
-45.891998 -10.4994 146.218
-46.243401 -10.4104 147.06799
-46.2383 -10.3571 147.069
-46.0616 -10.3206 146.85201
-45.686901 -10.4323 146.23399
-45.9538 -10.5219 146.17799
-46.3391 -10.5025 146.633
-45.422001 -10.9894 147.418
-45.433399 -11.0052 147.405
-45.152599 -10.9389 146.84599
-45.724602 -10.6902 147.493
-45.709202 -10.6438 147.494
-45.124699 -10.9631 146.867
-45.421398 -11.0376 147.427
-45.102501 -10.6384 146.54401
-45.560001 -10.5921 147.272
-46.319801 -10.4234 147.089
-46.003601 -10.43 147.349
-45.999699 -10.3799 147.345
-46.054501 -10.4486 147.395
-45.785198 -10.37 147.069
-45.737202 -10.7445 147.57899
-45.357201 -10.4168 146.37
-45.063301 -10.652 146.562
-45.695099 -10.4195 146.203
-45.343102 -10.4084 146.356
-46.420601 -10.5041 146.629
-46.018398 -10.5163 145.937
-46.5881 -10.693 146.647
-46.546001 -10.6368 147.119
-44.806999 -10.5053 145.729
-45.353401 -10.447 145.511
-44.554699 -10.8194 146.06599
-45.635899 -10.3682 146.05901
-46.304901 -10.798 145.92999
-44.968399 -11.057 146.81
-45.0798 -11.4173 146.85899
-45.4832 -11.2683 147.37399
-44.996101 -10.6786 146.517
-46.321201 -10.7961 147.437
-45.280102 -10.4017 146.28
-45.909801 -11.0812 147.569
-44.548302 -11.21 146.258
-44.806301 -11.5251 146.32001
-46.0285 -10.8195 145.437
-45.767399 -10.563 145.425
-45.077499 -11.6624 146.302
-45.4048 -11.6962 146.25
-45.719898 -11.6162 146.099
-46.058701 -11.3868 145.757
-46.120399 -11.1767 145.547
-46.366798 -11.4448 146.58701
-46.004299 -11.6376 146.558
-46.238499 -11.4921 146.853
-46.247398 -11.4628 146.19701
-45.827599 -11.5896 146.91
-46.418701 -11.1377 147.284
-46.6306 -11.0229 147.00301
-45.692101 -11.6796 146.785
-45.3312 -11.5944 146.855
-45.655998 -11.5004 147.218
-46.650002 -11.0537 146.685
-46.020901 -11.3599 147.403
-46.356602 -11.1858 146.005
-47.9398 -12.5849 144.464
-47.452999 -12.696 144.22099
-47.1087 -12.2701 144.33701
-47.457901 -12.0395 144.677
-48.351002 -12.6385 144.177
-47.807301 -12.7147 143.77
-47.6105 -12.7252 144.034
-48.084999 -12.6121 144.27
-48.707199 -12.3517 143.909
-48.109501 -12.4823 143.466
-47.219299 -12.8258 143.388
-47.079899 -12.862 143.578
-47.542 -12.5458 143.095
-46.8274 -12.7981 143.127
-46.4785 -12.8974 143.23801
-46.868801 -12.7674 143.82899
-47.164799 -12.5274 142.867
-46.443199 -12.8528 142.84399
-47.152401 -12.0684 142.50101
-47.2174 -11.84 142.576
-46.8218 -12.5614 142.58501
-47.3465 -12.0391 142.68401
-47.712399 -11.5563 142.82001
-47.722599 -12.0203 142.88499
-48.301498 -11.9213 143.31
-48.2267 -11.4257 143.21201
-48.691399 -11.1608 143.67999
-49.168999 -10.9791 143.847
-48.5303 -10.7315 143.608
-48.875198 -11.7963 143.72501
-49.301399 -11.5343 144.246
-47.9692 -10.9973 143.37
-46.891998 -11.3062 143.267
-47.396801 -11.1534 143.00999
-47.133301 -11.0827 143.44299
-46.793301 -11.402 143.614
-46.960899 -11.2053 143.896
-46.566898 -11.6547 143.899
-46.201 -12.0989 144.01401
-46.451 -11.9551 144.285
-46.687099 -12.4459 144.09801
-46.453899 -11.7812 144.045
-46.570599 -11.615 144.315
-46.7183 -11.4426 144.211
-48.082298 -10.6075 143.75999
-47.649502 -10.8341 143.63
-47.7766 -10.7302 144.129
-47.464298 -10.8531 143.80099
-47.5098 -10.8857 144.362
-47.185902 -10.945 144.161
-47.294498 -11.1638 144.521
-46.947899 -11.254 144.42799
-46.9058 -11.4894 144.44901
-47.220299 -11.5838 144.541
-47.330502 -11.8165 144.60201
-46.981098 -11.8794 144.401
-49.1507 -12.3162 144.72
-49.177101 -12.0584 144.36501
-49.431499 -11.7983 144.802
-49.4053 -11.9958 144.955
-49.536499 -11.099 144.82001
-49.570999 -11.5139 144.955
-46.830299 -11.6293 142.41901
-46.4114 -11.5648 142.343
-46.5812 -12.021 142.24899
-45.799198 -11.8731 142.47701
-46.221001 -12.4162 142.375
-46.1908 -11.5279 142.401
-45.464401 -12.3384 142.864
-45.858101 -12.7284 143.063
-45.904099 -12.6706 142.66
-46.379501 -10.4157 143.259
-46.528099 -10.89 142.923
-46.8358 -10.8065 143.257
-46.664799 -10.3415 143.569
-46.012501 -10.4898 143.14999
-46.112801 -11.0273 142.834
-46.927399 -11.3112 142.77901
-46.692699 -10.5347 143.89799
-46.966202 -10.9886 143.66901
-45.388599 -10.5885 143.52299
-45.280399 -10.7848 143.869
-45.418098 -11.5248 143.526
-45.416401 -11.3637 143.099
-45.5065 -11.0619 144.283
-45.6157 -11.6264 144.00301
-45.496899 -12.1874 142.686
-45.7075 -10.5758 143.245
-45.7644 -11.1924 142.91901
-46.689301 -10.7656 144.244
-45.899399 -11.0954 144.625
-46.857498 -11.2038 143.95
-46.526299 -10.9595 144.48399
-46.3097 -11.0194 144.614
-46.019501 -11.6417 144.293
-46.490898 -11.4957 144.382
-46.701099 -11.362 144.245
-46.8955 -11.2512 143.381
-46.753502 -11.4163 143.63901
-46.581299 -11.6161 143.93201
-46.219799 -12.0384 144.049
-45.805698 -12.3164 143.687
-45.717098 -12.577 143.289
-46.446201 -11.7691 144.032
-46.781799 -9.9426098 143.96001
-46.431301 -9.8634701 143.76199
-45.447201 -9.9837303 144.099
-45.3564 -10.2005 144.505
-46.038101 -9.8366499 143.73399
-45.677101 -9.8839102 143.87
-46.922199 -10.1292 144.327
-46.885601 -10.4653 144.66901
-45.574001 -10.5746 144.813
-46.014099 -10.8318 145.08299
-46.688599 -10.6898 144.89301
-46.398602 -10.7942 145.015
-46.154499 -9.4427299 144.64999
-46.431999 -9.3774405 144.701
-46.556702 -9.0798101 145.103
-46.487301 -9.3990097 144.666
-46.182499 -9.4594297 144.621
-46.7416 -9.1112404 145.118
-46.234299 -9.0608902 145.321
-46.043201 -9.4653502 144.686
-45.988201 -9.2255898 145.562
-45.8335 -9.6215801 145.08701
-45.952301 -9.4950399 144.793
-45.954399 -9.3410397 145.737
-45.791801 -9.6740103 145.123
-45.926201 -9.5314903 144.791
-46.764099 -9.1434298 145.12801
-46.623001 -8.9606199 145.446
-46.594601 -8.8955002 145.42999
-46.811401 -9.1543598 145.101
-45.9953 -9.4175196 145.759
-46.085499 -9.13099 145.78101
-46.0574 -9.0612097 145.759
-45.984001 -9.4723997 145.82401
-46.686501 -8.94491 145.48599
-46.354301 -8.9512796 145.661
-46.320801 -8.8837996 145.634
-46.375801 -8.94032 145.72099
-46.105499 -9.1304302 145.856
-46.0331 -9.4728804 144.666
-46.723701 -9.4316597 144.625
-45.7043 -9.8200502 145.21001
-47.0998 -9.7499504 144.97099
-47.0028 -9.40625 145.545
-46.983002 -9.2770004 145.442
-47.019699 -10.0047 145.26401
-46.958401 -9.55369 145.653
-46.881401 -9.2669497 145.825
-46.8009 -9.0063601 145.65199
-46.935101 -9.17414 145.215
-46.967701 -9.5139999 144.74001
-46.621399 -9.3201704 146.03
-46.464401 -9.0621595 145.925
-45.832401 -10.1248 145.461
-46.1833 -10.3628 145.623
-46.547798 -10.3224 145.564
-46.848099 -10.2356 145.48599
-46.064499 -9.6589499 145.896
-46.208199 -9.3027096 146.02499
-46.806702 -9.77561 145.80299
-46.535801 -9.8626299 145.89799
-46.422501 -9.5368299 146.07001
-46.3228 -9.8534403 145.951
17.2099 28.408501 172.332
18.4727 28.009001 171.43201
17.698299 28.4645 170.832
16.759199 28.705999 171.53999
20.295 15.5365 164.64799
20.6959 16.5515 165.748
20.0564 15.7371 166.341
18.747 13.8745 167.51199
18.557501 13.7189 168.229
18.425301 12.7447 168.092
18.381399 12.3536 167.58
19.232599 9.2259598 175.302
19.2159 9.2242098 175.60201
19.275999 9.06812 175.002
24.277599 21.632601 169.776
23.497 22.185101 169.35899
22.9133 23.3951 170.071
23.608601 22.825399 170.349
19.003201 11.4574 171.62601
18.907 11.5268 171.293
18.852501 11.7464 171.15199
19.0362 11.6776 171.399
27.780701 17.3792 170.338
26.6413 17.5287 169.16901
27.0313 18.117701 169.856
22.974501 21.594601 167.45399
23.5665 20.164 167.845
22.985901 20.7894 167.272
23.4291 21.5534 168.56799
23.927601 20.5945 168.47701
22.84 23.0949 169.06799
22.2297 24.194799 168.84
21.9671 24.7974 169.425
22.322599 24.130899 169.802
20.9167 26.2197 170.42799
21.459299 25.3032 170.567
21.4727 25.5294 170.00301
20.185699 26.335199 171.73199
19.8859 27.000999 171.21201
19.495899 27.1838 171.80299
18.247101 27.2222 173.289
16.6724 27.677401 173.976
16.9902 27.3223 174.439
18.8064 26.8398 173.74001
17.529499 27.115 175.459
18.4762 27.193199 175.26601
19.671801 26.635799 173.78799
26.2768 21.847601 172.123
27.187099 21.5299 173.179
26.6777 21.022699 171.694
25.7348 22.8414 172.868
29.3258 18.2603 176.248
29.5758 16.379499 177.01401
29.500601 17.478901 176.032
29.3132 18.239599 176.601
29.3272 17.329399 177.26601
26.506599 15.5332 182.151
25.2764 17.1297 182.808
25.1535 16.251801 182.838
26.1397 14.9036 182.409
18.1989 20.5359 182.98399
19.2134 19.575399 183.27901
19.2155 20.323799 183.19501
18.1551 18.077299 183.242
17.0557 18.778299 182.89301
16.7854 17.9741 182.77299
18.0762 17.798401 183.067
18.254 18.406799 183.228
17.9074 18.730499 183.06799
20.057899 15.4385 182.823
18.9233 16.736099 182.85201
19.0928 16.240801 182.813
16.828899 17.244801 182.616
16.8416 16.4653 182.54601
17.8598 16.5187 182.69299
17.642 17.055599 182.681
16.8025 15.8478 182.65199
17.846399 15.6006 182.815
17.7899 15.9831 182.76601
18.804399 10.5364 177.412
18.641001 9.7073603 177.099
18.8759 9.7709904 176.702
19.030199 10.3508 176.827
23.9604 8.8275499 181.05499
23.6271 8.6413097 180.875
21.8529 8.5626802 180.36301
21.3627 8.52812 179.91701
19.000601 10.5384 172.214
18.8995 10.2194 172.72
18.9582 10.0116 172.77499
19.6688 9.5368605 172.89101
19.3943 9.8005199 173.17799
19.181499 9.9357004 172.80099
19.8437 9.2690496 172.983
19.8013 9.1919603 173.23599
19.8729 8.9484701 173.98599
19.4636 9.5390997 173.405
19.8547 8.93501 173.48801
20.007099 8.7589703 173.90601
20.396099 8.3721399 174.826
19.1959 9.9436998 176.297
19.098 9.51054 176.149
19.200399 9.2838602 175.72301
21.1971 24.725201 167.271
20.227301 25.495701 166.362
21.059999 25.161501 167.595
21.5723 23.912399 166.711
21.987499 24.0273 167.98199
22.262899 23.2712 167.47501
21.841 23.4062 166.298
21.3484 23.6306 165.444
22.8491 22.427299 168.054
22.5147 23.4209 168.552
22.417801 22.670401 166.995
21.795099 24.616199 168.31799
21.035999 25.550301 168.017
21.7183 24.950399 168.57899
21.623501 25.3538 168.97701
19.9118 26.288401 167.21899
20.872801 25.9021 168.30099
21.258499 25.929701 169.43201
20.5711 26.479099 168.77699
19.2537 27.2554 167.951
20.275101 26.9 169.10899
19.437799 9.1271801 172.545
19.509199 8.7090702 173.105
19.571501 8.3409996 172.8
19.6292 8.8136101 172.205
19.247101 7.0650802 172.63699
19.398701 8.1000204 173.435
19.6525 8.1865902 171.51401
19.5502 9.3699398 171.838
19.4527 9.6804104 170.778
19.2962 10.6036 171.32401
19.3923 10.1469 171.508
19.1558 10.4009 171.955
19.3029 9.7127504 172.16499
18.753901 13.5232 169.53799
18.428301 13.5773 168.842
18.757401 13.9486 169.16299
18.803801 13.0283 169.97301
19.2117 13.2623 169.763
19.159599 12.8798 170.211
18.823799 12.4374 170.513
18.728001 11.6837 169.659
18.792999 14.5955 168.23199
19.003401 14.7893 168.508
18.8312 14.3037 168.85201
18.564199 13.983 168.48199
19.3524 14.165 169.071
19.2644 13.6799 169.383
22.4702 22.126801 166.661
22.077499 22.434299 165.79401
22.0641 21.5973 165.589
21.8493 21.8298 164.586
22.4203 21.3531 166.48801
22.311701 20.468201 166.314
22.1171 20.434299 165.51601
22.070801 19.4869 165.571
22.006001 19.836599 164.7
22.1721 19.408701 166.30901
21.8237 18.4825 166.519
21.7486 18.3913 165.873
21.5219 18.0485 165.209
21.3908 17.712 166.17101
21.425301 17.6998 166.834
20.984301 16.9244 167.26401
20.807501 16.8533 166.647
20.242201 16.2082 167.13901
19.0089 10.6035 170.481
18.7868 11.008 170.61099
19.100201 12.3521 170.77
19.0874 10.8934 171.77699
19.151699 11.0813 171.205
20.5362 16.285801 167.694
20.092699 15.7854 168.106
19.635201 15.7472 167.70599
19.2344 15.3449 168.14799
18.942301 15.0748 167.85201
19.408899 15.4101 167.188
18.6686 14.0646 168.04201
18.804199 14.7274 167.507
19.715 15.2813 168.457
19.49 14.6877 168.76401
17.249001 27.111099 174.94
16.809799 13.904 181.74699
17.8489 13.7921 181.94
17.923401 14.3659 182.35699
16.8438 14.626 182.274
18.2778 14.9241 182.694
18.792801 13.9748 182.321
19.0916 14.4781 182.63901
17.3372 15.2213 182.633
18.688601 15.2563 182.86
16.4056 15.3118 182.465
15.9837 14.6719 182.106
18.995399 15.5919 182.82899
19.3964 14.869 182.78799
19.7012 15.1229 182.763
18.9758 15.9008 182.819
20.650499 14.4726 182.634
19.9205 15.2961 182.77699
20.4375 14.3511 182.595
19.8344 13.8414 182.46201
20.128099 14.1684 182.608
20.925501 13.222 182.30701
21.1845 13.3868 182.341
20.375 12.6425 181.854
20.6527 12.9665 182.146
19.565901 13.4078 182.164
18.6518 13.507 181.961
19.322901 13.0443 181.82001
21.368 13.5 182.414
21.4849 13.6205 182.511
20.762899 14.5902 182.724
20.9697 14.7714 182.94099
20.2355 15.6384 183.048
19.579 16.868999 183.461
19.486401 16.4846 183.02699
20.4485 15.9234 183.451
19.666201 17.1394 183.63699
17.5686 17.762899 182.858
21.7192 13.7765 182.722
22.0776 13.9742 183.054
21.260599 15.0039 183.291
21.570101 15.3432 183.554
20.683901 16.2738 183.701
22.7672 15.3548 167.81799
22.32 14.5937 168.23599
22.0452 16.1693 167.961
22.458401 16.9744 167.565
23.172199 16.2614 167.427
23.5082 17.0718 167.23801
21.567101 13.4383 168.85201
21.952499 13.9966 168.578
21.180901 14.9916 168.79601
21.635799 15.46 168.38699
17.6548 11.9691 179.952
17.2265 11.7194 179.748
17.7952 11.4576 179.42101
18.247499 11.6918 179.58501
18.152399 12.2309 180.339
17.625601 12.532 180.606
17.080299 12.2401 180.23399
16.493299 12.8697 180.76601
15.9983 12.6723 180.61099
16.625 12.0151 180.076
16.3251 11.8684 179.976
16.965 11.541 179.632
18.8449 10.9216 178.323
19.1989 11.0681 178.537
18.795601 11.395 179.106
18.3664 11.1528 178.972
19.288601 11.4922 179.463
18.732599 11.8996 179.967
17.624001 11.2569 179.286
18.277599 10.9841 178.873
16.856701 11.451 179.61
17.500401 11.1491 179.26601
18.497801 10.6153 178.17999
18.6043 10.7606 178.21201
18.1723 10.8515 178.84399
15.6228 12.5356 180.48
15.3668 12.4627 180.379
16.188499 11.7986 179.94099
15.4302 13.675 181.342
14.8889 13.5362 181.13699
14.7109 14.4396 181.63901
14.1037 14.3906 181.35001
14.3914 13.4427 180.925
17.2237 13.0616 181.05701
16.013 13.8567 181.539
15.3375 14.5338 181.88699
15.0839 15.2428 181.978
15.7179 15.2461 182.24899
15.6497 15.9517 182.244
15.0937 16.0373 181.98801
14.5012 15.305 181.66
16.037399 15.8126 182.42599
18.322901 12.7863 181.116
18.0315 13.2097 181.448
18.6619 13.0917 181.55901
18.7146 12.506 180.936
19.103701 12.7653 181.427
19.715 12.243 181.11301
20.061399 12.4 181.50999
19.2707 12.0838 180.597
21.131201 11.6358 181.37199
20.7722 11.5071 181.006
19.882799 11.4319 180.054
20.3776 11.4303 180.57001
20.7337 10.7409 180.078
21.1614 10.6454 180.467
19.650999 11.0461 178.933
20.225 10.8551 179.534
20.573099 8.19594 176.073
20.4664 8.42276 176.7
20.2167 8.6492901 176.313
19.9806 9.1122999 176.882
20.8197 8.0803204 177.20399
20.3228 8.8151302 177.427
19.753 9.2811604 176.509
19.551201 9.7050505 177.168
19.3318 9.8531199 176.77699
19.452999 9.3411703 176.127
19.8493 8.7972403 175.83501
19.296801 10.5297 177.239
19.5348 10.3865 177.647
19.4168 10.7559 178.076
19.121401 10.7932 177.71001
19.1341 10.518 176.966
19.248699 9.8843803 176.433
19.8972 9.4527302 177.735
19.858999 10.034 178.08
20.3592 9.0699997 178.478
20.7806 8.3764095 178.145
20.320801 9.7570801 178.782
20.811399 8.75529 179.21001
20.836201 9.5275002 179.446
20.320601 10.4389 179.202
19.8069 10.6473 178.575
21.2278 8.0296297 178.86301
19.602301 8.5797796 174.82899
20.1387 8.4307499 175.517
19.374001 8.8211699 175.27299
19.164101 8.8564196 174.80901
18.917801 10.7143 177.489
20.3314 8.2935696 175.16299
21.788601 9.4074602 180.48
21.3939 9.36269 180.06
21.311399 10.0602 180.25101
20.816299 10.1589 179.70399
22.684299 8.5130701 180.668
22.0989 8.4302502 180.494
29.755301 15.3909 176.685
29.712601 16.380301 175.67101
29.191999 15.9802 178.32201
29.496 15.188 177.98599
29.392799 14.1211 178.73801
29.5968 13.4077 178.35699
29.7101 14.4586 177.606
29.8584 13.7575 177.159
29.9324 14.6354 176.321
29.069099 14.9476 179.101
28.919701 13.9316 179.64999
29.2293 13.0248 179.297
28.6147 12.7694 180.103
23.259701 8.5988998 180.784
29.005199 18.191099 177.45599
29.0123 19.0278 176.746
28.5373 19.2712 177.621
28.3619 18.281799 178.782
28.823799 16.991899 178.59599
28.6336 15.9429 179.44299
29.022499 19.370199 175.89
29.0123 19.3507 176.243
28.649599 20.2362 176.118
28.620399 19.942801 176.731
28.7715 19.7248 174.86099
28.6996 20.1621 175.494
29.055401 19.0987 175.34
29.263901 18.320101 175.06799
28.2157 17.4596 179.62601
28.089701 16.611799 180.186
28.5411 15.1691 179.95799
28.316 14.1479 180.39301
27.9631 13.0527 180.74001
27.891899 15.7379 180.621
27.615999 14.764 180.993
27.740601 12.7308 181.062
27.5427 11.8035 181.437
27.6835 12.4 181.377
27.003201 13.2006 181.939
26.6269 12.6329 182.049
27.1926 11.2406 181.562
26.728399 10.7211 181.67101
27.3853 14.0266 181.358
27.254499 13.6519 181.70599
26.220501 12.1384 182.146
25.787399 11.7135 182.229
26.160601 10.2563 181.761
25.524099 9.9622202 181.756
24.757601 9.7807598 181.661
24.2122 9.8163204 181.614
25.252899 11.3086 182.217
24.603399 10.9369 182.106
23.2652 9.45576 181.162
23.5585 9.6693201 181.338
22.923401 10.3723 181.457
22.745399 10.3136 181.38499
22.995701 9.4036598 181.08701
22.572701 9.3179302 181
23.9695 10.6576 181.909
23.3389 10.4836 181.63
22.5387 10.2275 181.28799
22.2805 10.0814 181.16901
22.2861 9.2600298 180.858
22.093201 9.3750601 180.76199
22.0411 10.0239 180.955
21.7295 10.0181 180.66701
27.874001 20.557699 177.76801
27.9828 21.125999 176.77901
27.7071 19.9261 178.881
26.804501 22.302799 177.95599
26.682501 21.692301 179.151
27.5688 19.193199 179.78101
26.942699 22.6035 176.869
25.7062 24.056999 176.86501
25.5284 23.839701 178.162
23.728399 25.308599 178.27
23.4519 24.818001 179.728
25.300501 23.344101 179.51801
25.1761 22.7904 180.50301
26.5748 21.034 180.105
27.2885 22.5163 175.741
28.0903 21.359699 175.944
27.5511 22.0357 174.73599
26.3118 23.2528 174.451
25.930401 23.9307 175.657
24.3016 25.2416 175.46201
24.048599 25.4289 176.76801
28.2372 21.0916 175.12601
26.504999 20.280899 180.757
27.438101 18.3437 180.41901
27.246 17.4816 180.937
26.385599 19.488501 181.27499
26.204 18.6765 181.713
27.0215 16.7311 181.33099
26.775299 16.0354 181.731
25.9279 18.0305 182.101
25.6292 17.410299 182.513
24.716801 15.4026 182.978
25.6887 14.1989 182.545
25.331301 13.6398 182.68201
24.4002 14.8261 183.123
24.1901 14.4056 183.25301
25.045099 13.1931 182.789
24.617701 12.6804 182.755
23.824699 13.8664 183.21201
23.292 13.2331 183.002
24.043501 12.1232 182.586
23.4555 11.7222 182.338
22.8246 12.8237 182.702
22.4025 12.6166 182.339
22.908199 11.5131 182.008
22.6322 11.4017 181.804
22.1497 12.4684 182.12199
22.0443 12.3598 182.035
22.521 11.3227 181.72701
22.3276 11.1528 181.60899
21.867201 12.1812 181.925
21.7085 12.0037 181.87801
22.121401 10.9134 181.446
21.871799 10.7644 181.203
28.401699 20.320299 174.327
28.949699 18.9608 174.259
28.5802 19.4063 173.61099
27.874901 20.9237 173.767
23.313601 24.3109 180.742
23.311701 23.768 181.319
25.1469 22.161301 181.10899
25.1061 21.481899 181.617
23.3318 23.158899 181.83099
23.389 22.435801 182.32201
25.0098 20.764601 182.062
24.885 19.910101 182.478
23.4263 21.5595 182.746
23.405399 20.5418 183.091
24.6982 19.058399 182.84
24.4172 18.647699 183.119
24.199499 17.139 183.25101
24.2407 17.971201 183.261
23.0772 17.950701 183.466
22.826799 17.119801 183.48199
23.8456 16.2293 183.31599
23.5429 15.6879 183.423
23.3132 19.6106 183.323
23.2202 18.7799 183.425
22.556299 16.510099 183.562
22.292101 16.1782 183.71201
23.322399 15.321 183.55
22.938101 14.8444 183.52699
21.9137 15.7642 183.73
22.443701 14.3082 183.334
21.4517 11.8044 181.666
21.547701 10.6902 180.886
22.2486 26.3659 175.278
24.962601 24.3377 174.16
22.9846 25.5886 173.959
21.873301 26.659599 176.576
20.258301 26.987 175.121
19.8748 27.253201 176.47501
21.471901 26.5441 178.10899
18.1936 27.169001 177.989
19.557199 27.1031 177.987
18.257299 27.3307 176.56799
21.165899 26.315399 173.938
17.2899 27.2323 176.774
21.2463 25.966 179.722
19.273701 26.5702 179.58701
21.121599 25.4475 180.789
19.275101 26.0508 180.66
19.430901 25.5378 181.21899
21.1656 24.937201 181.34599
21.3179 24.324699 181.884
19.9517 24.830099 181.814
20.2689 24.079399 182.429
21.5495 23.588301 182.452
21.7124 22.724701 182.91701
20.4653 23.213499 182.90199
20.5308 22.239901 183.213
21.7934 21.7253 183.257
21.882601 20.624599 183.463
21.922701 19.548599 183.535
20.5851 21.178699 183.392
20.569099 20.0348 183.47501
21.874399 18.677099 183.573
21.7243 17.970699 183.584
20.7568 19.248899 183.532
20.655399 18.617701 183.55
21.487 17.429199 183.655
18.4876 19.4349 183.145
19.8307 18.575199 183.465
19.7693 22.308399 183.00301
19.5693 21.3274 183.147
18.739599 21.420601 182.95599
21.1861 17.0492 183.78999
20.192301 18.1115 183.595
19.969 17.822599 183.709
20.9538 16.6639 183.798
19.8398 17.580099 183.718
17.6409 19.6558 182.965
16.409599 16.5693 182.436
16.2861 17.2465 182.575
15.8862 16.583799 182.33701
17.0875 19.718599 182.92
17.6119 20.584499 182.95
18.2721 21.4107 182.922
19.2129 22.2946 182.86301
18.75 22.313499 182.798
18.2188 10.1085 178.259
18.5368 9.9231997 177.545
19.68 12.3353 170
19.4911 11.7951 170.46001
19.3918 12.2828 170.36
19.507601 12.7542 169.89301
19.8302 12.9074 169.64101
19.926201 12.5797 169.757
19.731001 12.0244 170.12
20.020901 10.9712 170.12601
19.759701 10.4425 170.61099
19.610901 11.1202 170.446
19.413 10.6002 171.052
19.2787 11.3817 170.99899
20.781799 12.2167 169.362
20.367001 11.5813 169.687
20.1817 13.1708 169.47099
21.1912 12.8414 169.07401
19.617701 13.2989 169.52299
19.714899 13.8575 169.265
19.9585 13.4859 169.39999
20.222 14.0922 169.192
20.508301 13.7932 169.235
20.837099 14.4103 169.06
21.5305 16.5886 167.942
21.119801 15.8638 168.41901
20.537901 14.6963 169.032
20.8521 15.3065 168.77
20.4986 15.591 168.483
20.839199 16.1373 168.104
19.8519 14.394 169.041
20.169701 15.0102 168.83501
23.8633 17.6991 167.252
22.8624 17.716299 167.339
23.275801 18.352301 167.311
24.350201 18.0968 167.407
25.036501 16.887699 167.35899
24.6068 16.667299 167.157
24.933399 18.2402 167.72501
23.7078 18.924801 167.489
24.093901 19.457701 167.87601
22.7362 18.93 167.209
23.144501 19.613501 167.375
22.7227 20.071501 166.963
24.511499 19.7731 168.383
21.910101 17.404699 167.55099
22.312901 18.1803 167.29401
22.0123 18.396 167.008
22.409901 19.2349 166.864
19.354799 8.8692999 174.17101
19.2297 8.9499197 174.48
19.1859 8.9618397 173.905
19.229799 8.7331104 174.298
21.221001 16.8085 167.685
21.6059 17.5993 167.297
19.232901 11.833 170.92
17.069 28.081301 173.101
18.308201 27.7061 172.60899
18.3032 28.0033 172.035
19.159201 24.2568 182.19299
19.031 24.254601 182.146
19.024401 23.333099 182.575
19.393999 23.2845 182.651
19.6747 24.1604 182.30499
19.174801 25.012699 181.65601
18.895399 25.056499 181.55099
19.8144 23.2763 182.74699
17.743099 9.4172802 178.455
17.8486 10.3412 178.85899
17.0854 9.6631298 178.98599
18.583099 8.8807898 176.66901
18.355499 8.8358402 177.17
18.1257 9.13657 177.76601
18.2973 8.8851404 177.35201
17.9277 8.1638603 177.46001
18.028099 8.0992002 177.282
19.004101 8.6309795 175.567
18.8615 8.7767696 176.06
18.0296 8.0420103 176.978
18.3141 7.8931398 176.31
16.547001 8.64042 178.505
17.503901 8.3358402 177.815
19.116199 8.5888205 175.147
18.5474 7.8137298 175.737
18.8596 7.7369399 174.93401
19.2661 8.5854397 174.58299
19.443899 8.5410604 173.79601
19.0989 7.8814602 174.32899
19.371799 8.93081 173.465
19.0413 11.4116 171.55701
19.018 11.176 171.729
18.982401 10.8608 171.957
19.041901 10.5435 172.05299
18.9688 10.4225 172.39
19.230101 10.592 171.45599
18.844101 25.678499 181.065
17.2395 6.6537399 176.02699
18.0271 6.0513501 174.17999
16.205601 7.2266102 177.133
19.766001 8.5654697 174.405
19.2729 8.8497 173.86099
19.7847 8.6802101 174.05
19.3057 9.2813396 172.91
19.103701 9.1979198 173.384
19.032801 9.5456104 172.993
19.3452 9.0600595 173.534
19.1943 9.7789402 172.52
19.367901 9.4003696 173.422
19.497299 9.46595 172.371
19.0881 9.9136105 172.354
19.171301 10.1324 171.778
19.497 9.9489202 171.207
19.461901 9.5331202 171.888
29.898001 15.4071 173.90199
30.054199 14.7091 175.028
29.876101 15.4059 175.34599
29.5231 17.218 174.59599
29.195801 17.8762 173.7
29.727699 16.2458 174.207
28.1131 19.838699 172.94901
27.544001 20.256399 172.274
24.1026 24.125099 172.642
22.6033 24.994101 172.422
24.527201 23.236099 171.782
21.593901 25.3634 172.196
23.6474 23.7157 171.399
22.881599 24.008699 170.992
20.8643 25.6749 171.957
22.1185 24.5284 170.82899
18.878599 27.9263 170.024
19.6136 27.4692 170.72701
18.3522 28.1392 168.78
19.7693 27.469 169.58299
20.369499 26.935499 170.194
20.821301 26.486 169.836
24.358101 22.5786 170.80701
24.934 21.6059 170.408
25.1663 22.177799 171.242
25.871901 21.277 170.88
24.1064 21.173201 169.175
24.9797 19.9874 168.92999
25.477501 20.1008 169.54201
25.871 18.653999 168.97701
25.3305 18.589199 168.211
27.750601 19.188299 171.61
28.272301 18.791599 172.27901
28.3946 17.7932 171.64799
27.819799 18.2286 170.964
27.299801 19.420601 171.03101
27.066 20.500299 171.7
28.7542 18.3549 172.976
29.4018 16.8923 173.229
28.9205 17.3521 172.401
29.5839 16.0198 172.845
26.3041 20.497999 170.60201
26.6332 20.065001 170.642
25.9205 20.2952 170.05701
27.182899 18.821199 170.444
26.4818 19.557301 170.116
26.218599 19.049801 169.61501
29.090401 16.3985 171.883
28.491899 16.854 171.048
28.542601 15.6336 170.61099
28.291 16.218901 169.722
27.583599 16.235701 168.963
26.921 15.9473 168.19901
26.030701 17.3472 168.314
25.475201 17.1 167.673
18.7292 14.9191 167.073
15.1668 17.1008 182.45599
15.1425 16.530001 182.287
13.0528 16.1436 181.51401
14.3329 16.0159 181.856
21.3582 17.721901 163.718
21.662701 19.504601 163.10001
18.4758 11.6616 166.536
18.6383 14.1975 166.43401
18.478201 13.5415 165.01601
18.280001 26.709299 179.53
33.314499 3.96243 165.44299
30.871799 3.5124199 166.52499
32.2281 4.8484001 165.463
33.107601 1.07217 165.96899
32.308601 1.86356 166.192
34.275501 3.21311 165.455
34.718399 2.44611 165.61301
31.76 -0.66053301 176.461
31.614901 -0.68851799 176.455
32.2617 -0.85146201 176.215
32.400902 -0.822613 176.25301
35.190201 1.44885 176.506
35.008701 0.080172002 176.76401
35.877899 -0.44942099 176.702
36.305698 0.97634399 176.358
34.677399 -0.68000102 176.459
35.081299 -0.75540698 176.487
33.844799 -1.2261699 175.198
34.149101 -1.01127 175.724
33.833801 -1.13485 175.26601
33.453602 -1.2223901 175.19901
34.889198 4.93327 165.536
35.926899 6.16256 166.519
36.422798 5.6957898 166.739
35.932301 4.5303998 166.035
36.226398 3.3460801 165.798
36.543999 3.59621 166.08701
37.658798 3.1873701 166.64301
37.3965 2.9317701 166.418
36.674999 2.52456 165.90401
36.9188 4.10256 166.468
37.1959 4.90451 166.968
38.0914 4.0576901 167.382
37.851398 3.5985899 166.974
35.456501 3.9096899 165.59801
39.124802 3.24278 167.873
39.5658 3.4737101 168.99001
38.570301 4.6054502 172.989
38.5284 4.0580101 173.714
39.116798 3.33619 173.34599
39.228001 3.8302901 172.619
37.821301 5.87532 170.909
38.9515 4.40414 170.965
37.549099 5.7049298 168.91701
38.5994 4.5036998 168.93401
36.463402 6.9873099 169.026
35.6572 8.1345396 169.02499
36.690201 7.4723802 170.631
36.1572 8.3375998 170.86501
37.283798 6.3202701 172.67999
36.777699 7.07375 173.01601
36.873699 6.6658502 173.29201
37.0592 5.8452001 174.17799
37.6404 5.1499701 174.01601
36.944302 5.7003498 174.548
36.5807 4.37111 175.45
37.339802 3.89463 174.96001
37.401199 1.89468 175.28
37.056198 0.72225302 176.162
38.146198 1.35338 174.942
38.117599 1.74542 174.382
37.419102 2.4109399 174.746
40.255901 2.9264801 170.993
40.136002 2.58799 172.174
39.6506 2.6484799 172.97701
39.446602 2.31568 173.192
38.802502 2.7688301 173.737
38.108501 3.3148301 174.285
38.214699 2.0425301 174.117
35.960999 3.2592299 175.61501
36.783199 2.83549 175.214
36.68 2.28461 175.631
35.785 2.6477001 175.94
36.459499 -0.60332799 176.65199
35.663799 -0.85085201 176.601
34.7314 0.238461 176.77
33.831299 2.0327301 176.707
33.652901 2.1656401 176.737
33.9179 0.58473998 176.66299
34.071098 0.63510299 176.692
34.153702 -0.90024602 175.92101
34.270802 -0.86081398 176.006
34.271198 -0.58092201 176.409
34.089802 -0.47729 176.38499
33.930901 -0.64785802 176.44701
33.074402 -0.93818402 175.948
33.665501 -1.03259 175.519
33.4035 1.93393 176.94901
32.8092 0.434908 177.007
33.477402 -0.214334 176.717
35.382301 -0.80598903 176.561
34.4058 -1.07663 175.823
34.4869 -1.1322 175.84801
32.778099 -1.36154 174.688
33.206001 -1.3935699 174.599
32.5681 -1.5177 173.306
32.0625 -1.48885 173.395
32.084599 -1.5645 171.741
31.4993 -1.55325 171.821
31.747 -1.4819 170.535
31.6453 -1.01072 176.16299
30.988199 -0.85696799 176.44299
30.559099 -1.18876 175.08299
29.928499 -1.0511 175.332
29.909201 -1.3112 173.78999
29.103001 -1.1641099 173.931
29.2096 -1.37045 172.086
28.6063 -1.25837 172.16499
29.7241 -1.30065 170.588
28.884501 -1.1469001 170.632
30.0023 -0.89849198 169.28
30.7488 -1.07221 169.278
30.731001 -0.30746099 168.58501
31.5042 -0.86473697 168.467
31.121599 0.411594 167.327
31.9624 -0.33378601 167.142
33.091499 -1.18371 175.433
32.996601 -0.96966201 175.894
32.467602 -1.11298 175.745
32.359798 -1.3341 174.791
31.688499 -1.2821 174.97701
31.551901 -1.4709899 173.5
30.7421 -1.40738 173.64101
30.8276 -1.54588 171.892
30.214701 -1.49828 171.97
31.0189 -1.4495699 170.536
30.368601 -1.39191 170.577
31.734501 -1.2924401 169.328
31.271299 -1.18906 169.315
32.498001 -1.12694 168.366
32.055 -0.99903101 168.42
33.240299 -0.99241799 167.10699
32.676498 -0.86749601 167.091
34.390099 -0.60609901 165.952
33.777 0.217043 165.89301
37.359402 1.97364 166.07001
35.907101 0.32837799 165.71899
35.4454 1.10445 165.73399
34.747398 -0.91028398 165.979
33.518002 -1.10413 167.187
32.930199 -1.32907 168.368
32.7724 -1.22948 168.36099
32.375801 -1.44789 169.314
32.1422 -1.37324 169.33
34.858299 1.88211 165.673
29.915001 1.31148 176.88
30.0532 1.40625 176.879
29.5576 0.84776503 177.02
28.6285 -0.111679 177.064
27.5394 -0.59619701 175.90601
26.705099 -0.69491303 174.35201
26.165001 -0.79753 172.55901
26.6019 -0.71046603 170.82201
31.209999 3.0583701 177.397
31.5625 4.0451002 177.286
33.5513 3.4758101 176.37
33.569801 4.23984 176.312
35.086102 7.45471 175.936
36.634701 6.7561998 173.922
36.356602 7.9832702 173.10699
34.943699 9.0595903 174.77299
35.1796 7.12497 166.412
35.149799 9.1978703 168.659
34.857601 10.0747 173.435
35.5797 9.37673 171.021
34.156101 11.1985 171.371
33.249599 10.9895 168.86501
30.5746 6.1804299 165.494
32.016499 7.5792699 165.481
33.713402 6.1140399 165.36301
33.2183 8.9204102 166.589
29.195601 3.22609 177.20399
29.011 3.2428501 177.213
33.380798 3.61445 176.425
30.2903 5.10674 177.50301
30.0354 4.4190698 177.567
27.9387 2.2655599 177.467
29.275 5.0417099 166.646
27.6901 5.2214098 168.21001
26.821301 1.47565 177.39101
25.7208 0.93325299 176.34801
24.7076 0.55984098 174.75101
24.019699 0.34013501 172.851
24.4147 0.85457999 171.15601
27.0783 3.2807801 169.619
27.3962 3.84021 168.916
29.231701 2.03316 168.19
28.946301 1.44961 168.989
27.7181 4.2830501 168.435
30.301701 2.77461 167.382
25.6744 1.99782 169.83299
27.8484 0.32226399 169.452
32.012699 5.3754301 177.022
30.587 5.7058201 177.29401
32.787399 10.5548 175.927
32.8451 8.9489698 176.894
32.571899 6.7416 177.04401
34.482201 5.67417 176.478
27.013599 5.6969099 177.68401
24.617599 5.88304 177.647
25.426001 4.45962 177.896
23.374701 5.7994599 177.38499
24.695299 3.56236 177.601
23.732599 3.08757 176.617
22.791901 5.9827099 177.082
22.2735 5.8038602 176.556
28.558901 6.86272 177.729
29.7631 8.0447197 178.16499
28.92 7.8727002 178.13
28.2561 9.7413502 180.13
27.977699 11.1843 180.76601
27.8088 10.5672 180.821
20.9613 8.0495796 171.806
20.0506 8.9414597 172.37199
20.095501 8.9501495 171.836
20.944901 8.3333397 171.556
21.130199 7.4338999 175.60899
20.5308 8.1765203 174.74899
20.695499 7.4181499 174.84801
24.057699 13.7366 167.118
23.5735 12.9743 167.53999
23.3048 14.499 167.69099
23.7966 15.504 167.242
23.164 12.2979 167.97
22.834499 11.7015 168.392
22.4387 13.1011 168.424
22.8393 13.7379 168.09
21.6478 7.2026901 176.12601
21.2444 7.6250701 176.243
20.853901 7.9851799 175.76801
20.902201 7.9166498 176.487
21.816401 7.2705998 176.716
21.316601 7.55551 176.968
22.083599 7.0462799 176.53101
22.449301 6.90171 177.21201
23.403799 6.6698599 177.369
22.587299 6.908 177.966
21.930201 7.1393299 177.50101
23.1873 6.8418002 178.377
22.480499 7.1698599 178.989
21.8288 7.3124599 178.42101
21.7451 7.80797 179.56
23.1113 7.1181998 179.32001
22.3174 7.7155299 179.993
23.8043 6.7378502 177.43201
24.0581 6.81458 178.006
23.58 6.8169799 178.729
24.330099 7.1985798 179.55499
23.719299 7.86936 180.27499
23.0994 7.81177 180.13901
23.719299 7.1647902 179.422
24.1017 6.8378401 178.808
25.0623 6.27846 177.60699
24.681499 6.8123798 178.787
29.6224 11.2492 177.95599
29.569401 11.7787 178.478
29.3962 10.7038 178.79601
29.521099 10.1959 178.30499
29.749901 10.8042 177.681
29.902901 11.7108 177.026
29.7798 12.1767 177.315
28.645399 9.0459099 179.41701
28.974001 10.0234 179.351
28.6241 10.6925 179.964
29.236 11.2814 179.25301
29.164499 9.4762602 178.871
29.126499 9.0949802 178.44901
28.898899 8.5159798 178.83501
29.7861 8.7998304 178.10699
29.579201 10.0524 178.05
27.430599 9.9638205 180.922
27.874701 9.0916595 180.205
27.337099 8.5151701 180.313
27.733601 7.79914 179.56599
28.257 8.3504105 179.45599
28.519699 7.7924399 178.78101
28.061501 7.2421098 178.81799
26.9214 9.4171896 181.024
26.292999 8.92764 181.127
26.637699 8.0138397 180.45399
25.8195 7.7988901 180.509
26.365499 7.1950998 179.83
27.069901 7.3906898 179.746
27.5303 6.86309 178.94901
26.966299 6.4995799 179.033
28.2563 5.9720001 177.55701
25.5152 8.6862001 181.14799
24.5849 8.6970596 181.08701
24.877199 7.8688998 180.48
24.177401 7.8917499 180.39999
24.9433 7.21804 179.726
25.620501 7.2158098 179.81799
26.2936 6.4626298 179.05901
26.729799 6.0563402 177.75999
25.542801 6.4331002 178.987
21.902399 10.1526 169.354
21.542999 9.5099897 169.673
20.968599 10.5545 169.702
21.368799 11.2634 169.35899
21.7465 11.9139 169.034
22.084299 12.488 168.754
22.521099 11.1776 168.743
22.2285 10.708 169.024
30.774799 9.6958399 177.731
30.7262 11.3971 176.69299
30.068001 12.3719 176.435
21.276199 9.0196896 170.034
21.1077 8.6838598 170.45399
20.227699 9.5117102 170.59399
20.572001 9.9620504 170.116
20.9904 8.4592304 170.94501
20.082199 9.1785297 171.155
20.409599 7.43467 172.744
20.306299 7.1724701 173.134
20.149 8.0801296 173.284
20.129101 8.3251495 172.98801
20.4021 7.1670299 173.838
20.2861 7.9073701 173.73801
20.1884 8.3908596 172.70599
20.2747 8.6760397 172.437
20.6971 7.9616499 172.056
20.538401 7.6982398 172.381
30.200199 13.4341 175.519
30.073099 13.9483 175.938
29.9408 13.0915 176.63901
30.698601 13.2554 174.80299
30.1572 14.0772 174.76801
29.893499 14.8406 173.506
30.393101 14.4438 172.56799
29.596201 15.2121 172.578
25.8358 15.7257 167.145
26.847601 12.948 166.621
25.336901 15.6324 166.90199
24.8815 15.2252 166.825
25.567301 12.2224 166.655
21.4743 5.4002299 175.289
20.9032 5.0220499 173.23399
21.1436 5.6694999 172.17799
21.5404 6.6195302 171.258
22.1367 7.3344898 171.19299
22.370899 7.2921901 170.356
23.280199 9.0086098 168.95599
22.621201 7.9928799 169.597
23.8174 9.7127304 168.526
24.531799 10.7755 167.33
21.3451 7.6358399 177.81599
29.4356 12.3649 178.924
28.2195 11.6102 180.448
24.1959 16.2481 167.07201
30.8916 7.4318299 177.875
27.827499 14.0245 167.496
28.732401 14.3786 168.491
28.938101 12.6153 167.127
30.573799 13.5222 169.373
30.954599 10.8431 166.84399
30.068001 9.2519903 165.65401
28.863899 7.5250902 165.584
28.143299 11.0873 166.16901
27.9429 6.1818299 166.65401
23.679701 3.69678 170.30499
22.7414 2.73576 171.631
26.1534 8.04846 166.938
25.731501 7.2256498 168.289
27.2869 9.7947702 165.974
29.715401 12.7273 177.88699
28.98 11.9431 179.703
22.8384 2.64254 175.073
22.395201 2.3482699 173.084
24.809999 5.4837899 170.02299
24.818399 5.71875 168.935
25.3873 6.5496998 168.646
32.358101 12.2337 174.14
26.363501 15.9341 167.561
30.0527 14.6322 170.332
29.0005 15.4583 171.373
31.7871 13.5045 171.94299
39.514702 1.84097 167.244
39.110298 2.4436901 167.323
39.8633 2.47048 167.875
38.909199 0.397387 174.978
38.2061 -0.029154001 175.91299
38.507099 -0.596995 175.899
38.886902 -0.011684 175.173
32.964298 -1.82042 174.91901
32.266499 -1.9216 173.584
31.600401 -2.2277999 173.942
32.816601 -1.90105 175.092
37.336899 -0.71755999 176.62399
37.030701 -0.97726798 176.80499
38.144001 -0.87325102 176.063
