# .PCD v.7 - Point Cloud Data file format
VERSION .7
FIELDS x y z
SIZE 4 4 4
TYPE F F F
COUNT 1 1 1
WIDTH 1759
HEIGHT 1
VIEWPOINT 0 0 0 1 0 0 0
POINTS 1759
DATA ascii
2.8651199 105.683 112.379
2.98948 107.344 111.566
0.73639703 105.793 115.57
1.52156 105.558 114.984
1.75565 107.822 114.16
1.22164 107.958 114.573
0.99730599 107.923 114.652
0.73395801 108.201 114.841
0.49255699 106.618 109.617
1.47767 106.354 110.137
2.2481999 105.744 111.21
2.8041601 104.51 112.668
2.5676401 103.827 113.951
1.53863 103.767 115.063
0.76809603 103.763 115.655
0.25603199 103.807 115.735
0.62423003 109.581 105.896
0.57058603 108.996 106.981
0.699821 110.095 104.644
0.24383999 106.011 115.663
0.24383999 108.461 114.96
0.3048 115.944 108.738
0.50718701 107.259 108.67
0.53400999 108.314 107.895
1.12166 103.766 115.431
1.15336 105.682 115.313
-3.9721501 110.609 89.449097
-3.6624801 110.369 89.428001
-3.8209701 111.467 95.834297
-3.7088101 111.214 95.286697
-3.7234399 110.838 92.669601
-3.9916601 111.074 92.725304
-3.5039799 111.921 98.854797
-3.65516 112.029 98.923897
-3.3527999 111.953 101.106
-3.2601399 111.908 101.045
-4.0599399 111.459 92.7127
-4.2745199 111.696 92.700203
-4.04774 111.968 95.874001
-3.87462 111.785 95.851601
-4.3403502 111.253 89.383797
-4.0623698 110.999 89.418198
-4.3013401 112.865 99.122704
-3.9014399 112.633 101.746
-3.5966401 111.96 101.21
-3.91363 112.052 98.999001
-4.97434 112.683 92.655296
-4.6939201 112.889 95.934196
-4.3379102 112.026 95.8983
-4.6329598 111.788 92.688103
-5.14259 112.212 89.271103
-4.8012099 111.373 89.351196
-2.33599 117.779 88.794998
-2.77246 117.763 88.785103
-2.2604001 118.049 92.485298
-2.15555 117.961 96.066803
-2.5798299 118.053 96.069702
-2.6944301 118.103 92.481201
-2.0190001 117.534 99.537399
-1.86538 116.799 102.643
-2.2604001 116.899 102.677
-2.4286499 117.629 99.558296
-1.69713 115.772 105.372
-2.0775199 115.871 105.418
-1.3338 115.907 105.432
-1.19725 116.264 105.513
-1.47767 116.949 102.679
-1.60691 117.688 99.556702
-1.44109 118.064 99.557701
-1.3240499 117.322 102.716
-1.5459501 118.506 96.044197
-1.72639 118.124 96.073898
-1.81905 118.232 92.481499
-1.61666 118.657 92.427597
-1.65567 118.515 88.710701
-1.88732 118.003 88.777603
-3.1357801 110.28 89.352699
-2.15555 109.893 89.334099
-4.9572701 115.41 88.954102
-5.36204 113.761 89.125
-3.1967399 117.958 88.752403
-3.9258201 117.169 88.800697
-1.22164 119.866 88.518898
-1.6386 119.31 88.589996
-0.78516501 110.024 95.5392
-0.75590402 109.638 92.475098
-3.27721 111.121 95.142799
-2.3579299 110.778 95.584602
-2.2725899 110.352 92.479698
-3.2601399 110.749 92.5485
-4.9328799 116.022 92.522499
-4.8036499 116.216 96.023697
-5.1206398 114.559 95.979103
-5.3010802 114.334 92.586899
-3.0016699 118.4 96.087799
-3.7429399 117.792 96.0728
-3.8673 117.716 92.480003
-3.12115 118.399 92.465698
-1.25334 119.829 92.273804
-1.23627 119.589 95.9552
-1.61178 119.106 95.980301
-1.65324 119.319 92.322998
-0.804672 110.355 98.584702
-0.794918 110.479 101.078
-2.41645 111.183 98.658699
-3.3527999 111.549 98.229301
-3.4600899 111.729 98.796799
-3.2211299 111.78 100.964
-2.3871901 111.301 101.213
-4.5695601 115.967 99.465302
-4.30865 115.407 102.484
-4.4915299 114.042 102.149
-4.8182802 114.432 99.304497
-3.3479199 116.749 102.717
-3.5576301 117.429 99.587196
-2.8431699 117.976 99.619003
-2.66517 117.248 102.779
-1.16312 119.138 99.550003
-1.08753 118.37 102.8
-1.40696 117.907 102.755
-1.51425 118.659 99.543701
-3.4917901 112.22 103.842
-2.2701499 111.181 103.278
-3.0650699 111.64 103.073
-3.1577301 111.685 103.134
-4.0160398 114.552 105.079
-4.1403999 113.368 104.538
-3.1162801 115.77 105.456
-2.4700999 116.211 105.568
-1.00218 117.296 105.711
-1.28991 116.842 105.619
-0.36332199 118.718 102.85
-0.38770601 119.502 99.5783
-0.71932799 109.199 89.375198
-0.75590402 110.391 103.032
-0.41209 119.957 95.973
-0.41940501 120.183 92.274803
-0.407213 120.191 88.503098
-0.334061 117.622 105.79
0 110.479 101.078
0 110.36 98.583801
0 110.037 95.536903
0 117.622 105.79
0 119.502 99.5783
0 109.654 92.472603
0 120.183 92.274803
0 110.391 103.032
0 109.209 89.373703
3.9721501 110.609 89.449097
3.6624801 110.369 89.428001
3.8209701 111.467 95.834297
3.7088101 111.214 95.286697
3.7234399 110.838 92.669601
3.9916601 111.074 92.725304
3.5039799 111.921 98.854797
3.65516 112.029 98.923897
3.3527999 111.953 101.106
3.2601399 111.908 101.045
4.0599399 111.459 92.7127
4.2745199 111.696 92.700203
4.04774 111.968 95.874001
3.87462 111.785 95.851601
4.3403502 111.253 89.383797
4.0623698 110.999 89.418198
4.3013401 112.865 99.122704
3.9014399 112.633 101.746
3.5966401 111.96 101.21
3.91363 112.052 98.999001
4.97434 112.683 92.655296
4.6939201 112.889 95.934196
4.3379102 112.026 95.8983
4.6329598 111.788 92.688103
5.14259 112.212 89.271103
4.8012099 111.373 89.351196
2.33599 117.779 88.794998
2.77246 117.763 88.785103
2.2604001 118.049 92.485298
2.15555 117.961 96.066803
2.5798299 118.053 96.069702
2.6944301 118.103 92.481201
2.0190001 117.534 99.537399
1.86538 116.799 102.643
2.2604001 116.899 102.677
2.4286499 117.629 99.558296
1.69713 115.772 105.372
2.0775199 115.871 105.418
1.3338 115.907 105.432
1.19725 116.264 105.513
1.47767 116.949 102.679
1.60691 117.688 99.556702
1.44109 118.064 99.557701
1.3240499 117.322 102.716
1.5459501 118.506 96.044197
1.72639 118.124 96.073898
1.81905 118.232 92.481499
1.61666 118.657 92.427597
1.65567 118.515 88.710701
1.88732 118.003 88.777603
3.1357801 110.28 89.352699
2.15555 109.893 89.334099
4.9572701 115.41 88.954102
5.36204 113.761 89.125
3.1967399 117.958 88.752403
3.9258201 117.169 88.800697
1.22164 119.866 88.518898
1.6386 119.31 88.589996
0.78516501 110.024 95.5392
0.75590402 109.638 92.475098
3.27721 111.121 95.142799
2.3579299 110.778 95.584602
2.2725899 110.352 92.479698
3.2601399 110.749 92.5485
4.9328799 116.022 92.522499
4.8036499 116.216 96.023697
5.1206398 114.559 95.979103
5.3010802 114.334 92.586899
3.0016699 118.4 96.087799
3.7429399 117.792 96.0728
3.8673 117.716 92.480003
3.12115 118.399 92.465698
1.25334 119.829 92.273804
1.23627 119.589 95.9552
1.61178 119.106 95.980301
1.65324 119.319 92.322998
0.804672 110.355 98.584702
0.794918 110.479 101.078
2.41645 111.183 98.658699
3.3527999 111.549 98.229301
3.4600899 111.729 98.796799
3.2211299 111.78 100.964
2.3871901 111.301 101.213
4.5695601 115.967 99.465302
4.30865 115.407 102.484
4.4915299 114.042 102.149
4.8182802 114.432 99.304497
3.3479199 116.749 102.717
3.5576301 117.429 99.587196
2.8431699 117.976 99.619003
2.66517 117.248 102.779
1.16312 119.138 99.550003
1.08753 118.37 102.8
1.40696 117.907 102.755
1.51425 118.659 99.543701
3.4917901 112.22 103.842
2.2701499 111.181 103.278
3.0650699 111.64 103.073
3.1577301 111.685 103.134
4.0160398 114.552 105.079
4.1403999 113.368 104.538
3.1162801 115.77 105.456
2.4700999 116.211 105.568
1.00218 117.296 105.711
1.28991 116.842 105.619
0.36332199 118.718 102.85
0.38770601 119.502 99.5783
0.71932799 109.199 89.375198
0.75590402 110.391 103.032
0.41209 119.957 95.973
0.41940501 120.183 92.274803
0.407213 120.191 88.503098
0.334061 117.622 105.79
0 120.191 88.503098
0 119.957 95.973
0 118.718 102.85
-3.11871 117.796 40.953201
-3.5795701 117.419 41.933601
-3.5356801 117.213 39.345402
-2.6237199 116.893 39.160801
-2.11409 117.94 38.163101
-2.37988 119.003 39.112801
-2.65786 118.338 40.026402
-1.76296 118.679 36.795898
-1.60447 119.362 35.869202
-3.0455599 109.191 51.5425
-2.6285999 109.08 51.227901
-2.4042599 109.733 47.439098
-2.75295 109.857 47.716099
-2.8261099 110.026 47.762001
-3.1942999 110.375 47.532501
-3.53812 109.789 51.126598
-3.1284699 109.434 51.455399
-2.6700499 111.082 44.960098
-2.3896301 110.827 44.876598
-1.62885 111.965 42.501598
-2.1067801 112.302 42.5653
-2.3189199 110.809 44.5299
-2.08483 110.638 44.377899
-1.44353 111.204 42.782501
-1.57521 111.633 42.577702
-3.01386 112.644 42.769001
-3.80878 112.485 44.172298
-3.1577301 111.57 44.782501
-4.4939699 111.827 46.7705
-4.9085002 111.189 50.4902
-4.2769499 110.258 50.561501
-3.8575499 110.9 47.032101
-2.9992299 117.885 51.165901
-3.47716 116.998 51.962399
-3.27233 117.628 46.479801
-2.86268 118.441 45.455799
-3.71612 117.191 46.922001
-3.91119 116.635 52.102699
-4.2476902 116.467 52.176998
-4.0745702 116.932 47.304501
-1.69225 110.319 44.418499
-1.12166 109.975 44.466702
-1.00462 110.282 43.330898
-1.23383 110.683 43.116299
-3.89169 115.788 40.495998
-4.2842698 115.147 42.917
-4.62077 113.827 43.124599
-3.4210801 114.121 40.9939
-3.25526 115.557 39.829601
-4.04531 117.209 42.967701
-4.4647102 116.451 43.263599
-4.09407 116.934 40.738201
-1.64104 119.992 35.388199
-1.6825 120.3 37.794899
-2.28722 119.794 38.2103
-0.56083202 120.532 37.866501
-0.546202 120.277 35.4058
-1.87757 109.104 50.512798
-1.1265399 108.96 50.067699
-1.1046 109.462 46.661598
-1.78247 109.65 46.930599
-4.6280799 114.514 47.022701
-4.8646102 113.968 51.419998
-5.4303198 112.563 50.920101
-5.1084499 113.175 46.7416
-4.48909 116.488 52.183201
-4.87924 115.699 51.938499
-4.7231798 116.074 47.519001
-4.35254 116.852 47.622799
-1.72639 120.247 43.0681
-1.66787 120.003 49.012501
-2.48229 119.294 49.720501
-2.48717 119.627 43.849201
-0.37307501 109.595 44.523602
-0.25115499 109.872 43.432098
-0.58765399 118.672 36.790401
-0.53400999 119.552 35.738998
-0.875386 116.567 39.389301
-0.70469701 117.634 38.5574
-0.52425599 112.371 41.839401
-0.48036501 111.469 42.631901
-0.375514 108.644 49.893902
-0.36819801 109.168 46.627201
-0.54376298 113.473 40.628799
-1.09728 115.48 39.2892
-1.50693 114.055 40.346901
-0.41209 110.773 43.009201
-0.25115499 110.287 43.245701
-0.55595499 120.012 49.041901
-0.57546198 120.297 43.1129
0 120.012 49.041901
0 115.48 39.2892
0 112.371 41.839401
0 117.634 38.5574
0 120.277 35.4058
0 120.297 43.1129
0 118.672 36.790401
0 109.872 43.432098
0 109.595 44.523602
0 113.473 40.628799
0 109.168 46.627201
0 111.469 42.631901
0 116.567 39.389301
0 119.552 35.738998
3.11871 117.796 40.953201
3.5795701 117.419 41.933601
3.5356801 117.213 39.345402
2.6237199 116.893 39.160801
2.11409 117.94 38.163101
2.37988 119.003 39.112801
2.65786 118.338 40.026402
1.76296 118.679 36.795898
1.60447 119.362 35.869202
3.0455599 109.191 51.5425
2.6285999 109.08 51.227901
2.4042599 109.733 47.439098
2.75295 109.857 47.716099
2.8261099 110.026 47.762001
3.1942999 110.375 47.532501
3.53812 109.789 51.126598
3.1284699 109.434 51.455399
2.6700499 111.082 44.960098
2.3896301 110.827 44.876598
1.62885 111.965 42.501598
2.1067801 112.302 42.5653
2.3189199 110.809 44.5299
2.08483 110.638 44.377899
1.44353 111.204 42.782501
1.57521 111.633 42.577702
3.01386 112.644 42.769001
3.80878 112.485 44.172298
3.1577301 111.57 44.782501
4.4939699 111.827 46.7705
4.9085002 111.189 50.4902
4.2769499 110.258 50.561501
3.8575499 110.9 47.032101
2.9992299 117.885 51.165901
3.47716 116.998 51.962399
3.27233 117.628 46.479801
2.86268 118.441 45.455799
3.71612 117.191 46.922001
3.91119 116.635 52.102699
4.2476902 116.467 52.176998
4.0745702 116.932 47.304501
1.69225 110.319 44.418499
1.12166 109.975 44.466702
1.00462 110.282 43.330898
1.23383 110.683 43.116299
3.89169 115.788 40.495998
4.2842698 115.147 42.917
4.62077 113.827 43.124599
3.4210801 114.121 40.9939
3.25526 115.557 39.829601
4.04531 117.209 42.967701
4.4647102 116.451 43.263599
4.09407 116.934 40.738201
1.64104 119.992 35.388199
1.6825 120.3 37.794899
2.28722 119.794 38.2103
0.56083202 120.532 37.866501
0.546202 120.277 35.4058
1.87757 109.104 50.512798
1.1265399 108.96 50.067699
1.1046 109.462 46.661598
1.78247 109.65 46.930599
4.6280799 114.514 47.022701
4.8646102 113.968 51.419998
5.4303198 112.563 50.920101
5.1084499 113.175 46.7416
4.48909 116.488 52.183201
4.87924 115.699 51.938499
4.7231798 116.074 47.519001
4.35254 116.852 47.622799
1.72639 120.247 43.0681
1.66787 120.003 49.012501
2.48229 119.294 49.720501
2.48717 119.627 43.849201
0.37307501 109.595 44.523602
0.25115499 109.872 43.432098
0.58765399 118.672 36.790401
0.53400999 119.552 35.738998
0.875386 116.567 39.389301
0.70469701 117.634 38.5574
0.52425599 112.371 41.839401
0.48036501 111.469 42.631901
0.375514 108.644 49.893902
0.36819801 109.168 46.627201
0.54376298 113.473 40.628799
1.09728 115.48 39.2892
1.50693 114.055 40.346901
0.41209 110.773 43.009201
0.25115499 110.287 43.245701
0.55595499 120.012 49.041901
0.57546198 120.297 43.1129
0 110.287 43.245701
0 110.773 43.009201
0 108.644 49.893902
0 120.532 37.866501
-22.2967 32.803501 90.554802
-21.3165 33.617199 94.0009
-22.216299 42.216099 94.992203
-23.393999 42.159599 91.364998
-23.216 49.2537 92.800499
-22.0163 49.170898 96.445099
-20.724001 55.182598 98.3013
-21.757799 55.2971 94.7995
-9.3585796 55.718102 67.579498
-5.5815001 55.855999 66.549698
-16.152 55.314701 72.857002
-13.1113 55.529202 69.405701
-21.5359 55.3965 81.089104
-18.2978 55.380199 75.026604
-22.547899 55.384399 90.890198
-22.5674 55.425098 86.382401
-17.4321 54.566799 104.932
-19.473101 54.929901 101.455
-11.458 54.6768 111.931
-14.5036 54.249199 108.785
-5.0328598 56.560501 115.961
-8.2930002 55.789398 114.367
-8.3149405 46.230701 112.29
-8.4880695 51.619801 113.171
-5.1669698 52.5369 114.868
-5.0036001 47.393902 114.099
-7.8540902 39.722599 111.628
-4.57688 41.1749 113.612
-14.9303 43.5312 106.401
-14.9059 49.551399 107.569
-11.6824 50.341 110.783
-11.5995 44.711102 109.765
-18.1661 49.2332 103.516
-18.302601 42.694099 102.15
-20.745899 42.274601 98.334099
-20.543501 49.107101 99.809502
-24.213301 42.107498 82.827599
-24.028 49.370899 84.296898
-24.0865 49.343102 88.871399
-24.2255 42.105 87.455002
-21.153099 42.112301 73.446899
-20.7922 49.355099 74.743698
-22.8673 49.3484 79.1129
-23.179399 42.137798 77.646797
-14.606 42.267899 67.428596
-14.2573 49.473701 68.062599
-17.834499 49.340199 71.057098
-18.1856 42.068199 70.173103
-14.8864 36.487099 104.886
-11.1386 38.117199 108.952
-10.5046 42.7491 65.1912
-6.2983899 43.300499 63.9123
-6.0886798 50.086201 64.912697
-10.195 49.779301 66.035301
-20.060699 34.3111 97.104401
-17.8442 35.297798 100.861
-23.1355 32.486698 82.241699
-22.9795 32.501301 86.712997
-20.382601 32.758301 73.444
-22.311399 32.405899 77.365997
-17.437 33.298401 70.2537
-13.9159 33.940201 67.475899
-6.0911198 35.519699 63.564201
-10.0901 34.663601 65.1007
-2.1262801 55.936699 66.092201
-1.99461 36.540798 62.8377
-1.66787 48.203602 115.191
-1.72395 53.084999 115.862
-1.6776201 56.846699 116.717
-2.0750799 43.927101 63.429699
-2.0092399 50.4062 64.4795
-1.60934 42.172199 114.677
-13.0454 37.226601 106.916
-19.702299 55.440201 76.750198
0 56.846699 116.717
0 53.084999 115.862
0 55.943901 66.077698
0 50.396599 64.498901
0 43.917099 63.429501
0 48.203602 115.191
0 42.247101 114.753
22.2967 32.803501 90.554802
21.3165 33.617199 94.0009
22.216299 42.216099 94.992203
23.393999 42.159599 91.364998
23.216 49.2537 92.800499
22.0163 49.170898 96.445099
20.724001 55.182598 98.3013
21.757799 55.2971 94.7995
9.3585796 55.718102 67.579498
5.5815001 55.855999 66.549698
16.152 55.314701 72.857002
13.1113 55.529202 69.405701
21.5359 55.3965 81.089104
18.2978 55.380199 75.026604
22.547899 55.384399 90.890198
22.5674 55.425098 86.382401
17.4321 54.566799 104.932
19.473101 54.929901 101.455
11.458 54.6768 111.931
14.5036 54.249199 108.785
5.0328598 56.560501 115.961
8.2930002 55.789398 114.367
8.3149405 46.230701 112.29
8.4880695 51.619801 113.171
5.1669698 52.5369 114.868
5.0036001 47.393902 114.099
7.8540902 39.722599 111.628
4.57688 41.1749 113.612
14.9303 43.5312 106.401
14.9059 49.551399 107.569
11.6824 50.341 110.783
11.5995 44.711102 109.765
18.1661 49.2332 103.516
18.302601 42.694099 102.15
20.745899 42.274601 98.334099
20.543501 49.107101 99.809502
24.213301 42.107498 82.827599
24.028 49.370899 84.296898
24.0865 49.343102 88.871399
24.2255 42.105 87.455002
21.153099 42.112301 73.446899
20.7922 49.355099 74.743698
22.8673 49.3484 79.1129
23.179399 42.137798 77.646797
14.606 42.267899 67.428596
14.2573 49.473701 68.062599
17.834499 49.340199 71.057098
18.1856 42.068199 70.173103
14.8864 36.487099 104.886
11.1386 38.117199 108.952
10.5046 42.7491 65.1912
6.2983899 43.300499 63.9123
6.0886798 50.086201 64.912697
10.195 49.779301 66.035301
20.060699 34.3111 97.104401
17.8442 35.297798 100.861
23.1355 32.486698 82.241699
22.9795 32.501301 86.712997
20.382601 32.758301 73.444
22.311399 32.405899 77.365997
17.437 33.298401 70.2537
13.9159 33.940201 67.475899
6.0911198 35.519699 63.564201
10.0901 34.663601 65.1007
2.1262801 55.936699 66.092201
1.99461 36.540798 62.8377
1.66787 48.203602 115.191
1.72395 53.084999 115.862
1.6776201 56.846699 116.717
2.0750799 43.927101 63.429699
2.0092399 50.4062 64.4795
1.60934 42.172199 114.677
0 36.537998 62.818199
13.0454 37.226601 106.916
19.702299 55.440201 76.750198
-14.0988 11.3242 108.1
-13.6672 8.6623096 109.416
-14.767 6.5737901 107.563
-15.4229 9.0806599 105.956
-19.9729 16.680099 90.949097
-20.7118 14.8675 88.873802
-20.3582 26.523701 93.542603
-21.184799 25.955 90.203201
-1.14361 -7.80829 70.795097
-2.6773601 -7.3032098 70.183998
-2.8968201 -9.1202202 71.842598
-1.3972 -9.15903 72.292397
-3.05775 -11.9622 76.571999
-1.6337301 -11.5115 76.774498
-1.55814 -10.4199 74.338898
-3.0260501 -10.8346 74.083298
-2.9114499 -13.2312 81.872299
-1.81905 -13.0479 82.4562
-1.71663 -12.3637 79.565903
-2.9992299 -12.769 79.318497
-2.54813 -13.3913 84.978104
-16.605499 -7.45046 78.679901
-16.4958 -8.8596697 81.926598
-14.4305 -9.5313797 80.179604
-14.5646 -8.0377197 77.192902
-14.8303 -10.3541 89.554497
-12.8894 -11.1735 87.343102
-13.7428 -10.4244 83.719704
-15.7301 -9.5652504 85.793503
-19.9729 20.4788 89.757797
-19.3731 21.3435 93.339104
-19.231701 17.9543 92.475304
-1.32649 22.337799 115.308
-1.80198 17.9389 115.954
-3.34061 16.8969 65.183296
-4.1184602 21.1357 64.631302
-4.8621702 -6.2086201 69.909698
-7.12988 -4.7769599 70.1381
-7.0713601 -6.9530101 71.839897
-4.9597101 -8.2217798 71.620102
-8.8148203 -6.28475 72.338799
-9.0562201 -4.4365101 70.721703
-2.59446 6.6154399 67.425201
-2.83586 5.1032 67.596298
-2.44328 8.0277796 67.159599
-2.3676901 9.3870697 66.854202
-7.8687201 23.386 112.124
-7.7906899 27.7096 111.595
-4.8694901 29.7243 113.339
-5.1377101 25.366501 113.453
-12.3066 19.6171 108.459
-12.2993 24.282 107.851
-10.5436 25.450199 109.553
-10.4315 20.986601 110.334
-17.500401 15.9776 99.6884
-17.895399 13.9264 99.915298
-20.365499 12.3193 95.269501
-20.0973 14.889 94.429001
-19.2731 16.559401 95.549103
-21.9237 11.1636 87.728798
-22.104099 8.2532301 88.730698
-21.4701 5.1929102 90.114799
-17.866199 11.6778 100.6
-17.2614 9.3261995 101.831
-18.7342 7.23035 97.447304
-19.7974 9.5131598 96.214104
-19.773001 -2.6621599 91.352798
-20.0534 -1.41265 88.912903
-19.7388 1.5869401 93.352402
-19.295099 0.77307802 95.600403
-19.441401 -3.8935201 84.394997
-19.226801 -5.1493101 87.4785
-18.0856 -7.2579298 84.365601
-18.4904 -6.2128901 80.7015
-10.5022 -9.3982401 78.014999
-8.2344799 -8.3780603 74.156898
-12.626 -8.21488 76.102203
-12.3139 -9.7571001 78.756699
-7.0055199 -10.409 76.195198
-4.9109402 -11.7082 76.486801
-4.9597101 -10.1161 73.851601
-6.94944 -9.06639 73.910896
-6.2593699 -12.2106 79.487701
-5.7351198 -12.9701 81.9935
-4.3647399 -13.2143 81.864601
-4.6451502 -12.8304 79.412498
-10.768 -11.7705 85.745499
-8.2881203 -12.3 84.8899
-9.6024199 -10.9283 81.098396
-11.6702 -10.8042 81.987
-18.546499 -6.0742502 91.285004
-16.9835 -6.6835899 94.9972
-16.412901 -8.9672098 92.092201
-17.4443 -8.1562099 88.244797
-18.692801 0.092886999 97.771103
-17.080999 -0.94190699 100.805
-17.2883 -3.8517201 97.960701
-18.9098 -3.1697199 94.512001
-16.6299 7.05441 103.482
-15.7838 4.3141499 105.466
-16.5543 1.87753 103.303
-17.836901 3.85584 100.593
-18.3148 5.1508999 99.001404
-14.4402 15.2203 106.334
-14.3183 13.0008 107.355
-15.8277 11.2639 104.838
-15.9545 13.7976 103.911
-15.8033 15.469 103.492
-10.7265 17.105301 110.974
-10.4071 13.2845 112.382
-12.27 10.8361 110.925
-12.7284 13.9871 109.443
-12.5529 16.414101 108.998
-5.5668702 21.037901 114
-5.8594799 16.924601 114.712
-8.1905804 15.6435 113.883
-8.0686703 19.663799 112.906
-3.4844699 17.7122 115.507
-3.0236101 21.990299 114.894
-4.0404301 -13.2887 85.212502
-2.7773399 13.7526 65.689697
-2.37012 10.713 66.516602
-2.50424 12.1708 66.150299
-6.4129901 -0.21530101 68.180298
-6.947 -2.5983901 68.898201
-4.61833 -4.0159202 68.740402
-4.1842899 -1.493 68.078697
-3.2381999 3.4112 67.672302
-5.8155799 2.35377 67.824097
-3.67467 1.12315 67.726601
-7.7760601 33.442001 111.238
-4.5646801 35.200001 113.28
-14.7523 29.4552 104.086
-10.9143 31.5697 108.677
-12.8674 30.4697 106.866
-13.7453 18.525499 106.353
-15.1888 18.0917 103.416
-15.0059 22.503401 103.168
-13.3478 23.309601 106.297
-17.219999 28.239201 100.245
-19.2439 27.1028 96.549599
-16.7299 23.001101 99.998497
-16.851801 17.9793 99.769699
-18.397699 18.0527 96.034103
-18.409901 22.07 96.391701
-21.560301 25.317101 82.356201
-21.740801 25.6723 86.398003
-19.863199 19.4375 82.241302
-20.170401 19.823 85.569504
-19.114599 25.0296 74.429604
-20.8776 25.001301 78.113998
-16.303101 25.229 71.2631
-13.3673 25.791201 68.394203
-8.2393503 27.0352 64.879204
-5.3839898 28.115499 63.830601
-10.0755 26.461 66.011002
-0.85100198 8.24016 66.5252
-0.87538499 6.7457399 66.899101
-0.465734 -7.5477901 71.113899
-0.53157097 -8.7537003 72.654404
-1.92634 -3.0156 68.314697
-2.3408599 -5.3305802 69.095497
-0.65349102 -6.4145398 69.9384
-0.74371099 -11.9659 79.806198
-0.80954897 -12.7916 82.921402
-1.79466 29.3428 63.085499
-2.1896801 26.7924 114.456
-1.88244 31.036699 114.479
-1.37282 22.3207 64.275902
-1.11435 17.9746 65.012497
-0.61447698 -9.95644 74.682602
-0.66080701 -11.0247 77.068901
-0.92659199 14.1943 65.473503
-0.85100198 9.6859303 66.0868
-0.897331 11.7643 65.794296
-1.7215101 36.384602 114.438
-0.92659199 5.19414 67.225098
-1.01925 3.5618601 67.479698
-1.56545 -0.35313499 67.823601
-1.25334 1.8804899 67.644897
-10.5558 -7.9998798 75.3162
-9.3561401 -9.3516397 77.5242
-8.3247004 -11.1282 80.401604
-7.1859598 -12.3143 83.171501
-5.72049 -12.9345 84.7854
-1.46304 -13.1915 84.173798
-11.5556 -8.1190796 75.769096
-10.2242 -6.2158799 73.028
-9.5000095 -7.9972301 74.739304
-8.3295698 -9.8629599 77.053703
-7.3810401 -11.5834 79.881599
-6.51053 -12.6084 82.2985
-5.5717402 -13.033 83.380203
-4.1647902 -13.3123 83.659401
-2.77002 -13.3494 83.4114
-19.697399 17.635799 82.317497
-20.041201 17.731501 85.241997
-20.204599 17.134399 85.402
-19.777901 18.371 89.051804
-19.997299 17.391899 88.209503
-18.2929 19.8095 96.184196
-19.2097 19.101801 92.870201
-16.6665 20.577999 99.828598
-20.1583 3.6297901 91.423401
-19.870501 3.0227499 91.951698
0 -9.8200598 74.787003
0 17.9746 65.012497
0 31.392599 114.657
0 -11.7944 79.839104
0 -8.6221905 72.758904
0 -7.4187298 71.218498
0 17.7997 116.265
0 22.1464 115.525
0 1.36459 67.6194
0 -1.20732 68.018303
0 3.1879301 67.398201
0 4.7836299 67.101501
0 11.7619 65.796799
0 9.6729803 66.083199
0 -10.8862 77.1586
0 22.3207 64.273499
0 26.984301 114.81
0 29.342699 63.073399
0 -6.1207399 69.990601
14.0988 11.3242 108.1
13.6672 8.6623096 109.416
14.767 6.5737901 107.563
15.4229 9.0806599 105.956
19.9729 16.680099 90.949097
20.7118 14.8675 88.873802
20.3582 26.523701 93.542603
21.184799 25.955 90.203201
1.14361 -7.80829 70.795097
2.6773601 -7.3032098 70.183998
2.8968201 -9.1202202 71.842598
1.3972 -9.15903 72.292397
3.05775 -11.9622 76.571999
1.6337301 -11.5115 76.774498
1.55814 -10.4199 74.338898
3.0260501 -10.8346 74.083298
2.9114499 -13.2312 81.872299
1.81905 -13.0479 82.4562
1.71663 -12.3637 79.565903
2.9992299 -12.769 79.318497
2.54813 -13.3913 84.978104
16.605499 -7.45046 78.679901
16.4958 -8.8596697 81.926598
14.4305 -9.5313797 80.179604
14.5646 -8.0377197 77.192902
14.8303 -10.3541 89.554497
12.8894 -11.1735 87.343102
13.7428 -10.4244 83.719704
15.7301 -9.5652504 85.793503
19.9729 20.4788 89.757797
19.3731 21.3435 93.339104
19.231701 17.9543 92.475304
1.32649 22.337799 115.308
1.80198 17.9389 115.954
3.34061 16.8969 65.183296
4.1184602 21.1357 64.631302
4.8621702 -6.2086201 69.909698
7.12988 -4.7769599 70.1381
7.0713601 -6.9530101 71.839897
4.9597101 -8.2217798 71.620102
8.8148203 -6.28475 72.338799
9.0562201 -4.4365101 70.721703
2.59446 6.6154399 67.425201
2.83586 5.1032 67.596298
2.44328 8.0277796 67.159599
2.3676901 9.3870697 66.854202
7.8687201 23.386 112.124
7.7906899 27.7096 111.595
4.8694901 29.7243 113.339
5.1377101 25.366501 113.453
12.3066 19.6171 108.459
12.2993 24.282 107.851
10.5436 25.450199 109.553
10.4315 20.986601 110.334
17.500401 15.9776 99.6884
17.895399 13.9264 99.915298
20.365499 12.3193 95.269501
20.0973 14.889 94.429001
19.2731 16.559401 95.549103
21.9237 11.1636 87.728798
22.104099 8.2532301 88.730698
21.4701 5.1929102 90.114799
17.866199 11.6778 100.6
17.2614 9.3261995 101.831
18.7342 7.23035 97.447304
19.7974 9.5131598 96.214104
19.773001 -2.6621599 91.352798
20.0534 -1.41265 88.912903
19.7388 1.5869401 93.352402
19.295099 0.77307802 95.600403
19.441401 -3.8935201 84.394997
19.226801 -5.1493101 87.4785
18.0856 -7.2579298 84.365601
18.4904 -6.2128901 80.7015
10.5022 -9.3982401 78.014999
8.2344799 -8.3780603 74.156898
12.626 -8.21488 76.102203
12.3139 -9.7571001 78.756699
7.0055199 -10.409 76.195198
4.9109402 -11.7082 76.486801
4.9597101 -10.1161 73.851601
6.94944 -9.06639 73.910896
6.2593699 -12.2106 79.487701
5.7351198 -12.9701 81.9935
4.3647399 -13.2143 81.864601
4.6451502 -12.8304 79.412498
10.768 -11.7705 85.745499
8.2881203 -12.3 84.8899
9.6024199 -10.9283 81.098396
11.6702 -10.8042 81.987
18.546499 -6.0742502 91.285004
16.9835 -6.6835899 94.9972
16.412901 -8.9672098 92.092201
17.4443 -8.1562099 88.244797
18.692801 0.092886999 97.771103
17.080999 -0.94190699 100.805
17.2883 -3.8517201 97.960701
18.9098 -3.1697199 94.512001
16.6299 7.05441 103.482
15.7838 4.3141499 105.466
16.5543 1.87753 103.303
17.836901 3.85584 100.593
18.3148 5.1508999 99.001404
14.4402 15.2203 106.334
14.3183 13.0008 107.355
15.8277 11.2639 104.838
15.9545 13.7976 103.911
15.8033 15.469 103.492
10.7265 17.105301 110.974
10.4071 13.2845 112.382
12.27 10.8361 110.925
12.7284 13.9871 109.443
12.5529 16.414101 108.998
5.5668702 21.037901 114
5.8594799 16.924601 114.712
8.1905804 15.6435 113.883
8.0686703 19.663799 112.906
3.4844699 17.7122 115.507
3.0236101 21.990299 114.894
4.0404301 -13.2887 85.212502
2.7773399 13.7526 65.689697
2.37012 10.713 66.516602
2.50424 12.1708 66.150299
6.4129901 -0.21530101 68.180298
6.947 -2.5983901 68.898201
4.61833 -4.0159202 68.740402
4.1842899 -1.493 68.078697
3.2381999 3.4112 67.672302
5.8155799 2.35377 67.824097
3.67467 1.12315 67.726601
7.7760601 33.442001 111.238
4.5646801 35.200001 113.28
14.7523 29.4552 104.086
10.9143 31.5697 108.677
12.8674 30.4697 106.866
13.7453 18.525499 106.353
15.1888 18.0917 103.416
15.0059 22.503401 103.168
13.3478 23.309601 106.297
17.219999 28.239201 100.245
19.2439 27.1028 96.549599
16.7299 23.001101 99.998497
16.851801 17.9793 99.769699
18.397699 18.0527 96.034103
18.409901 22.07 96.391701
21.560301 25.317101 82.356201
21.740801 25.6723 86.398003
19.863199 19.4375 82.241302
20.170401 19.823 85.569504
19.114599 25.0296 74.429604
20.8776 25.001301 78.113998
16.303101 25.229 71.2631
13.3673 25.791201 68.394203
8.2393503 27.0352 64.879204
5.3839898 28.115499 63.830601
10.0755 26.461 66.011002
0.85100198 8.24016 66.5252
0.87538499 6.7457399 66.899101
0.465734 -7.5477901 71.113899
0.53157097 -8.7537003 72.654404
1.92634 -3.0156 68.314697
2.3408599 -5.3305802 69.095497
0.65349102 -6.4145398 69.9384
0.74371099 -11.9659 79.806198
0.80954897 -12.7916 82.921402
1.79466 29.3428 63.085499
2.1896801 26.7924 114.456
1.88244 31.036699 114.479
1.37282 22.3207 64.275902
1.11435 17.9746 65.012497
0.61447698 -9.95644 74.682602
0.66080701 -11.0247 77.068901
0.92659199 14.1943 65.473503
0.85100198 9.6859303 66.0868
0.897331 11.7643 65.794296
1.7215101 36.384602 114.438
0.92659199 5.19414 67.225098
1.01925 3.5618601 67.479698
1.56545 -0.35313499 67.823601
1.25334 1.8804899 67.644897
0 36.5079 114.547
0 14.1943 65.473503
0 -12.5868 82.692596
0 -4.6543899 68.993301
0 6.2000599 66.695
0 7.8471799 66.356499
10.5558 -7.9998798 75.3162
9.3561401 -9.3516397 77.5242
8.3247004 -11.1282 80.401604
7.1859598 -12.3143 83.171501
5.72049 -12.9345 84.7854
1.46304 -13.1915 84.173798
11.5556 -8.1190796 75.769096
10.2242 -6.2158799 73.028
9.5000095 -7.9972301 74.739304
8.3295698 -9.8629599 77.053703
7.3810401 -11.5834 79.881599
6.51053 -12.6084 82.2985
5.5717402 -13.033 83.380203
4.1647902 -13.3123 83.659401
2.77002 -13.3494 83.4114
19.697399 17.635799 82.317497
20.041201 17.731501 85.241997
20.204599 17.134399 85.402
19.777901 18.371 89.051804
19.997299 17.391899 88.209503
18.2929 19.8095 96.184196
19.2097 19.101801 92.870201
16.6665 20.577999 99.828598
20.1583 3.6297901 91.423401
19.870501 3.0227499 91.951698
21.1726 11.176 76.448601
20.987301 13.7439 78.083298
21.506701 14.0826 81.163902
22.152901 11.9127 79.382301
20.5996 16.1856 86.8909
21.092199 14.9451 85.529701
22.2894 7.4486599 78.1558
20.8678 6.2947202 74.264603
21.3165 8.6568098 75.026199
22.3211 9.9487495 78.726501
20.2558 16.6821 80.553703
20.660601 16.075899 83.345001
21.158001 15.1726 81.912804
20.714199 15.3492 79.139503
6.0886798 18.979099 65.161102
5.0816202 16.4844 66.000801
10.5973 -4.25104 71.406601
12.6017 -6.6330199 74.4366
14.1525 -6.2453299 74.770203
13.3137 -4.0661898 73.770599
14.9498 -3.3489399 74.336502
16.1861 -5.7053299 76.227798
16.568899 0.43346301 72.427597
15.4351 -0.72113198 72.5186
8.6295004 19.181299 67.7575
10.5388 19.6931 69.537498
10.8167 17.761801 70.797997
9.3098097 17.5658 69.247803
9.0464602 17.3391 67.101997
9.3195601 17.5709 67.991501
10.7875 17.599501 68.377502
10.5631 17.383801 66.925102
8.9099102 16.971001 66.549004
10.6509 17.0702 66.2939
5.9984598 5.8833399 67.774002
5.2011099 7.18047 67.673897
4.0355501 7.4326801 67.498398
4.53299 6.1255002 67.607101
4.48422 10.7209 66.342499
4.7353702 12.187 66.103203
4.6085801 8.0009403 67.252899
4.3305998 9.2071896 66.668602
3.5332401 9.9354897 67.072403
3.6600399 8.6749296 67.283997
22.7673 9.7435598 83.1922
22.216299 12.781 84.098396
22.082199 4.6532998 83.337502
22.677099 7.6526599 82.9589
20.0851 -0.48728001 80.0354
18.466 -4.88727 78.201897
17.124901 -2.5050001 75.694397
18.666 -0.89276302 76.042503
20.8971 2.1026599 84.885803
12.8967 17.149599 69.326797
15.4716 16.1215 70.715302
12.6894 16.9394 66.742104
18.3538 16.109301 75.7687
18.149 17.1359 76.848099
19.414499 16.8969 78.379097
18.841499 13.4012 72.819603
19.4048 10.5859 71.9412
5.2133002 13.7847 65.970299
7.03722 15.5976 66.251503
4.1647902 14.0915 66.453102
3.8039 12.6187 66.6605
3.5893199 11.2337 66.854401
5.4473901 4.6044798 67.722397
7.6785202 1.83337 67.854797
7.1810899 4.0612798 67.873497
9.1001101 1.90658 68.478203
11.7677 -1.80893 71.2416
10.8119 0.026041999 69.564003
14.311 -1.46297 72.022697
8.2881203 -0.29545799 68.348
9.5073204 -0.13471401 69.6567
10.4778 -2.25653 69.817001
8.9391699 -2.4956601 69.303902
17.476 19.4645 77.003403
19.0049 19.261801 79.482597
12.9772 19.759199 71.894302
15.2595 19.5825 74.3414
15.5277 17.447201 74.420799
15.4107 16.8633 73.072403
12.9455 17.402201 72.025497
6.2349901 16.1731 66.572098
7.2835002 17.7528 67.3834
8.2759304 17.160101 67.748497
7.5736699 16.6008 66.919701
21.336 2.08285 78.440804
19.597401 1.48315 74.7313
20.3216 3.8966 74.104401
21.991899 4.8025498 77.843803
17.590599 2.2854199 71.421799
18.4636 4.1424999 70.931702
19.0488 6.0732398 70.934196
19.329201 8.2024698 71.270103
9.0440302 17.6266 69.539101
7.7565498 17.1854 67.8815
17.697901 2.1963501 72.125999
18.327 1.9306 72.846603
17.576 -0.362353 74.308601
16.756701 0.193627 73.240196
18.5879 4.1045599 71.487198
19.1366 4.00528 72.184303
19.1805 6.10987 71.576401
19.7901 6.1584702 72.412903
19.5511 8.2234602 72.077599
20.246 8.3675003 73.015198
19.7047 10.5597 72.958603
20.341101 10.6843 73.878403
19.8071 13.247 74.651199
20.3314 13.1777 75.356003
19.702299 15.656 77.206497
20.1656 15.598 77.935898
11.8604 -4.1128302 72.094101
11.4044 -6.2502499 73.666603
12.9723 -1.64887 71.4729
10.6022 17.969999 70.861099
10.5558 18.140499 70.767899
12.8431 18.257401 72.697304
12.926 18.073799 72.755302
14.9767 17.988899 75.029701
15.1498 17.750299 75.108902
17.1541 17.8388 77.532997
17.358999 17.595301 77.5728
18.819599 17.7635 79.900803
19.014601 17.4893 79.9459
19.8778 17.2481 82.399696
19.5487 -2.7913001 82.351997
19.655899 -2.22279 81.625504
20.3363 0.469861 86.449799
20.1558 -0.249615 86.859398
17.7784 -2.50756 77.106003
10.4485 8.6681404 47.306301
11.6409 8.6791697 47.300598
12.0676 11.1453 51.3927
10.3583 11.049 51.428398
10.2388 12.8715 55.202499
12.2335 13.0508 55.155399
12.6797 -0.68705499 60.412899
11.3581 -0.39635 60.387901
11.2825 -0.90587997 56.441299
12.331 -1.07576 56.431599
12.053 -1.1911401 51.673302
11.1459 -0.87291402 51.7393
7.69315 8.9966898 52.482899
6.90799 10.6887 56.2188
8.3125095 12.1809 55.4823
8.7416601 10.4438 51.695999
6.33252 6.1166201 58.563099
6.1520801 8.4760399 57.368301
6.8421502 6.8625498 53.7188
7.21523 4.48699 54.9716
7.9321098 2.34989 60.134499
7.1615801 3.76845 59.665699
8.1028004 2.2216899 55.966202
8.6611996 1.01261 56.289501
10.0267 0.441055 60.374401
8.8928499 1.3608201 60.3004
9.3902798 0.30508801 56.3657
10.2681 -0.33093399 56.449001
10.451 -0.464587 51.719799
9.7462902 0.13961799 51.780102
9.1903296 1.24216 51.2229
8.2954397 3.06989 50.469898
8.0808601 4.9632101 49.436199
8.7124004 6.8724198 48.230301
9.3317604 8.2028103 47.487499
14.45 7.1866498 48.105801
12.8674 8.0935402 47.5396
15.6131 5.2369599 49.320999
15.4619 3.46102 50.2519
13.7136 -0.654477 51.7677
12.8748 -0.99170703 51.638302
14.3475 1.36895 51.056499
14.2866 0.116981 51.6063
14.2963 -0.45571199 56.395901
15.2229 -0.040387999 60.519402
13.9745 -0.44892699 60.470798
13.3697 -0.80313498 56.439602
15.6862 0.53836298 56.258499
17.193199 1.57709 60.553101
16.4104 0.61380601 60.565498
15.1278 -0.050209999 56.341099
16.044701 2.8187599 55.670502
17.5979 4.6044798 59.937901
17.6248 2.8006499 60.444
15.9764 1.3178 56.160301
17.0469 7.4749699 53.545601
18.061199 9.3785 57.458599
18.3929 7.00594 58.773998
17.1761 5.1831398 54.728298
14.1232 12.7528 55.318298
16.295799 11.5882 56.063599
15.6448 9.6319599 52.257401
13.6794 10.6434 51.6404
14.8962 0.074056 70.2071
14.4841 0.055560999 63.739201
15.8252 0.56153703 63.897202
16.066601 1.05922 67.168098
14.6962 0.41538501 66.988403
11.085 16.688601 64.687698
9.0927896 16.2722 64.558296
12.0774 14.3023 58.564899
9.9315996 14.1208 58.5695
9.5780401 15.0817 61.453098
11.7628 15.3197 61.462101
8.5002604 2.68906 63.222599
9.7682304 1.55668 63.394501
8.9562397 2.95295 65.542603
7.73948 4.2808599 65.373001
6.4471302 6.0823598 66.808296
7.4858899 4.6080599 66.893204
5.7473102 9.9432602 60.227501
5.8863001 7.7143202 61.2598
5.58881 9.1692495 63.5359
5.5815001 11.1807 62.681198
5.4278798 11.4313 64.655098
5.1791601 9.8769102 65.204803
6.6592698 5.4621401 62.334499
7.4712601 3.89306 62.926201
6.7787499 5.58987 65.0858
6.11551 7.1485 64.472099
5.2254901 8.56178 65.961502
5.6473298 7.3850999 66.584702
7.8418999 13.4449 58.768799
6.4300599 12.0422 59.324402
6.1862202 13.0449 61.983601
7.4615002 14.2799 61.5326
15.5887 15.6685 67.2668
13.1162 16.604 65.4627
7.12501 14.9259 64.432701
5.8765402 13.1681 64.401604
8.8270102 3.0063601 67.025902
10.4364 1.4683599 67.756699
12.0725 0.093797997 68.932899
13.6526 -0.24716599 69.437103
11.3751 0.42913601 63.4884
13.0235 -0.110919 63.7575
13.3332 0.149377 66.610199
11.8799 0.55899698 66.4319
10.451 1.6049401 65.685997
17.0688 1.42984 64.084
17.9174 2.6786399 64.177902
18.2295 3.5517299 67.109398
17.3321 2.11871 67.145599
18.436701 4.2270999 64.084702
18.478201 6.0676699 63.603199
18.7586 7.3664598 66.810402
18.724501 5.3475299 67.060501
18.987801 8.4352798 62.4366
18.4245 10.8144 61.030399
18.4855 12.0718 64.267998
19.2292 9.7926197 65.764503
16.4251 12.9188 59.526402
14.1183 14.0522 58.708801
13.894 15.0196 61.551102
16.2934 14.0116 62.535301
18.334299 13.2027 69.692596
16.3641 0.89813298 70.480797
17.5126 2.3984499 70.216599
18.3953 4.1459799 69.864899
18.9391 6.0587702 69.662498
19.1073 8.1750803 69.800301
19.2195 10.6003 69.912903
13.5721 -0.21029299 47.358898
13.6624 0.18757699 47.8881
13.3502 -0.209957 48.031799
12.687 -0.88562399 48.284302
12.3602 -1.1400501 48.3787
12.3944 -1.2877001 47.784199
15.0961 1.79063 46.4767
15.0303 2.1233001 47.0961
15.1766 3.7183199 45.552399
15.101 3.9438901 46.187698
13.9696 5.3927898 44.491001
13.9208 5.6539798 45.082901
12.648 6.29497 44.0397
12.6358 6.5584798 44.537201
11.4434 6.9299898 44.0182
11.4751 7.1620798 44.502602
10.2876 6.99403 44.0937
10.3144 7.2181001 44.576099
9.1659498 6.5318999 44.034901
9.1732597 6.7329202 44.539398
8.6880198 5.3891101 44.0919
8.7440996 5.5920501 44.687
8.0247698 3.63447 45.124802
8.13694 3.8891101 45.746498
8.2369099 1.90793 46.356201
8.3320103 2.1723199 46.985298
9.3268805 0.007057 47.2854
9.3805199 0.31554201 47.891499
10.2145 -1.25181 47.794102
10.3437 -1.0462199 48.387001
10.0072 -0.67005402 48.257099
11.636 -1.44322 48.436501
11.5824 -1.66626 47.835999
10.9362 -1.40499 48.445702
10.8728 -1.66022 47.839401
9.7584801 -2.5871799 44.9608
9.8828402 -1.9527 46.476898
8.7977505 -0.51948798 45.869202
8.7684898 -1.23394 44.585201
10.5875 -3.0027101 44.996101
10.6778 -2.4001 46.550701
11.441 -3.0103099 44.996799
11.5092 -2.3908501 46.552601
12.4041 -2.6200099 44.973499
12.4383 -1.9914401 46.5009
13.8013 -1.5024 44.6003
13.8038 -0.93388498 45.989899
15.4253 0.76420802 43.753399
15.4741 1.3425601 44.946201
15.4985 3.1894901 42.791302
15.457 3.5578101 43.988998
14.0062 4.9591799 42.5158
13.9257 5.19137 43.409401
12.5066 6.0812101 42.379002
12.5578 6.1083899 43.195801
11.3727 6.6230898 42.393101
11.3946 6.7218499 43.210499
10.2998 6.6751199 42.413399
10.273 6.7832098 43.256199
9.2707996 6.3172102 42.419201
9.19277 6.3933401 43.238499
8.4514904 5.0679102 42.513199
8.5368404 5.1927099 43.3288
7.5712299 3.16347 42.7981
7.7029099 3.5076101 43.93
7.6858401 0.94329798 43.731701
7.7638698 1.51407 44.8811
10.7436 12.5807 19.8013
11.4337 12.5922 19.830799
9.1561899 10.8486 19.129499
10.0316 12.1558 19.6143
8.2930002 6.66189 18.9097
8.3076296 8.6665602 18.753
10.1096 4.4190102 18.620399
9.1878901 5.2832599 18.726
11.9506 4.01861 18.6992
10.9996 4.0124202 18.610399
14.0306 5.3235402 18.992001
12.965 4.4545698 18.8269
13.4795 10.7938 19.2684
12.2383 12.1698 19.7073
14.7913 8.6628599 18.973
15.0498 6.7000198 19.2047
11.4385 11.1491 21.5536
10.8948 11.1461 21.528
10.9923 10.4552 24.424801
11.4897 10.4542 24.4482
11.5092 9.4202805 28.0837
11.0289 9.4254599 28.052299
11.0606 8.3657503 31.6287
11.5483 8.3628902 31.6506
11.6068 7.3081002 35.012299
11.0825 7.3097901 34.995201
11.4702 6.8456001 39.230499
10.6265 6.84339 39.230598
10.4022 6.8714299 40.523602
11.4117 6.87114 40.525398
11.38 6.73699 41.566898
10.3339 6.7710299 41.568501
10.5583 -3.11237 42.489799
11.3678 -3.1531899 42.499699
10.6265 -1.2207201 36.701199
11.4483 -1.21916 36.712299
11.4093 -2.3267 39.071899
10.4924 -2.3264101 39.0597
11.046 0.72531098 33.1381
11.6897 0.72535801 33.148102
11.9311 1.91599 30.000401
11.2703 1.92005 29.9839
11.3312 3.0422101 26.736601
12.053 3.0511899 26.7614
12.0457 3.954 23.528099
11.224 3.9171801 23.4939
11.1045 4.0841098 20.817301
12.0335 4.1338 20.889799
8.3832197 5.1956201 41.6222
9.3341999 6.4137998 41.576
7.52003 3.05424 41.706501
7.6321902 0.74316102 41.6917
8.7319098 -1.36763 42.1819
9.7340899 -2.7353101 42.4636
7.9906402 3.9673901 38.727699
7.9979501 2.14958 38.001099
7.56148 1.54403 39.6628
7.5151501 3.5841501 40.349998
8.9586802 0.291363 37.234402
9.85357 -0.81722701 36.789501
9.6194897 -1.94007 39.088001
8.6246204 -0.59241599 39.183701
9.8365002 6.5201201 39.258301
8.9391699 5.6068301 39.179699
8.4758797 5.4313202 40.523399
9.4585505 6.5213599 40.546501
9.1244898 3.2630501 34.031101
9.1708202 4.6215901 34.429298
9.7974901 1.86678 33.5308
10.4534 1.01376 33.2313
10.4973 7.0061102 34.9333
10.4876 8.0522699 31.4942
10.4607 9.1136703 27.9006
9.3951502 3.96348 30.7733
9.40979 5.3057399 31.104799
9.45611 6.2440701 27.6241
9.4439201 4.9122801 27.383101
10.6582 2.1805201 30.037701
10.0194 2.8606999 30.3048
10.0316 3.90799 26.9839
10.6729 3.286 26.766199
8.9294205 6.6623302 21.174101
9.2781096 6.0401201 23.959
9.3317604 7.4252801 24.105101
9.0293999 8.2281904 21.136101
10.5022 4.1798301 23.508101
9.8413801 4.88907 23.6668
9.5438995 5.3790998 21.073
10.2876 4.4572301 20.882401
10.4315 10.2218 24.241899
10.3096 10.9118 21.340401
12.1286 10.9247 21.4221
12.1457 10.2275 24.337601
13.7136 4.99722 23.7787
12.9552 4.28722 23.5821
13.0479 4.6121702 21.0359
13.9086 5.4956598 21.212099
13.9818 7.40834 24.276699
14.2573 6.0722399 24.125
14.5353 6.6986899 21.3638
14.1988 8.20718 21.3242
13.5453 3.93625 27.0837
13.3795 2.8515999 30.3829
12.6407 2.1707001 30.087999
12.8333 3.31587 26.828699
13.8916 6.2241302 27.7875
13.9208 5.2939301 31.2349
14.0842 3.95578 30.896999
14.1281 4.9118199 27.5387
12.1798 8.0543804 31.567499
12.1335 9.1117201 27.990499
12.2847 7.0192499 34.961601
12.3968 1.01037 33.265701
13.2356 1.87175 33.582199
14.1403 3.27227 34.106201
14.0891 4.6296 34.4991
13.8672 5.4451098 40.5322
13.5892 5.6206198 39.1945
12.4017 6.5270901 39.264099
12.5041 6.5247698 40.5536
12.3456 -0.81235099 36.820801
13.5331 0.301604 37.274601
13.7501 -0.596457 39.221199
12.4115 -1.93318 39.124001
15.3668 1.55959 39.701698
14.9254 2.1681299 38.048302
14.9523 3.9758501 38.7649
15.4229 3.5928099 40.375198
13.6819 -1.65798 42.234901
12.3066 -2.78406 42.4977
15.4595 3.08325 41.712502
15.3668 0.69010103 41.717899
13.9281 5.1858602 41.6245
12.509 6.3287802 41.577099
10.3315 7.0159001 31.318001
10.034 6.3122101 31.2083
9.7072697 5.27457 34.5718
10.2145 6.0471301 34.738499
10.2681 9.1764097 24.099899
9.9706202 8.4715099 23.9849
10.0462 7.32025 27.586599
10.3266 8.0470896 27.7145
10.1754 10.1952 21.0674
9.7584801 9.4580097 20.9837
12.5943 9.0980701 24.2966
13.0942 8.3882999 24.150299
13.2039 9.3801003 21.1366
12.5407 10.1165 21.178801
12.5724 7.9388499 27.8386
13.0406 7.2209501 27.7255
12.609 6.9246302 31.403601
13.0771 6.2192402 31.3111
12.7723 6.02068 34.7747
13.4356 5.2541199 34.6245
8.88309 2.8369401 35.872398
8.5465899 2.5085299 36.976898
8.6368103 4.1258402 37.445999
9.0879202 4.4388299 36.332699
8.9659996 4.2965899 36.2677
9.6219301 1.3108 35.297501
9.36833 0.82946998 36.329399
10.3169 0.394326 34.959999
10.1364 -0.17414699 35.947899
10.907 0.112307 34.8507
10.785 -0.47453099 35.8316
11.5458 0.113515 34.855999
11.4824 -0.47390401 35.839298
12.2627 0.402105 34.979401
12.2578 -0.165162 35.972698
13.1844 1.3322099 35.3228
13.2868 0.84913498 36.361801
14.2281 2.8631301 35.908901
14.4743 2.53298 37.0205
14.1817 4.3120999 36.2966
14.0281 4.4531298 36.3563
14.4329 4.1384902 37.496799
9.4634304 5.5146599 37.9972
9.7877398 5.4960399 36.792599
10.2071 6.3727899 38.105
10.3827 6.4783101 37.0359
10.8728 6.6352801 38.087601
10.9947 6.7193699 37.0322
11.5288 6.6379099 38.0919
11.5678 6.7229099 37.028
12.3212 6.3878198 38.120499
12.292 6.4925199 37.039299
13.2893 5.5728502 38.0466
13.0771 5.5357199 36.804901
7.5517201 14.0642 0.28337201
9.59023 15.3698 1.72693
8.8587103 13.4335 -0.62690699
6.1862202 16.730801 3.97632
8.5929203 16.4533 3.2304399
6.4008002 14.8765 1.48684
8.18083 20.0392 8.2358398
9.3317604 18.242399 5.57728
6.90799 18.9643 6.8801999
11.9457 19.9723 8.0248899
11.2069 18.4886 5.84729
10.0072 19.9673 8.0345898
15.7643 18.990101 6.83709
13.2113 18.255699 5.5584002
14.0013 20.0541 8.2067499
17.1371 14.9184 1.4409699
14.3695 16.4765 3.20437
17.237 16.772301 3.92168
13.1552 15.385 1.71881
15.4668 14.0932 0.26516101
13.7379 13.4516 -0.63109499
10.3266 12.9976 -1.25068
11.302 14.8776 1.03865
11.953 13.005 -1.2530299
10.0389 19.288 8.8073502
11.9189 19.232401 8.8511105
11.975 19.7768 8.27388
10.0072 19.771799 8.2835798
11.8116 18.0868 9.98981
10.1218 18.135 9.9483995
10.4534 10.7528 4.4236498
11.9116 10.6871 4.45365
11.9482 11.6396 1.47949
10.3559 11.6893 1.44005
10.3266 12.7028 -1.1374
11.975 12.7116 -1.13779
7.9223599 11.9641 5.1321602
9.0976696 11.2288 4.6401401
6.9250598 12.9799 5.8872499
6.7519302 14.6983 7.2671399
7.4054198 17.132099 9.2685604
8.5270901 18.2701 10.1699
6.8738499 18.7472 7.09969
7.0299101 18.2547 7.7930799
8.27349 19.431101 8.9654999
8.1661997 19.839399 8.4789305
6.50565 13.9773 3.57249
6.3081398 15.7444 5.3035898
6.1325798 16.4849 4.1564698
6.3447199 14.607 1.6389199
8.9050398 12.2229 1.87129
7.6224399 12.9856 2.5820999
7.5102701 13.7818 0.41775301
8.8367596 13.1444 -0.50576699
15.5375 13.8142 0.400069
15.3473 12.7624 2.78494
13.6843 12.0626 1.99484
13.7843 13.1639 -0.50798798
17.3346 16.525 4.0998602
17.0298 15.4866 5.5952902
16.9396 13.7253 3.85987
17.232201 14.649 1.59306
13.9184 19.259899 9.1030703
15.6228 18.016701 8.0128202
15.8496 18.775 7.05513
14.0623 19.854401 8.4498301
15.123 16.9653 9.49055
13.6014 18.121901 10.2936
16.317801 12.8618 6.20051
16.376301 14.5898 7.59758
14.9474 11.7695 5.3080001
13.4795 11.045 4.7234402
7.61025 16.633301 9.6975403
6.9835801 14.2977 7.9415698
8.6563196 17.720501 10.4759
10.1511 17.626499 10.2817
11.7726 17.5842 10.3188
13.46 17.585501 10.5929
14.8962 16.4793 9.9040699
16.0788 14.2006 8.25457
16.034901 12.5676 7.0448699
14.7572 11.502 6.25069
13.3771 10.7937 5.7419
11.9091 10.4541 5.5342498
10.5363 10.5178 5.5057001
9.2561703 10.9745 5.6668601
8.1271896 11.6907 6.0791702
7.1567001 12.6597 6.74156
-21.1726 11.176 76.448601
-20.987301 13.7439 78.083298
-21.506701 14.0826 81.163902
-22.152901 11.9127 79.382301
-20.5996 16.1856 86.8909
-21.092199 14.9451 85.529701
-22.2894 7.4486599 78.1558
-20.8678 6.2947202 74.264603
-21.3165 8.6568098 75.026199
-22.3211 9.9487495 78.726501
-20.2558 16.6821 80.553703
-20.660601 16.075899 83.345001
-21.158001 15.1726 81.912804
-20.714199 15.3492 79.139503
-6.0886798 18.979099 65.161102
-5.0816202 16.4844 66.000801
-10.5973 -4.25104 71.406601
-12.6017 -6.6330199 74.4366
-14.1525 -6.2453299 74.770203
-13.3137 -4.0661898 73.770599
-14.9498 -3.3489399 74.336502
-16.1861 -5.7053299 76.227798
-16.568899 0.43346301 72.427597
-15.4351 -0.72113198 72.5186
-8.6295004 19.181299 67.7575
-10.5388 19.6931 69.537498
-10.8167 17.761801 70.797997
-9.3098097 17.5658 69.247803
-9.0464602 17.3391 67.101997
-9.3195601 17.5709 67.991501
-10.7875 17.599501 68.377502
-10.5631 17.383801 66.925102
-8.9099102 16.971001 66.549004
-10.6509 17.0702 66.2939
-5.9984598 5.8833399 67.774002
-5.2011099 7.18047 67.673897
-4.0355501 7.4326801 67.498398
-4.53299 6.1255002 67.607101
-4.48422 10.7209 66.342499
-4.7353702 12.187 66.103203
-4.6085801 8.0009403 67.252899
-4.3305998 9.2071896 66.668602
-3.5332401 9.9354897 67.072403
-3.6600399 8.6749296 67.283997
-22.7673 9.7435598 83.1922
-22.216299 12.781 84.098396
-22.082199 4.6532998 83.337502
-22.677099 7.6526599 82.9589
-20.0851 -0.48728001 80.0354
-18.466 -4.88727 78.201897
-17.124901 -2.5050001 75.694397
-18.666 -0.89276302 76.042503
-20.8971 2.1026599 84.885803
-12.8967 17.149599 69.326797
-15.4716 16.1215 70.715302
-12.6894 16.9394 66.742104
-18.3538 16.109301 75.7687
-18.149 17.1359 76.848099
-19.414499 16.8969 78.379097
-18.841499 13.4012 72.819603
-19.4048 10.5859 71.9412
-5.2133002 13.7847 65.970299
-7.03722 15.5976 66.251503
-4.1647902 14.0915 66.453102
-3.8039 12.6187 66.6605
-3.5893199 11.2337 66.854401
-5.4473901 4.6044798 67.722397
-7.6785202 1.83337 67.854797
-7.1810899 4.0612798 67.873497
-9.1001101 1.90658 68.478203
-11.7677 -1.80893 71.2416
-10.8119 0.026041999 69.564003
-14.311 -1.46297 72.022697
-8.2881203 -0.29545799 68.348
-9.5073204 -0.13471401 69.6567
-10.4778 -2.25653 69.817001
-8.9391699 -2.4956601 69.303902
-17.476 19.4645 77.003403
-19.0049 19.261801 79.482597
-12.9772 19.759199 71.894302
-15.2595 19.5825 74.3414
-15.5277 17.447201 74.420799
-15.4107 16.8633 73.072403
-12.9455 17.402201 72.025497
-6.2349901 16.1731 66.572098
-7.2835002 17.7528 67.3834
-8.2759304 17.160101 67.748497
-7.5736699 16.6008 66.919701
-21.336 2.08285 78.440804
-19.597401 1.48315 74.7313
-20.3216 3.8966 74.104401
-21.991899 4.8025498 77.843803
-17.590599 2.2854199 71.421799
-18.4636 4.1424999 70.931702
-19.0488 6.0732398 70.934196
-19.329201 8.2024698 71.270103
-9.0440302 17.6266 69.539101
-7.7565498 17.1854 67.8815
