# .PCD v.7 - Point Cloud Data file format
VERSION .7
FIELDS x y z
SIZE 4 4 4
TYPE F F F
COUNT 1 1 1
WIDTH 1772
HEIGHT 1
VIEWPOINT 0 0 0 1 0 0 0
POINTS 1772
DATA ascii
-13.9875 19.7439 173.48
-9.23069 46.019501 176.90199
-14.064 26.615 202.922
-15.9231 27.1159 201.802
-16.641899 28.077999 202.283
-15.0224 28.2143 203.53
-16.8986 26.7218 200.78799
-18.249001 27.7666 201.649
-13.7597 25.0958 200.43201
-15.9792 26.0795 200.66901
-15.2045 26.156799 201.319
-17.5126 29.112301 202.927
-19.7605 28.8472 203.05499
-19.7516 29.097099 203.839
-18.5898 29.379101 204.40601
-19.849001 30.260099 205.31599
-20.7208 29.320299 204.04201
-21.3062 29.875299 204.44
-20.716 32.069099 205.561
-22.131001 31.196199 204.67599
-22.0541 32.230598 204.86
-18.4459 34.403801 206.62801
-20.269501 35.710999 204.534
-19.551201 37.0214 203.963
-17.833599 37.311699 205.02
-14.6914 36.7785 206.368
-16.965099 39.003101 203.459
-15.0822 39.244999 204.379
-14.7001 40.553398 202.791
-16.6432 39.509899 202.586
-17.5051 39.644699 201.91901
-17.3983 40.170399 201.485
-18.2915 40.324699 200.022
-19.3169 39.859901 199.52901
-19.0364 40.577 198.328
-17.948299 41.0769 198.858
-16.726801 24.733601 199.02699
-17.443199 22.711201 197.59599
-20.375099 38.761501 199.877
-20.7157 38.1744 199.52699
-20.290199 38.9925 198.662
-19.971901 39.460701 199.19901
-22.610701 36.499401 199.364
-21.8444 36.242199 199.853
-22.0721 35.856701 200.41
-22.549101 35.904999 200.321
-20.789101 38.5317 197.877
-21.407101 37.206501 198.892
-21.732599 37.911598 198.02499
-20.4111 38.434601 198.18401
-20.913099 37.498001 199.15199
-21.0592 28.0865 202.395
-20.9937 27.5455 201.937
-18.3381 38.826698 202.521
-18.166201 39.075401 202.08099
-18.9762 39.101601 201.16701
-19.179399 38.726799 201.577
-18.686899 39.688599 200.71899
-19.9046 38.6982 200.722
-19.6674 39.2029 200.258
-20.566601 38.274601 200.369
-20.0515 38.3466 201.15199
-20.693701 37.884899 200.786
-20.9093 37.6702 200.036
-19.3188 38.413799 202.09399
-20.193399 38.0368 201.664
-20.3015 37.554401 202.39301
-21.003901 37.1991 201.903
-20.8389 37.591999 201.25999
-21.185301 36.9725 200.862
-21.0347 37.232201 200.43401
-17.882099 38.3582 203.672
-19.3279 37.886101 202.94901
-21.733101 36.112099 200.25
-21.6504 36.321098 199.881
-21.2607 36.624802 200.11099
-21.441401 36.4897 200.53799
-21.116699 36.910702 199.713
-21.3918 36.703701 201.46899
-21.664101 36.241901 201.14301
-21.505501 36.601898 199.576
-21.7367 36.542099 199.478
-22.2929 36.816799 198.875
-22.023399 37.3008 198.44299
-21.8902 35.813 200.72
-22.5555 29.8883 204.05901
-21.707199 29.352301 203.989
-23.356501 30.810101 203.97301
-23.257299 29.7269 203.562
-24.092501 30.5921 203.474
-23.6677 31.790701 203.851
-22.792801 32.0867 204.41
-21.077801 28.6553 203.26401
-22.208401 29.008301 203.519
-20.4245 36.823799 203.326
-22.4673 39.211102 196.74699
-21.9123 39.8717 196.411
-23.030001 41.003601 194.07401
-21.063999 40.746201 195.83501
-21.342199 39.4095 197.03101
-19.6595 40.4258 196.714
-22.009199 38.684799 197.35001
-22.0728 33.596298 204.729
-22.759701 33.2145 204.17799
-21.968 34.5769 204.356
-20.919901 34.168098 205.3
-23.508801 32.853298 203.689
-23.0702 34.007198 203.325
-22.4702 34.360001 203.72501
-24.5142 31.512699 203.34
-24.276501 32.536301 203.23399
-21.476 35.688301 203.59801
-22.001699 35.389702 203.00101
-21.2257 36.603401 202.69701
-21.9401 35.787601 201.877
-21.6465 36.198101 202.207
-22.377399 35.040798 202.62601
-23.5998 33.5667 202.899
-22.5917 34.587898 202.27
-19.388901 40.466702 197.50301
-22.111099 35.314201 201.54201
-22.995701 34.399899 202.145
-22.431601 35.183601 201.412
-22.8974 35.083 201.424
-24.4251 33.3395 202.427
-23.540501 34.2225 202.14999
-24.0553 33.444599 202.578
-24.694 32.450199 202.83
-20.431601 20.707899 194.88499
-19.125799 21.296301 196.00999
-19.7836 20.9487 195.448
-18.344999 21.9088 196.729
-23.3214 35.948502 200.439
-23.626301 34.976799 201.584
-24.775 33.858101 202.30701
-21.522499 26.629499 201.524
-21.042299 26.000799 201.09801
-20.0418 26.2334 201.099
-20.460699 26.927799 201.543
-23.181 28.738899 202.83299
-22.177401 28.1518 202.60201
-24.7064 33.256401 202.457
-24.9708 32.380798 202.62801
-24.1192 34.075901 202.25999
-24.9086 31.412001 202.983
-24.6896 30.425699 203.028
-24.041201 29.486799 202.961
-17.327101 25.880199 200.269
-15.7788 25.6224 200.14
-19.1985 28.669001 202.353
-18.833599 20.4706 195.48
-19.4914 20.2041 194.886
-18.0611 20.943199 196.05901
-16.8475 21.895399 196.841
-16.7054 20.733999 196.168
-17.494101 20.131701 195.563
-18.0734 19.8323 194.955
-18.8346 19.539801 194.01801
-18.6271 18.8367 192.233
-15.7981 21.463699 196.821
-14.9207 20.8335 196.731
-16.4594 19.6668 195.293
-17.6618 19.068501 193.616
-15.5075 23.1252 197.77299
-14.5721 22.5788 197.66299
-13.9237 23.2192 198.29401
-12.9876 22.1017 197.853
-14.6009 24.7815 199.73801
-15.7849 24.182301 198.681
-14.6394 23.687201 198.52
-13.4031 23.368299 199.315
-17.513901 42.062199 195.73199
-17.200199 42.385799 196.248
-23.946501 41.4259 188.61
-24.1215 41.196098 188.045
-21.752701 42.842999 186.89799
-17.6383 44.427898 185.74001
-17.6243 44.357399 186.412
-21.6507 42.9772 187.50101
-15.9412 44.770599 186.564
-15.4466 45.0098 186.07001
-16.0874 43.628399 192.81799
-17.822001 42.1693 195.409
-16.594801 43.462601 192.623
-15.7517 44.476002 188.57401
-15.2422 44.707298 188.243
-16.8153 41.460201 199.77699
-16.111401 42.818199 196.98199
-13.8358 43.782501 197.72
-14.435 41.902699 200.987
-15.6825 44.292 192.866
-13.1227 45.220402 193.89999
-11.4571 38.945301 204.52299
-11.7887 38.337101 205.384
-14.8114 39.773998 203.48399
-11.5382 40.021599 203.834
-17.274599 30.3608 206.90401
-16.4902 29.498501 205.696
-12.8815 25.878599 202.049
-25.945299 36.993099 184.041
-25.6775 38.758099 185.41901
-24.7244 40.484901 186.96899
-13.2591 46.4062 184.843
-14.2794 45.701 188.937
-14.466 45.9021 184.56599
-20.6894 23.6259 183.53101
-20.867001 23.399599 185.02499
-14.2947 15.8063 182.13901
-12.7135 15.0217 181.606
-12.9166 15.6039 180.423
-14.72 16.341 180.92
-15.9865 17.873199 191.79401
-16.0979 17.747299 191.343
-14.1619 17.306601 191.658
-14.279 17.2225 191.246
-13.5643 17.100901 191.647
-13.5467 16.9681 191.233
-10.5086 16.415199 191.65401
-10.4687 16.2775 191.27299
-18.168301 18.066999 183.371
-16.662399 16.806299 184.181
-15.2349 16.1136 182.64
-16.438 16.921 181.64
-15.6494 16.516701 186.564
-13.7562 15.3345 184.24699
-12.5025 14.8978 183.64799
-16.7948 17.3008 180.937
-14.6085 16.3783 180.15601
-18.8578 18.8545 182.80701
-20.859501 20.3538 184.875
-19.8605 18.954399 185.214
-18.420799 17.8123 186.09801
-11.7474 14.826 181.34
-11.0464 14.8847 179.797
-9.1747799 14.5569 181.84
-8.7339401 15.0276 180.12
-9.68682 14.6082 183.88
-17.614799 17.3365 187.33701
-13.0525 15.5287 186.358
-10.044 14.7753 186.3
-16.8561 17.4151 189.659
-14.7815 16.708 189.558
-13.4759 16.2428 189.536
-10.3235 15.4741 189.73
-13.9506 19.3734 195.69901
-15.2701 18.233601 193.377
-12.7379 18.987801 195.83501
-13.469 17.5688 193.364
-10.6409 18.726801 196.086
-10.704 16.811701 193.36501
-11.9748 21.069799 197.92799
-10.3 20.567301 198.049
-12.8312 23.7943 199.916
-11.4838 22.5291 199.77299
-11.8516 21.782101 199.08701
-18.0205 31.929899 207.49699
-15.5393 29.077999 204.112
-11.9924 24.7132 201.60899
-14.9431 33.0261 209.024
-19.3076 20.2854 182.459
-16.978001 18.7153 180.479
-23.6665 39.849998 179.82899
-22.137199 42.0816 181.11
-23.7111 41.323799 185.011
-25.087099 39.399799 183.552
-23.320801 42.3769 189.668
-19.9466 44.1968 182.505
-21.129999 43.764099 188.507
-17.680401 44.3442 188.019
-16.947701 45.054401 183.86099
-15.0891 45.599998 184.431
-17.636999 44.449299 190.23199
-19.5098 44.7127 189.52499
-20.872801 44.115299 189.498
-23.0714 42.6437 190.873
-20.2481 44.516201 190.40401
-21.9356 43.008099 192.216
-18.437 42.732201 194.961
-19.6835 42.907902 194.403
-19.006001 44.354 191.87601
-19.120899 44.8344 190.60899
-8.9248505 46.358601 189.77901
-10.1212 45.075298 194.599
-12.1865 46.485901 189.185
-17.793501 43.9156 192.44299
-10.9083 43.491001 198.181
-11.7688 41.5826 201.80499
-17.1056 40.815102 200.633
-14.5275 41.435101 201.60899
-21.2995 21.8902 184.709
-21.127399 23.058599 184.826
-19.2805 21.4244 182.61099
-18.457001 20.8302 181.825
-16.388901 19.6085 180.31599
-24.1971 35.044201 178.507
-25.566299 34.989601 181.679
-24.7549 32.791302 181.57201
-23.140699 33.0252 178.382
-21.313499 30.875 177.828
-22.464399 30.799101 180.194
-21.114401 29.3626 179.90199
-21.4457 28.8862 181.83501
-20.7771 27.1376 180.459
-20.4146 27.496901 178.911
-19.6134 24.397499 179.061
-19.4275 25.0005 177.922
-19.2216 24.438801 180.375
-20.708401 27.2251 181.38
-23.5963 30.667299 182.157
-20.8193 27.222 181.729
-21.267599 27.028999 182.39
-20.084101 24.4231 181.44701
-19.599501 24.595301 180.729
-20.426001 23.954 182.31
-20.5938 23.802999 183.10201
-19.8309 23.028 182.29601
-24.355101 37.620701 178.85001
-25.694099 37.3368 182.19501
-8.4475203 47.0467 185.13499
-11.2351 47.1413 185.241
-11.0595 23.450001 200.96001
-19.650499 23.0373 182.036
-19.535299 23.713499 181.34599
-18.836599 21.7757 182.97
-18.7771 22.1812 181.39999
-19.1077 22.4196 181.79601
-19.435699 22.401899 182.30701
-17.9935 21.239 182.194
-17.805799 21.369499 180.55299
-16.2061 20.233101 179.37801
-16.1588 20.0637 180.61
-18.434099 22.6127 180.259
-19.170799 23.314699 180.995
-4.2139502 22.604401 200.166
-7.6195402 20.990601 199.065
-7.41609 21.7286 199.821
-5.7086601 20.8745 198.80099
-11.7008 17.985399 173.967
-16.985901 23.0753 175.80099
-17.5581 24.113899 175.69901
-17.9513 24.3409 176.845
-17.8414 23.4207 177.399
-18.6556 25.934401 176.43201
-18.8477 25.733801 176.979
-20.515699 29.9354 179.16
-20.2437 30.253201 177.657
-7.44982 41.169998 197.912
-13.3787 16.036301 178.938
-13.4528 16.196699 178.849
-13.5886 16.1432 178.82899
-13.5347 16.028601 178.897
-13.4111 15.8869 179.10899
-13.5587 15.9171 179.021
-13.4929 15.8316 179.224
-13.6197 15.8737 179.10699
-13.6411 15.8107 179.327
-13.7284 15.8552 179.183
-14.0131 15.9716 179.438
-14.0054 15.9827 179.26601
-14.1789 16.136299 179.39101
-14.1264 16.093901 179.229
-14.2135 16.2397 179.32001
-14.1514 16.1733 179.177
-14.172 16.394699 179.19901
-14.1217 16.2883 179.09
-14.0755 16.471201 179.10201
-14.0511 16.354401 179.021
-13.9195 16.5061 178.97301
-13.9357 16.3752 178.924
-13.5921 16.3475 178.832
-13.6917 16.25 178.819
-13.3075 16.107201 179.082
-13.3764 16.239901 178.985
-13.3408 15.9625 179.254
-13.4251 15.9061 179.371
-13.5704 15.8839 179.47099
-13.9475 16.0576 179.589
-14.1257 16.301901 179.561
-14.1424 16.309999 179.466
-14.101 16.465 179.34599
-14.0064 16.5387 179.24699
-13.8456 16.548201 179.11099
-13.516 16.3894 178.97301
-12.7573 16.0408 178.946
-12.9184 16.3787 178.744
-12.8502 15.8275 179.332
-13.038 15.6242 179.58099
-13.3864 15.5342 179.814
-14.1241 15.8088 180.026
-14.5152 16.289 179.96001
-14.5943 16.504801 179.77901
-14.5137 16.8244 179.52
-14.3043 16.990601 179.289
-13.9383 17.0396 178.995
-13.2586 16.7068 178.71201
-12.5709 16.078899 178.98199
-12.7516 16.440399 178.737
-12.7541 16.2276 179.539
-12.9845 16.054899 179.843
-13.3968 15.9933 180.125
-14.1518 15.7962 180.22701
-14.6959 16.5896 179.94099
-14.6053 16.9783 179.644
-14.364 17.1686 179.37601
-13.934 17.193501 179.02699
-13.1482 16.8276 178.70399
-14.061 18.4254 179.05499
-12.4827 17.5165 178.35699
-10.7108 15.8705 178.73
-18.4436 24.5882 177.17799
-19.676399 28.185699 177.396
-19.8092 28.066099 177.746
-17.875999 26.212999 174.57899
-17.2957 24.249901 174.71001
-16.872999 23.7316 174.54201
-17.414301 25.587299 174.32001
-18.3279 23.737 177.791
-19.243601 24.225599 180.368
-17.7241 24.615601 175.57001
-18.5103 23.3463 179.056
-18.193001 22.923 179.073
-15.6638 21.457199 174.62601
-15.8833 21.3652 175.797
-14.1292 19.738199 174.797
-17.2222 21.9624 177.679
-16.001499 20.7659 176.653
-17.0783 22.715 176.74899
-17.3384 21.7661 179.269
-2.04844 15.5088 182.606
-2.1863101 15.6363 181.757
-3.3592701 14.854 181.644
-10.367 17.617599 178.33
-10.2676 17.3295 177.66299
-12.3063 17.956301 178.366
-5.2497201 16.759899 179.047
-3.57726 16.3456 179.549
-2.9588201 16.994699 178.689
-5.0982499 16.4118 178.463
-3.3097799 15.4817 180.44099
-2.7535 15.9414 180.89301
-3.42576 15.92 179.79201
-5.32763 15.4788 179.744
-5.2576199 16.2213 179.12601
-7.6171098 16.3974 177.929
-7.9111199 17.7052 178.673
-8.0589705 16.8223 178.54601
-10.5563 17.0532 178.278
-12.5233 17.745001 177.228
-14.1412 18.9382 178.005
-13.9246 18.929399 179.112
-12.2321 17.8584 176.255
-10.0744 17.226 177.118
-9.9930801 16.7721 176.157
-9.2133398 16.6024 173.657
-1.99699 16.572399 179.989
-1.58895 16.9722 178.59801
-2.3896699 16.428699 177.931
-1.1217999 16.4844 176.991
-3.74139 15.9241 174.119
-6.87433 15.5878 173.64
-4.6116199 22.2131 199.98199
-3.8417399 21.7491 199.02299
-4.1732402 21.5704 199.07899
-3.7158401 21.100599 197.649
-3.90575 20.5751 197.642
-3.3106201 20.125 195.437
-3.6404901 19.3855 195.53799
-2.6389899 18.667101 192.343
-3.14326 18.0287 192.46201
-2.5152199 18.5473 191.35899
-3.13254 17.854799 191.53
-2.42118 18.348101 190.655
-2.20345 18.111601 189.86501
-2.7669799 17.205799 189.815
-3.0134101 17.5979 190.69099
-1.69981 17.1546 186.59801
-2.2637701 16.0292 186.45799
-1.56143 16.9394 185.798
-1.99464 15.6308 184.455
-1.60309 16.244801 183.026
-1.91581 16.4529 182.056
-2.4015901 16.3473 181.01401
-2.18661 16.273899 177.217
-0.67486298 16.042801 175.313
-1.51337 15.7696 175.465
-5.5060701 20.283199 197.991
-4.6514502 16.801701 191.44299
-4.67381 16.9568 192.80099
-7.5917902 16.1122 191.561
-7.8027201 16.3638 193.164
-19.483101 30.808901 176.2
-19.439301 27.982401 176.105
-18.542999 25.9422 175.306
-18.756201 28.5916 175.145
-15.949 20.5797 177.89799
-14.2252 19.263 176.94701
-8.8451204 37.916401 204.88499
-9.9390697 38.930199 203.875
-9.9675198 40.553902 201.63
-8.24821 39.389801 201.35001
-9.7234001 37.529202 205.71899
-9.6556301 21.8486 199.737
-9.9861298 21.265699 199.16
-5.7774401 21.4146 199.597
-6.2804699 45.559898 181.354
-8.0655603 46.700901 181.252
-10.1891 47.160301 180.909
-12.354 46.762199 180.994
-13.4286 46.053799 180.88901
-14.0998 45.5159 180.65199
-15.7564 45.275501 179.86099
-18.3783 44.2108 178.52901
-20.232599 42.348 177.162
-21.8433 39.880901 175.985
-21.3661 32.588699 175.603
-6.6089501 46.121101 185.159
-22.5793 37.3666 175.252
-22.102301 34.652699 175.13901
-7.2673898 45.4105 189.71201
-7.57445 16.440201 177.75
-7.4116402 15.8862 176.912
-5.10429 16.4359 178.256
-4.56775 16.353901 177.33299
-7.29597 15.5145 174.989
-4.1023202 15.9688 175.549
-14.2135 19.3381 175.72099
-12.2015 17.801201 175.09
-8.1624098 15.4936 179.047
-8.99541 42.3414 198.15401
-8.2186403 43.819401 194.347
-5.5815301 14.7721 180.733
-9.3276796 22.431801 200.314
-8.1570196 20.364799 198.241
-5.1561499 18.6611 195.88699
-8.1837397 18.1915 196.17799
-4.3601098 16.1064 189.75101
-7.3064499 15.3354 189.761
-7.5390902 16.003599 191.20399
-4.60251 16.672899 190.981
-4.0240598 15.3819 186.46899
-6.7530599 14.952 186.20799
-3.6421199 14.8315 183.46899
-3.8541701 15.158 185.162
-5.9115701 14.4609 182.52699
-6.3360901 14.7467 184.37801
-9.6173601 16.6266 174.832
-9.9170303 38.227299 204.752
12.8 31.344101 176.092
12.6802 30.279499 176.071
12.5564 29.3524 175.86501
12.3768 26.718399 175.35001
1.59543 16.419399 173.45799
1.2076499 16.216499 174.211
0.23694301 16.111401 173.802
6.3818698 47.487 177.39301
3.72066 47.9622 178.22501
0.44725499 47.677898 178.298
-4.1482902 44.581299 178.2
-3.0092499 46.334202 177.869
2.5806899 47.742599 178.58501
1.53958 47.704201 178.483
8.6134596 46.172199 176.73
11.3497 44.208698 176.129
12.7825 42.184502 176.356
13.1459 39.532299 176.41299
13.2158 37.0676 176.681
12.7191 35.352699 177.256
12.7012 28.8274 176.675
12.7474 34.061699 176.811
10.0865 21.350401 174.74001
8.2409697 19.4277 174.647
6.2551899 17.684601 174.19501
11.6499 23.837999 174.98599
12.3962 26.323 176.448
3.21363 16.877501 174.103
-0.099780999 16.009399 173.67101
-5.0307002 43.857498 178.349
11.6713 23.848101 176.11501
-1.4929399 47.247398 177.755
3.98698 29.528299 204.7
5.77459 30.6178 203.939
6.0524402 31.7407 204.519
4.2649698 31.3272 205.42999
6.9985099 30.578699 203.142
7.76612 31.965401 204.21201
4.6507602 28.0672 202.246
6.3653498 29.685801 202.87
5.4964299 29.4979 203.358
6.4180598 32.974602 205.285
8.5691299 33.419498 205.84599
8.3336496 33.629902 206.60699
7.0563898 33.518299 206.933
7.7809601 34.719501 208.039
9.12782 34.137699 206.983
9.4241199 34.835098 207.468
7.9778199 36.7001 208.388
9.7223797 36.3358 207.812
9.2815504 37.279999 207.94501
4.9337201 38.1772 208.93201
6.62252 40.051201 207.183
5.6540899 41.089401 206.446
3.76337 40.797401 207.14799
0.74800497 39.270401 207.88901
2.72473 42.181 205.399
0.72141403 41.795601 205.936
0.26012501 42.967899 204.265
2.43327 42.588799 204.465
3.32041 43.005901 203.97099
3.13973 43.4851 203.509
4.20157 43.955002 202.23801
5.3948202 43.848301 201.964
5.1386499 44.478802 200.71001
3.8691599 44.598099 201.007
7.7932401 28.691 201.442
9.3625803 27.0375 200.237
6.6559501 43.124199 202.541
7.2027702 42.672001 202.27499
6.7360601 43.354401 201.325
6.1918001 43.683399 201.77699
9.2068596 41.564701 202.479
8.6605396 41.117901 202.84399
8.8593998 40.7971 203.44299
9.2014799 40.965801 203.431
7.4559698 43.075401 200.65601
8.1864996 41.946899 201.797
8.3605404 42.716 200.97501
7.1135101 42.876999 200.896
7.6575398 42.0965 201.963
10.1407 33.122101 205.46899
10.3356 32.602001 205.02299
4.2364202 42.4701 204.745
4.08254 42.666302 204.27299
5.0023599 42.9716 203.53
5.2304301 42.6665 203.981
4.6352 43.452702 203.017
6.0769701 42.891602 203.282
5.7871199 43.3111 202.76601
6.8863802 42.702702 203.073
6.2416 42.590199 203.742
7.0422301 42.3568 203.517
7.4313302 42.2314 202.825
5.3593898 42.396702 204.52499
6.3727598 42.324501 204.282
6.4850898 41.877602 205.032
7.3172598 41.759701 204.69
7.1705298 42.105 204.01801
7.7309999 41.620499 203.705
7.60326 41.839298 203.25101
3.7388999 41.847698 205.802
5.3694901 41.8722 205.382
8.5509701 40.959099 203.222
8.4850502 41.145199 202.838
8.0440798 41.332401 202.992
8.1515198 41.237202 203.44501
7.9096699 41.577702 202.56799
7.8747902 41.403198 204.34599
8.2982702 41.0434 204.08501
8.3372698 41.3829 202.506
8.5477304 41.3839 202.448
8.9649496 41.7948 201.936
8.6930599 42.196999 201.451
8.6861897 40.704399 203.72
10.6312 35.2444 207.326
10.0396 34.476398 207.11501
10.9746 36.341099 207.351
11.3411 35.305901 206.96899
11.691 36.391998 207.00999
10.8991 37.361099 207.25301
10.0192 37.363499 207.63499
9.8154898 33.6413 206.308
10.6913 34.318901 206.758
6.6496701 41.193501 205.994
8.7550497 44.1889 199.806
8.2177601 44.688702 199.367
9.3239803 46.199299 197.254
7.3919902 45.320702 198.633
7.7816 44.073601 199.89
6.0729299 44.578899 199.24899
8.4526701 43.542599 200.33501
8.8747597 38.5751 207.77299
9.6540604 38.419601 207.362
8.5341997 39.4813 207.356
7.5630298 38.765099 208.10699
10.4379 38.312 207.02499
9.7624702 39.270302 206.548
9.1156301 39.424599 206.828
11.702 37.403099 206.927
11.1857 38.275101 206.73399
7.8949299 40.415199 206.48801
8.5255404 40.285599 206
7.55094 41.2351 205.52901
8.5351 40.6679 204.868
8.1138697 40.973598 205.131
8.9936304 40.061699 205.705
10.3707 39.0242 206.23599
9.3590899 39.696899 205.40401
5.6582799 44.509201 199.97
8.8772898 40.271198 204.58299
9.7379999 39.633801 205.355
9.1797104 40.232601 204.511
9.5461798 40.261902 204.604
11.1103 39.096298 205.936
10.201 39.633301 205.46201
10.789 39.0639 206.009
11.5661 38.3554 206.423
13.324 26.153099 198.21001
11.6716 26.266899 199.045
12.4993 26.159 198.629
10.6171 26.583099 199.58299
9.7034397 41.218102 203.675
10.0833 40.377701 204.892
11.2019 39.7066 205.868
11.1823 31.9084 204.745
11.0207 31.175699 204.256
10.0177 31.0849 204.06
10.1067 31.8613 204.55499
11.7595 34.3778 206.27499
11.1027 33.523701 205.879
11.3384 39.1189 206.02499
11.8093 38.402699 206.286
10.6602 39.682201 205.68401
12.065 37.473 206.66299
12.2479 36.479801 206.703
12.1175 35.3666 206.53999
7.7583599 29.9289 202.741
6.4219599 29.2055 202.327
8.2349901 33.096699 205.056
11.7578 25.4079 198.494
12.5663 25.378099 198.04401
10.7812 25.5982 198.901
9.2059402 26.1003 199.408
9.5636797 24.973801 198.756
10.6007 24.6661 198.33099
11.3488 24.5809 197.854
12.327 24.569099 197.088
12.6926 23.8916 195.31799
8.3673801 25.363899 199.201
7.76403 24.494699 198.966
9.8336296 23.9104 197.884
11.4585 23.7684 196.485
7.3977399 26.8221 200.03
6.7182498 26.014999 199.75999
5.79492 26.401699 200.237
5.3557301 25.0623 199.66
5.66394 28.052099 201.73399
7.1538601 27.884501 200.94099
6.2723699 27.0623 200.58099
5.0696001 26.349701 201.13499
3.75243 45.494499 197.827
3.2611699 45.688099 198.26401
11.2987 47.109001 192.082
11.6413 46.9617 191.56799
9.1471596 47.818802 189.94099
5.0483699 48.077099 187.97501
4.92804 47.986099 188.634
8.8944197 47.896999 190.50999
3.20385 47.8507 188.45
2.7641399 47.938801 187.864
2.4907401 46.626801 194.64799
4.0673099 45.702202 197.565
3.0519199 46.633301 194.55901
2.73153 47.4529 190.395
2.2491801 47.5238 189.966
2.5199499 44.580799 201.68201
1.97321 45.737 198.76401
-0.58623701 45.920898 199.026
-0.064108998 44.222099 202.403
1.89902 47.128899 194.59801
-0.97043699 47.181301 195.09801
-2.5873101 40.3769 205.396
-2.2528801 39.876099 206.323
0.474713 42.2411 204.99001
-2.71632 41.4454 204.70399
5.0507998 33.9641 209.104
4.8192701 32.937801 207.795
3.2815199 28.487301 203.642
15.4458 43.663502 188.12801
14.3579 45.210602 189.364
12.6297 46.505798 190.649
0.52841401 48.622601 186.203
0.91179198 48.146999 190.43401
1.86143 48.527 186.17599
14.7754 29.349701 187.02499
14.7271 29.1443 188.532
11.524 19.9734 184.683
10.3978 18.751801 183.883
10.6307 19.4044 182.743
11.9852 20.6511 183.55099
10.618 22.167101 194.41499
10.8469 22.0961 193.99699
9.1218796 21.064501 193.952
9.3354502 21.033701 193.573
8.6317396 20.6833 193.834
8.7355404 20.5644 193.42799
5.9994202 19.079599 193.28
6.0776901 18.948 192.903
14.1912 23.2897 186.55901
13.0281 21.598301 187.106
12.2082 20.542801 185.34399
13.2669 21.7152 184.567
11.7219 20.934299 189.261
10.7687 19.2927 186.66299
9.8515997 18.5056 185.851
13.6145 22.2087 183.933
12.0152 20.675301 182.77901
14.695 24.2698 186.112
15.6978 26.254 188.47701
15.1394 24.6033 188.66299
13.9867 23.0427 189.291
9.6100397 18.273001 183.444
9.2328196 18.1576 181.795
7.2038798 17.200399 183.453
6.9738598 17.562799 181.668
7.2764502 17.346001 185.55099
13.1491 22.301701 190.368
9.6514196 19.1931 188.595
7.09655 17.5417 187.98801
11.9766 22.068501 192.49899
10.2848 20.753599 192.028
9.2184601 19.9056 191.772
6.4864202 18.187099 191.386
7.51228 22.8374 197.813
9.5375099 22.2374 195.82201
6.4775701 22.0891 197.728
8.0705404 21.0452 195.48599
4.5589399 21.18 197.584
5.7321401 19.464399 194.985
4.7200999 23.764299 199.573
3.2945299 22.7614 199.38901
4.2901602 26.5576 201.603
3.4572501 24.9405 201.245
4.16291 24.366699 200.66499
5.1434598 35.668499 209.77901
4.3662 32.2906 206.07401
2.9007399 27.116899 203.077
1.64643 35.703499 210.658
14.734 25.7796 185.813
13.4313 23.623199 183.47501
13.214 45.762199 183.537
10.849 47.372898 184.41299
11.8041 47.040199 188.508
13.9591 45.6842 187.40401
10.2184 47.785301 192.972
7.8850999 48.6651 185.274
7.9725399 48.4524 191.37399
4.6749902 47.944 190.22099
4.56989 48.513802 185.981
2.5610499 48.437599 186.17101
4.1764002 47.965199 192.381
5.9746299 48.8186 192.035
7.43397 48.6768 192.286
9.6720104 47.925598 194.099
6.5538502 48.836201 193.04401
8.2437801 47.878201 195.189
4.5496402 46.4422 197.22501
5.7613702 47.014599 196.91
5.16467 48.2523 194.257
5.3664498 48.7813 193.021
-4.4394002 47.080898 190.222
-3.8534 46.086899 195.216
-1.32742 48.2341 190.255
4.0624399 47.441898 194.59599
-3.3083799 44.717602 198.92999
-2.6019499 43.062 202.70799
2.8285799 44.032398 202.597
0.049405999 43.787701 203.04601
15.6603 27.8554 188.35001
15.1136 28.907801 188.396
14.3249 26.8482 185.922
13.893 26.0513 185.01199
12.6355 24.292999 183.17599
15.4567 41.398998 182.49899
16.142 41.705799 185.82001
16.0767 39.378899 185.616
15.1232 39.1604 182.229
14.2012 36.554901 181.401
14.8269 36.814098 183.901
14.0738 35.039299 183.397
14.1628 34.6334 185.343
14.3469 32.807999 183.922
14.193 33.0784 182.35699
14.3833 29.8843 182.424
14.2407 30.429701 181.28
13.756 29.7619 183.625
14.0806 32.84 184.808
15.5485 36.985401 186.01401
14.1184 32.860802 185.17101
14.4702 32.797001 185.911
14.3599 29.982201 184.841
13.9916 30.0168 184.039
14.6602 29.616699 185.767
14.7128 29.5014 186.58
14.3975 28.552299 185.668
14.7382 43.884602 182.789
15.4259 43.951801 186.274
-4.2063298 47.728401 185.55299
-1.65999 48.680401 186.185
2.5494299 25.6465 202.30099
14.2761 28.512899 185.37801
14.0894 29.1404 184.659
13.7339 27.0324 186.179
13.8508 27.447201 184.61501
14.009 27.7645 185.058
14.2225 27.8342 185.623
13.2639 26.2838 185.274
13.3606 26.399599 183.62399
12.4493 24.8584 182.201
12.2235 24.644501 183.40601
13.614 27.785101 183.41701
13.9412 28.6588 184.257
-3.4096401 22.7372 200.248
0.47292301 22.3009 199.866
-0.090865999 22.9175 200.548
-1.21964 21.6031 199.24699
9.98738 21.4585 176.18401
12.9732 27.880501 178.827
13.2054 29.0434 178.814
13.278 29.361 179.979
13.355 28.4473 180.51199
13.5217 31.0931 179.67999
13.6556 30.956499 180.245
13.482 35.417099 182.554
13.4327 35.625 181.048
-5.75349 41.443802 198.07899
-6.34864 42.220001 193.931
-6.47156 40.566002 197.888
11.2085 20.004601 181.36
11.2446 20.1828 181.282
11.3915 20.1749 181.28999
11.3639 20.0471 181.35001
11.2527 19.8675 181.539
11.3974 19.944901 181.48
11.3243 19.837 181.66901
11.4514 19.920099 181.577
11.4492 19.8601 181.799
11.544 19.934099 181.673
11.7241 20.1255 181.974
11.7462 20.138901 181.804
11.8362 20.334999 181.95399
11.8313 20.2834 181.786
11.8496 20.446199 181.888
11.8398 20.368099 181.73801
11.7856 20.5842 181.757
11.7928 20.4708 181.64301
11.6905 20.6297 181.64101
11.7196 20.5137 181.56
11.559 20.6182 181.483
11.6242 20.500401 181.442
11.3304 20.3699 181.287
11.4561 20.3088 181.29601
11.0928 20.0453 181.48599
11.1341 20.195801 181.399
11.1361 19.912901 181.666
11.21 19.882099 181.798
11.3331 19.9032 181.925
11.6076 20.1821 182.106
11.7026 20.470501 182.106
11.7338 20.4863 182.01601
11.6698 20.6243 181.88499
11.5775 20.6679 181.76801
11.4508 20.630899 181.603
11.2197 20.381599 181.41
10.6271 19.815001 181.25
10.7103 20.192301 181.07201
10.7067 19.629499 181.653
10.8975 19.487301 181.939
11.2056 19.503201 182.237
11.7664 19.987499 182.577
11.9935 20.5674 182.571
12.0342 20.802601 182.403
11.9088 21.0889 182.123
11.706 21.188499 181.85201
11.406 21.129999 181.492
10.9308 20.610901 181.095
10.4349 19.791901 181.24899
10.537 20.1991 181.03101
10.453 19.973101 181.826
10.6635 19.871599 182.173
11.0131 19.932899 182.53
11.7579 19.9779 182.77901
12.0716 20.9097 182.578
11.9226 21.2598 182.258
11.6895 21.373501 181.94299
11.348 21.273899 181.51801
10.792 20.691601 181.063
11.0771 22.4828 181.532
10.0246 21.15 180.57401
8.8160801 19.0221 180.65401
13.5954 29.743999 180.38699
13.5882 33.528099 180.743
13.6795 33.4594 181.10699
13.082 31.148899 177.752
13.1166 29.111601 177.814
12.9162 28.494101 177.58501
12.8963 30.4217 177.431
13.6351 28.892401 180.974
13.8443 29.566401 183.62801
13.2309 29.571899 178.71001
13.6854 28.544201 182.233
13.5191 28.0434 182.19901
12.4734 25.962999 177.49001
12.4762 25.9182 178.65401
11.5415 23.8535 177.401
13.1798 26.8678 180.69701
12.6083 25.370399 179.50999
12.9873 27.5508 179.761
13.0467 26.671499 182.263
0.127073 15.8599 182.821
0.37734401 16.0501 182.009
1.7345001 15.6761 182.146
8.0289001 20.587601 180.14301
8.1522999 20.302799 179.478
9.7217398 21.512699 180.537
3.39483 18.155199 179.899
1.87112 17.225 180.086
1.25801 17.675501 179.105
3.47437 17.7957 179.308
1.7217 16.2938 180.937
0.97458202 16.5431 181.25999
1.81656 16.7661 180.308
3.73383 16.941299 180.636
3.5546601 17.6436 179.995
5.9247098 18.5833 179.26401
5.6498098 19.894501 180.009
6.0865898 19.1057 179.94
8.3906898 20.112 180.145
10.2047 21.413 179.467
11.1931 23.0292 180.502
10.7823 22.9174 181.54601
10.0778 21.4496 178.476
8.1062698 20.1593 178.909
8.3498201 19.7258 177.978
8.1625204 19.3832 175.444
0.245608 16.934299 180.21001
0.0067420001 17.229799 178.755
1.04615 16.983101 178.269
0.023500999 16.6691 177.103
3.1946199 17.031 174.84801
6.3044701 17.695601 175.002
-4.0665398 23.4037 201.592
-2.88322 22.498199 200.158
-3.2715001 21.841101 199.08
-2.9177699 21.773001 199.203
-2.92518 21.228201 197.72701
-2.58319 20.7885 197.772
-2.5774601 20.243299 195.509
-2.05917 19.640699 195.694
-2.1598101 18.744499 192.39
-1.51402 18.2917 192.623
-2.05041 18.622299 191.40401
-1.29246 18.151699 191.711
-1.942 18.425501 190.702
-1.92073 18.1572 189.89301
-1.10419 17.474199 189.978
-1.16374 17.8964 190.873
-1.46981 17.1917 186.621
-0.56744599 16.302999 186.625
-1.3793401 16.9688 185.81599
-0.312684 15.9023 184.62
-0.59679198 16.407301 183.125
-0.18594199 16.7321 182.22701
0.497493 16.815201 181.299
1.03842 16.7941 177.535
0.067374997 16.1605 175.395
0.89668602 16.156401 175.709
-1.06888 20.999701 198.42799
-2.3027 18.625401 191.517
-2.38941 18.7334 192.22
0.46628699 17.627701 191.94701
0.18037 17.7402 193.28
3.3959999 17.885599 192.644
3.2090299 18.1411 194.24899
12.8496 35.943401 179.489
13.6875 33.267899 179.467
13.6382 31.084 178.582
13.0616 33.6455 178.40199
12.3843 25.1542 180.696
11.3671 23.387501 179.48599
-4.76722 38.5746 205.287
-3.87255 39.909401 204.472
-3.9249599 41.529099 202.22501
-5.10952 39.896301 201.659
-3.98751 38.455002 206.284
1.9739701 23.726801 200.884
2.5732601 23.293301 200.39799
-3.81038 22.6686 200.196
-1.47666 22.1185 200.02901
-5.03058 45.758202 181.49001
-3.7063401 47.396301 181.707
-1.8054 48.499599 181.776
0.31376499 48.789001 182.287
1.5536 48.452 182.41299
2.3915601 48.155602 182.32899
4.1647701 48.462601 181.895
7.2000999 48.301102 181.149
9.7764502 47.144402 180.243
12.276 45.331299 179.48801
14.1705 38.243099 179.226
-5.6361098 46.2775 185.255
13.8878 43.1875 178.992
14.3086 40.456902 178.86501
-5.6764102 45.666801 189.869
5.9051399 18.6157 179.078
6.0826201 18.062799 178.24001
3.5114801 17.8267 179.105
-0.878479 16.6376 180.31799
-0.825737 17.070101 179.078
-0.57456797 16.5842 177.297
3.20964 17.6085 178.09801
6.4505801 17.721901 176.373
3.22891 17.147301 176.282
11.5642 23.479601 178.31
10.2889 21.4116 177.358
-0.92940199 16.4179 181.194
-0.997455 16.4259 181.87199
6.5007501 17.8601 180.492
-6.6062002 39.2416 201.425
-6.7108898 37.713902 204.99001
-4.7258401 43.030399 198.575
-5.18538 44.308899 194.646
4.0022402 16.318899 181.677
1.37685 24.161699 201.371
-3.5510399 21.816999 198.959
1.32594 21.896 199.17599
-2.9291799 20.2439 195.224
-3.30878 21.206499 197.5
-0.48885801 19.414301 196.347
2.42067 19.903099 197.22301
-2.0550101 18.145599 189.789
-2.1545601 18.362499 190.444
0.73365599 16.928499 190.25301
3.71488 17.114201 190.847
3.4487 17.776899 192.287
0.54876202 17.504299 191.489
-1.57634 17.1731 186.52299
1.27097 16.2365 186.991
3.9951301 16.686701 187.267
-1.4865 16.9827 185.924
1.6576999 15.6869 183.991
1.43128 16.011 185.683
4.0651302 16.0711 183.50999
4.0191798 16.417999 185.39799
-1.16952 16.5781 183.369
-0.308496 16.116501 175.379
-6.19701 43.8512 189.746
-5.9063601 44.900101 185.13
-5.5174098 44.702 181.55499
8.2971802 19.501301 176.64301
-3.84092 39.208 205.351
-13.7307 32.495701 209.627
-11.7937 31.3687 210.452
-12.9069 30.239201 209.924
-14.6469 31.3158 208.94501
-13.0385 26.926001 204.77299
-13.4481 28.013201 205.664
-12.627 27.442499 206.854
-12.4667 26.509501 205.94901
-11.9397 26.090099 205.418
-12.2642 26.2477 204.17101
-11.7984 33.854401 209.55099
-10.1368 32.371799 210.731
-13.1029 29.189699 209.14999
-14.2896 30.016399 208.15199
-12.8988 28.5322 208.381
-14.0533 29.3647 207.09801
-12.5357 28.0632 207.58
-13.5192 28.825899 206.011
-11.4508 29.346901 210.686
-11.8372 28.4125 210.043
-10.5843 30.350401 211.05299
-11.9338 28.038799 209.59599
-12.0071 27.5504 208.672
-7.0464301 32.4771 211.231
-7.4451199 33.512001 210.383
-12.2686 26.868401 208.00999
-11.472 24.9076 206.336
-11.8597 25.598801 206.569
-6.4695201 22.0665 203.589
-5.0448599 21.704201 203.399
-5.93397 22.1124 203.619
-4.8140898 22.451099 202.93201
-4.7525301 23.379601 201.76801
-5.1581302 23.2915 201.74699
-5.6970701 22.794901 203.019
-11.5082 25.6429 204.96899
-11.0725 23.830799 205.55499
-10.9147 24.587601 204.075
-11.4929 25.6467 203.64999
-10.8614 24.482901 202.849
-9.5339899 23.0322 203.314
-9.7458801 23.385099 202.03999
-10.1698 23.414301 203.575
-8.2097502 21.8859 203.78999
-7.3538499 21.725401 203.577
-7.6982598 22.5956 201.315
-8.0322104 22.1905 202.849
-7.0764298 21.946501 202.742
-6.3871598 22.1628 200.95799
-9.0715599 22.2227 204.077
-9.5381498 22.475599 204.368
-10.2997 22.850201 204.68401
-12.2072 25.950899 206.97501
-8.6889095 32.970001 210.672
-7.8666 32.236599 211.33501
-9.0825996 31.604099 211.339
-6.0100002 22.886801 202.97099
-9.8722601 34.583099 209.436
-7.9915199 34.915001 208.92101
-5.5257902 23.2125 201.73
0.56829399 34.803501 211.035
-1.04074 33.104198 211.511
0.44804099 32.3946 211.24001
1.91862 33.989498 210.577
2.5829301 29.447701 206.313
2.45612 30.580099 207.231
1.6432101 29.7456 208.25999
1.95684 28.8374 207.37
1.6979899 28.2911 206.761
2.1876199 28.5823 205.597
-1.63958 35.493999 210.55099
-2.9489999 33.531898 211.44
1.10499 31.4828 210.549
2.1417899 32.6684 209.771
1.26601 30.8183 209.77699
2.3253801 32.008202 208.71201
1.22662 30.284401 208.935
2.20295 31.3634 207.56
-0.774463 31.070101 211.73801
-0.001227 30.3228 211.209
-1.96371 31.741699 211.903
0.29033801 30.0117 210.8
0.68659902 29.5991 209.922
-6.4942799 32.612999 211.147
-5.9538798 32.6534 211.339
-6.6002798 33.887199 210.136
-5.744 33.786598 210.55099
1.26845 29.0532 209.34399
1.45645 26.994301 207.61
1.55761 27.764299 207.89101
-1.7982 22.8501 204.05901
-2.9781301 22.080799 203.618
-2.31758 22.7295 203.987
-3.3415699 22.753401 203.10699
-3.4621999 23.624201 201.923
-3.0531001 23.6674 201.98199
-2.6423399 23.347799 203.34801
1.5209399 27.745701 206.25301
1.56853 25.871 206.80099
1.46732 26.587099 205.295
1.7556601 27.789301 204.95799
1.68146 26.5173 204.092
0.80844003 24.717899 204.34
1.1375 25.158501 203.12399
1.23306 25.263901 204.702
-0.156681 23.1971 204.58701
-0.86482799 22.794201 204.22301
-0.38639799 23.799299 202.05299
-0.242549 23.4816 203.632
-1.03765 22.964199 203.356
-1.405 22.9942 201.46899
0.48796099 23.7673 205.019
0.78836203 24.1422 205.386
1.3206 24.7257 205.82899
1.69409 28.1945 208.345
-4.4720502 33.6506 211.08701
-5.1352201 32.677399 211.604
-3.80674 32.455601 211.85899
-2.3705599 23.5331 203.35899
-3.63802 35.589298 210.05
-5.39432 35.334099 209.177
-6.6925101 35.257702 208.827
-4.0571599 22.4459 203.06599
-4.1047301 23.514799 201.798
-2.6826899 23.707001 202.036
-4.0243902 22.077499 203.33701
-0.55628598 13.9941 208.203
-0.51030701 14.1268 208.526
-0.52938598 14.1081 208.524
-0.66593701 13.9603 208.464
-2.53231 11.7774 208.11301
-2.5483699 11.5767 208.429
-2.83321 11.6154 208.38499
-2.8271799 11.7675 208.07401
-2.62361 12.0406 207.95399
-2.8541501 12.0213 207.93201
-2.04671 11.9562 208.30701
-2.0429001 11.6895 208.604
-2.28019 11.6011 208.588
-2.3406701 11.839 208.20799
-1.38214 12.2268 208.37199
-1.3577501 12.0767 208.547
-0.674586 13.4483 208.48399
-0.555668 13.3298 208.63
-0.879471 12.5782 208.513
-1.00191 12.7998 208.33501
-0.53573102 13.81 208.573
-0.43745601 13.7322 208.66
-1.49385 12.4516 208.20599
-2.10798 12.1858 208.07401
-2.51208 12.3566 207.362
-2.5873699 12.3159 207.588
-2.8626399 12.2939 207.57201
-2.8468101 12.3327 207.34801
-2.8318 12.447 207.008
-2.48209 12.4961 207.056
-2.11133 12.447 207.403
-2.1616199 12.4144 207.66499
-1.31669 12.6272 207.506
-1.45531 12.6406 207.832
-0.92446798 12.9868 207.746
-1.01238 13.0011 208.011
-0.772515 13.4812 207.91299
-0.79305398 13.5218 208.15601
-0.89692301 13.0743 207.52499
-0.71173799 13.5265 207.776
-1.25106 12.7542 207.261
-2.1208501 12.6024 207.119
-2.4070101 12.0852 207.99899
-2.8886001 12.2949 207.834
-2.67226 12.3135 207.849
-2.2247701 12.4108 207.93401
-1.59826 12.684 208.155
-1.11581 13.038 208.27
-0.83684599 13.5788 208.40601
-0.653274 13.9303 208.511
-2.8396399 11.6131 208.45399
-2.5559499 11.5664 208.49699
-2.30037 11.5794 208.65199
-2.0525999 11.6649 208.66701
-1.35912 12.0612 208.61099
-0.87533301 12.5473 208.57201
-0.53662598 13.3098 208.696
-0.398444 13.6999 208.72
-0.51066703 14.1235 208.535
-0.50836098 14.123 208.53799
-0.52726102 14.106 208.53101
-0.84382999 13.6051 208.358
-1.12093 13.0661 208.22501
-1.5937999 12.7137 208.11099
-2.2176399 12.4434 207.883
-2.66992 12.3453 207.799
-2.8887501 12.3255 207.785
-2.89411 12.3268 207.838
-2.7567401 12.3335 207.843
-2.7565601 12.3352 207.838
-2.8940201 12.3276 207.83501
-2.3229101 12.4287 207.918
-2.32549 12.4266 207.922
-1.71744 12.6905 208.145
-1.71486 12.6926 208.14
-1.257 13.0268 208.25999
-1.25726 13.0308 208.256
-0.98459601 13.5494 208.392
-0.98734599 13.5521 208.39
-0.80155802 13.9024 208.5
-0.80333 13.9014 208.494
-2.8359499 12.4979 206.967
-2.48189 12.5501 207.01601
-2.1304901 12.6587 207.07401
-1.25032 12.8067 207.218
-0.89679998 13.1239 207.468
-0.92016202 14.6564 207.839
-0.87412697 14.6101 207.87601
-0.65928102 14.7754 207.89301
-0.668845 14.8525 207.864
-1.09681 14.31 207.731
-1.05051 14.2762 207.77
-1.3563401 13.7849 207.59801
-1.31075 13.7408 207.636
-1.74481 13.451 207.479
-1.7230901 13.3874 207.51401
-2.31266 13.1951 207.26401
-2.3092201 13.1239 207.295
-2.80124 13.0943 207.174
-2.793 13.024 207.20599
-2.95067 13.0849 207.17
-2.9423499 13.0153 207.19901
-2.9089 12.558 208.96899
-2.89433 12.5586 208.77
-3.0222099 12.5526 208.76801
-3.0414801 12.5521 208.964
-2.52898 12.671 208.95799
-2.51091 12.6449 208.842
-1.8902 12.958 209.132
-1.86116 12.9217 209.073
-1.3698601 13.304 209.254
-1.32786 13.2824 209.19
-1.1043 13.8223 209.38699
-1.05732 13.8131 209.328
-0.91913098 14.1632 209.493
-0.88360202 14.1342 209.43201
-0.58537602 14.3951 209.52901
-0.57841998 14.3467 209.46201
-2.8206 12.6399 207.989
-2.8069 12.5949 207.924
-2.94436 12.5874 207.92101
-2.95806 12.6324 207.98599
-2.9533899 12.6631 207.888
-2.94418 12.5891 207.916
-2.8071699 12.5989 207.92
-2.81584 12.6715 207.88901
-2.3735199 12.6924 208
-2.37989 12.7645 207.97099
-1.74684 12.9608 208.22701
-1.7766401 13.0277 208.19299
-1.27557 13.3075 208.341
-1.32098 13.3633 208.308
-1.00007 13.8407 208.47501
-1.05293 13.8828 208.439
-0.82448101 14.18 208.58
-0.86989498 14.2357 208.547
-0.57964301 14.3687 208.60699
-0.59790301 14.4398 208.575
-0.57733899 14.3683 208.61
-0.58873099 14.4128 208.677
-0.82226503 14.1787 208.58501
-0.86746699 14.2053 208.64799
-1.00025 13.8391 208.479
-1.05281 13.8529 208.537
-1.27575 13.3058 208.34599
-1.32086 13.3333 208.40601
-1.74942 12.9587 208.231
-1.78379 12.9957 208.293
-2.3756499 12.6881 208.00301
-2.3942299 12.7314 208.07001
-0.50427002 14.1364 208.52499
-0.500727 14.1383 208.536
-0.50010902 14.1313 208.541
-3.21313 15.8669 208.047
-3.3412199 15.2692 210.024
-3.5792201 15.2462 210.009
-3.47997 15.8385 208.03101
-2.4563 16.010099 208.166
-2.7524099 15.4136 210.033
-1.5323499 16.328199 208.41701
-1.74269 15.8187 210.052
-0.91652 16.692801 208.547
-0.89161801 16.218901 210.20399
-0.462919 17.249201 208.698
-0.42284101 16.7724 210.35699
-0.175612 17.6112 208.81599
-0.097910002 17.1467 210.476
0.206857 17.8291 208.85899
0.382177 17.387501 210.524
-0.64581603 14.4309 209.05099
-0.68807101 14.6424 208.27699
-0.95890498 14.4363 208.24001
-1.1539201 14.0715 208.12199
-1.40458 13.5641 207.996
-1.8093801 13.2452 207.892
-2.3828199 12.9938 207.67599
-2.8164699 12.9003 207.59599
-2.9611199 12.8916 207.592
-3.00051 12.6653 208.36301
-2.8678401 12.6721 208.36501
-2.47927 12.756 208.44
-1.87131 13.0191 208.664
-1.41034 13.3375 208.778
-1.15684 13.8366 208.914
-0.95854098 14.2038 209.02
-2.4656701 10.223 216.834
-1.83259 10.3694 216.868
-2.01086 10.1289 217.30901
-2.4446399 10.0094 217.323
-0.92963803 10.5733 217.067
-0.97559202 10.3426 217.508
-2.0852699 10.0569 217.88
-1.11581 10.2909 218.009
0.082312003 10.8272 217.715
-0.059680998 10.946 218.231
1.01645 11.4836 217.888
0.885638 11.5176 218.228
1.7702301 12.1523 217.95799
2.0295999 12.8831 218.082
1.6954401 12.2065 218.25
0.109731 10.9547 217.40401
1.01641 11.5774 217.634
1.7516299 12.1902 217.73199
2.19908 13.1758 217.82201
-0.97083801 13.6538 216.948
-1.77443 13.7089 216.853
-2.33285 14.0855 216.48801
-2.44118 14.1055 216.27
-2.2481201 14.1321 216.03
-1.82692 14.0324 215.974
-0.91942698 14.1027 215.791
-0.32309601 14.2951 215.84599
0.33995199 14.8378 216.136
0.58631301 15.2942 216.49001
0.648866 15.6596 216.717
0.72709501 15.1837 216.905
0.30872801 14.4109 217.052
-0.191471 13.9948 217.093
-0.56397802 13.7583 217.004
-0.89499497 12.2292 216.194
-0.99654597 12.3831 216.26801
-0.29996601 12.3383 216.349
-0.217934 12.1843 216.272
0.053208999 12.4279 216.395
0.0098540001 12.2427 216.308
0.238887 12.2999 216.332
0.37691399 12.6347 216.474
0.44066501 12.4732 216.39301
0.80886197 12.9927 216.44
0.86134201 12.823 216.36099
1.17237 13.6639 216.31
1.21278 13.475 216.235
1.1041501 14.077 216.14999
1.14846 13.8769 216.078
1.0486 13.7575 215.953
1.09583 13.5663 215.88699
0.83735502 13.3622 215.646
0.88707203 13.1823 215.58701
0.26321301 12.8927 215.392
0.375126 12.7584 215.35699
0.281959 12.693 215.327
-0.256093 12.726 215.34399
-0.124917 12.5857 215.3
-0.223507 12.54 215.29201
-1.04351 12.664 215.50301
-0.94027799 12.5037 215.448
-1.40746 12.7506 215.554
-1.29616 12.5869 215.49899
-1.57547 12.7279 215.75999
-1.4592 12.5667 215.701
-1.48204 12.7099 215.95
-1.36754 12.5478 215.884
-1.31504 12.6962 216.46899
-0.51189101 12.6435 216.564
-0.104587 12.7457 216.62
0.26756501 12.9853 216.707
0.765279 13.4001 216.668
1.18374 14.1737 216.519
1.10781 14.6493 216.334
1.04331 14.2812 216.105
0.79934198 13.8252 215.752
0.13638499 13.2833 215.46001
-0.45994601 13.0909 215.405
-1.36744 13.0206 215.58701
-1.78917 13.1218 215.647
-1.98453 13.0956 215.884
-1.8734601 13.0729 216.104
-6.4454598 30.045799 214.85699
-6.47856 29.998899 215.27
-6.0772099 30.142799 214.864
-6.3469601 30.232 213.552
-5.8368402 30.387899 213.63499
-6.3673801 31.1471 212.25999
-5.8380299 31.3032 212.375
2.3643899 21.881201 214.35201
2.49736 21.9429 215.77299
2.5722599 21.354 214.063
-1.20538 29.7495 213.061
-1.25187 29.6084 214.293
-0.78280997 29.5103 212.91701
-1.11352 30.1635 212.131
-0.51867801 29.6266 211.658
-4.5992298 30.535 217.532
-4.5634098 30.346901 216.217
-5.8239999 30.1901 216.121
-5.9198098 30.543501 217.57201
-0.302939 21.346901 207.213
0.1548 20.862101 207.97099
-0.209435 20.209299 207.145
-0.78327602 20.771099 206.60899
-1.09447 21.5249 205.586
-1.24735 20.2484 205.95399
-1.27428 18.9737 205.444
-1.92581 19.9503 205.47
-1.6370699 21.181299 205.05701
-2.34691 20.8895 204.755
1.46173 25.7889 214.216
1.1522 26.7236 214.642
1.01136 26.469299 216.11099
1.40046 25.557899 215.09
1.79146 24.9051 213.87801
-0.42070499 21.7988 206.283
0.056169 22.228001 206.83501
0.176659 21.955999 207.871
0.62580103 22.518101 208.563
1.13002 23.2714 209.16299
1.35725 22.490299 211.133
1.01746 22.105101 210.25101
0.89908397 12.9922 213.86301
1.0423 13.1403 213.24899
1.92211 13.7795 213.448
1.63008 13.5155 214.2
1.22144 13.3179 212.5
2.09236 14.0816 212.737
2.7778201 24.5748 215.16299
2.96264 25.266899 215.957
3.0837801 25.500299 215.98199
3.0146599 24.942801 215.229
2.97592 25.808599 216.899
3.0307901 26.018801 216.88
2.9222701 25.8689 218.479
3.01123 26.204599 218.436
2.83358 25.612499 219.673
2.9565599 25.930599 219.742
2.87465 25.268801 220.323
2.99086 25.5576 220.433
2.9014599 24.461201 220.87
3.0382199 24.6427 221.048
2.8873501 23.795099 220.97099
2.99283 23.8563 221.211
2.8432901 23.134501 220.813
2.9223399 23.1077 221.011
2.5827601 22.070299 220.16299
2.81759 22.1465 220.47501
0.66071498 21.561501 209.045
-0.51115501 19.5541 206.244
-0.73787898 18.9037 205.65601
-0.96415502 15.1128 204.062
-1.30969 14.7184 203.95799
-1.3651299 15.1079 203.959
-0.90770501 14.656 204.162
-2.07582 14.9421 203.862
-1.94868 14.5097 203.85899
-2.4558001 14.8869 203.83
-2.34605 14.3995 203.81599
-2.90395 14.8438 203.814
-2.8202801 14.3381 203.793
-0.60611498 15.0623 204.289
-0.97747499 13.837 204.599
-1.26905 14.3809 204.099
-0.586555 14.2722 204.629
2.34003 21.959 213.61501
2.2497399 22.345501 213.722
1.97642 22.4573 212.58501
2.21067 22.180799 212.44901
1.95714 22.183001 211.11501
1.89121 23.7675 220.649
2.11077 22.959 220.87801
2.0827401 22.971399 220.51199
1.97393 23.723 220.612
1.8653001 24.9081 215.995
1.6654 25.370199 215.655
1.7091 25.1408 217.02299
1.91523 23.807501 213.312
1.95907 24.631901 215.37
2.0150499 23.6294 214.30299
1.96104 24.8734 216.01199
2.0720699 24.5406 215.30499
1.79831 25.1038 216.98399
1.62444 24.9582 218.66
1.7111501 24.923401 218.64301
1.6258399 24.898701 219.34801
1.7121 24.859699 219.342
1.70313 24.629 219.98801
1.79011 24.5968 219.964
1.78804 24.157499 220.452
1.86136 24.1397 220.41701
2.6293499 24.532301 215.17799
2.4382401 23.7616 214.52699
2.3006301 24.535101 215.21001
2.6553299 24.997101 215.916
2.25669 24.948099 215.937
2.6354699 25.443199 216.924
2.1622701 25.2974 216.953
2.4856601 22.599501 217.46001
2.42941 22.589001 217.444
2.5638101 22.3398 217.823
2.3868501 22.635599 217.548
2.4613299 22.6612 217.83299
2.45872 23.1618 217.619
2.30234 23.062401 217.30299
2.30323 22.9118 216.13
2.13749 23.021601 216.24699
2.0546601 22.745701 216.28101
2.3009801 22.805 216.177
2.3643999 22.9132 216.08701
2.3650801 22.795401 216.121
2.00441 23.253599 216.38699
1.95559 22.9802 216.373
2.1956999 23.308399 216.295
2.2262199 23.4589 216.494
2.1150501 23.232201 216.911
2.25911 22.7668 216.312
2.4217999 22.792601 216.43201
2.4054401 23.3267 216.22701
2.0304999 22.7535 216.48801
2.2695999 22.746599 216.44
2.3166299 22.6819 216.925
2.33219 22.6714 217.036
2.49424 22.7316 217.03101
2.1726301 22.628901 217.03799
2.0787899 22.7143 216.793
2.1529701 22.817301 217.15601
2.0262899 22.924 216.90601
2.6022999 23.857 217.214
2.6335399 23.8871 216.545
2.7452199 24.056299 216.495
2.6595199 23.952999 217.257
2.4688699 23.628201 216.62601
2.6197701 23.3641 216.181
2.4277899 23.554199 217.088
2.4047 23.361099 217.438
2.57375 23.5721 217.618
2.8106 24.364 216.73801
2.4881201 24.4884 217.38901
2.59214 22.1063 217.263
2.65099 22.4247 217.429
2.59219 22.1339 217.67101
2.7063401 22.5665 217.013
2.5966499 22.2344 216.806
2.5948801 22.5375 216.504
2.5434599 22.335699 216.399
2.5092299 22.4354 216.02901
2.55758 22.6612 218.216
2.55181 23.314899 217.808
2.6645401 22.6485 217.02499
2.5460801 22.6693 216.506
2.61584 22.5128 217.465
2.6887801 21.840099 218.55701
2.7258799 21.8162 219.202
2.6208601 21.570101 219.412
2.67788 21.686701 218.51601
2.5669601 22.266899 217.73399
2.31566 23.031 220.569
2.2962101 21.9744 220.155
2.2360401 23.702801 220.67999
2.18029 24.1306 220.59599
2.0741301 24.7384 220.048
2.0263801 25.037399 219.438
2.0808899 25.169901 218.592
0.64519799 26.325899 222.858
0.81757599 25.8549 223.39101
1.48246 25.2195 221.965
0.032885 26.2638 224.64101
-0.36461401 27.2771 223.64
1.14268 26.3382 219.425
1.24973 25.8759 220.80901
2.44733 25.1716 219.53
2.56671 25.379299 218.532
3.1782801 23.280399 220.7
3.0581 24.175501 220.504
3.1777101 23.7805 220.81799
2.88767 22.4454 220.23199
2.9078 22.491199 220.254
2.93308 22.3897 220.265
2.7067101 21.993401 219.711
2.68961 22.0296 219.674
2.88236 22.422501 220.19701
2.3807199 21.976601 218.63901
2.6036899 22.3769 219.07001
2.5274799 21.9098 219.14799
2.43085 22.985901 218.593
2.4192801 22.9203 218.49001
2.4316199 23.756901 218.405
3.1710501 25.604601 219.535
3.12972 25.581499 219.489
3.17273 25.827999 218.422
2.4706399 22.368799 218.46899
2.4598701 22.369801 218.526
2.40133 21.9238 218.592
2.5336101 21.860901 219.14101
3.1315401 25.134501 220.177
3.1735899 25.1642 220.205
3.1924701 24.3332 220.645
3.23487 24.353399 220.685
3.2212601 23.7759 220.86301
3.20257 23.251801 220.72701
3.1581399 23.240999 220.66701
3.2999899 25.3641 219.351
3.3118801 24.961599 219.965
3.5385001 24.806 219.356
3.07985 25.108101 220.09
3.0866499 25.503901 219.373
3.30705 25.212099 220.233
3.29055 25.622 219.603
3.3053701 25.701401 219.625
3.3232601 25.249701 220.284
