# .PCD v.7 - Point Cloud Data file format
VERSION .7
FIELDS x y z
SIZE 4 4 4
TYPE F F F
COUNT 1 1 1
WIDTH 1738
HEIGHT 1
VIEWPOINT 0 0 0 1 0 0 0
POINTS 1738
DATA ascii
0.372605 4.2124801 125.208
0.49506 4.2028399 125.178
0.46046901 4.19101 125.146
0.626495 4.1656199 125.142
0.889121 4.0995202 125.074
0.57994699 4.1585598 125.094
0.83631599 4.0914798 124.998
1.26282 4.02389 124.967
1.22311 4.00985 124.859
1.61664 3.9665501 124.882
1.5712399 3.94712 124.745
1.91865 3.94752 124.82
2.22978 3.9653201 124.767
1.86498 3.92314 124.664
2.1749799 3.9317801 124.589
2.5405099 4.0334201 124.715
2.4865899 3.9855001 124.528
2.8032401 4.14147 124.66
2.9707401 4.2431698 124.62
2.7560301 4.0869198 124.464
2.95117 4.2028399 124.418
1.53277 3.93976 124.642
1.5093499 3.9407001 124.572
1.82701 3.9124801 124.542
2.13922 3.9223199 124.451
1.80103 3.91293 124.457
2.1119001 3.92346 124.356
2.44241 3.9711499 124.376
2.40505 3.97384 124.276
2.7062199 4.0692501 124.307
2.9147601 4.1977701 124.259
2.66401 4.07302 124.205
2.8808999 4.2069402 124.16
-7.39149 8.5177298 129.894
-7.4770498 8.5482702 130.24001
-7.5850101 8.6150103 129.875
-7.6827202 8.6471701 130.192
-7.8552599 8.6396399 129.83299
-7.99792 8.7078304 130.12801
-8.0985003 8.7341099 129.782
-8.2504902 8.8109798 130.056
-8.1473198 8.8931303 129.72
-8.2643204 8.9789896 129.99001
-8.0061197 9.0742598 129.742
-7.8742199 9.2544203 129.994
-7.91922 9.57897 129.864
-8.5405102 9.3889999 131.121
-8.3662701 9.2399502 131.25301
-8.2163 9.1873302 131.004
-8.2952003 9.2757702 130.845
-8.1333904 9.0036802 130.813
-8.1897898 9.0706396 130.72301
-8.1265602 8.87111 130.657
-8.2497702 8.9432602 130.59801
-7.7101598 8.7226 130.841
-7.8529401 8.8864298 131.114
-7.9072199 8.8181801 130.772
-8.0015802 8.9482603 130.951
-8.2306404 9.0527601 130.57201
-8.3686104 8.7865295 128.48801
-8.37218 8.7709799 129.01801
-8.2519503 8.7232199 128.51801
-8.0559597 8.6884403 128.026
-8.2389202 8.8060799 128
-7.8618999 8.7242804 127.84
-8.10779 8.8896303 127.792
-7.68471 8.8895702 127.802
-7.9589 9.0679798 127.736
-7.8759398 9.1400204 128.173
-7.6248102 9.0077105 128.10899
-7.61551 9.0043697 128.121
-7.8248701 9.1418896 128.22
-7.6219802 9.0514898 128.106
-7.60461 9.0069504 127.884
-7.8610401 9.1895199 127.834
-7.59832 9.02847 128.01199
-7.8415699 9.1921301 127.999
-7.6176701 9.0880003 128.114
-7.7909298 9.1966801 128.259
-7.5868902 9.0936098 128.09399
-7.7621799 9.2133799 128.26199
-7.5040998 9.1336699 127.992
-7.7009702 9.2516899 128.15199
-7.8850098 8.5741396 128.476
-7.9972401 8.6111202 128.845
-7.8796101 8.5753899 128.817
-7.6593599 8.5431499 128.783
-7.64746 8.5387802 128.327
-7.47434 8.5521297 128.785
-7.4598699 8.6030397 128.325
-7.3990002 8.5669403 128.799
-7.3762798 8.6482496 128.342
-7.3604398 8.5562801 128.84
-7.3194799 8.6360903 128.373
-7.27314 8.50667 128.88699
-7.3406 8.9869804 127.941
-7.2083302 8.7605104 128.02901
-7.2107201 8.4583197 128.91701
-7.33008 8.5056696 129.487
-7.9918098 9.0875196 131.75301
-8.1783895 9.2952404 132.194
-7.1644702 8.5460997 128.34801
-7.4615302 8.5854597 129.26601
-7.9496598 9.0351696 131.453
-8.4138699 9.8226004 128.87199
-8.0555096 9.52209 128.481
-8.7547398 9.1276703 131.89301
-8.7750301 9.2695198 131.916
-8.8963604 9.2061701 132.26401
-8.9056702 9.0922499 132.24699
-8.9746199 9.0938196 129.461
-9.3863201 9.3739004 129.588
-8.6071701 8.8839302 129.248
-8.1474304 8.6717596 128.638
-8.2178698 8.7230101 128.985
-8.7588701 9.6412802 130.938
-8.7769899 9.7437601 131.29201
-8.6319904 9.5236101 131.493
-8.6712599 9.52952 131.19701
-8.6802902 9.4004402 131.51401
-7.4874701 8.9948502 128.034
-7.3236299 8.7881603 128.08701
-9.15028 9.2289495 132.608
-9.1722202 9.1295795 132.619
-9.4740801 9.3507004 132.8
-9.4990196 9.2643404 132.83501
-9.8526602 9.5623398 132.761
-9.8999395 9.5014696 132.80901
-10.1872 9.7788095 132.533
-10.2404 9.7321901 132.578
-10.3896 9.9623899 132.209
-10.4614 9.91786 132.235
-10.516 10.0911 131.543
-10.6054 10.0685 131.55299
-10.4941 10.1001 130.849
-10.5892 10.0978 130.83501
-10.3009 9.9687405 130.06599
-10.396 9.9749498 130.02299
-8.3538504 9.5187502 132.49001
-8.37257 9.5296402 132.399
-8.5582504 9.7384195 132.45
-8.5598803 9.7719402 132.549
-8.7889605 9.9870596 132.39101
-8.7884703 10.0486 132.442
-9.0032501 10.2297 132.194
-8.9894896 10.3141 132.207
-9.11905 10.4077 131.89101
-9.0942898 10.495 131.88499
-9.1647596 10.529 131.44
-9.1309795 10.6024 131.43201
-9.1691904 10.5753 130.98801
-9.1379499 10.6428 130.98
-9.1249599 10.5292 130.46899
-9.1046896 10.6021 130.467
-8.10501 9.4848299 128.623
-8.4330797 9.7819901 128.995
-8.7311697 10.0755 129.42999
-8.7307196 10.1412 129.37
-8.9780798 10.4474 129.935
-8.9892998 10.3698 129.96001
-7.5131001 8.5980997 129.58701
-7.4424801 8.8740597 128.08299
-8.8706903 9.4884996 132.061
-8.8048496 9.6473703 131.842
-9.0299196 9.8696003 131.54201
-9.1186304 9.6465502 131.718
-8.1311998 9.1060495 131.567
-8.0644398 9.1118097 131.661
-8.0275602 9.0551205 131.30499
-8.3537598 9.4958096 132.37
-7.4474301 8.8282099 128.03101
-7.5267401 8.7306299 127.986
-7.6009898 8.6222897 130.60001
-7.8101501 8.7174597 130.55701
-8.0346699 9.1150503 131.701
-8.1989202 9.21984 132.06599
-8.1834002 9.25881 132.10201
-8.2443399 9.1410503 132.03
-8.3524103 9.4291601 132.38901
-8.3537903 9.2695103 132.427
-8.3612099 9.3548498 132.411
-8.5182505 9.4081297 132.692
-8.5580902 9.5047998 132.605
-8.7899303 9.6000299 132.935
-8.8276901 9.6767597 132.759
-8.0682802 9.2677298 130.386
-8.1332598 9.23839 130.51401
-8.3043098 9.0371904 130.321
-8.2289696 8.9788504 129.314
-8.3528004 8.9963102 129.38901
-8.2921896 9.2958803 129.474
-8.4553003 9.3776302 129.58299
-8.5290804 9.0561895 129.539
-8.35567 9.1486397 132.39301
-9.6419201 10.3505 130.98801
-9.8737202 10.4363 130.96899
-9.7239599 10.2107 130.319
-9.5439701 10.1817 130.39101
-9.9300499 10.501 131.577
-9.6668701 10.409 131.52499
-9.6113701 10.3511 132.03999
-9.8673697 10.4552 132.187
-9.71064 10.3 132.552
-9.4825897 10.2364 132.36301
-9.4129601 10.0684 132.77699
-9.2792902 10.0718 132.552
-8.9978704 9.8956299 132.631
-9.0807505 9.8522596 132.83299
-8.7949305 9.7638798 132.617
-8.5615797 9.5870199 132.528
-9.3317604 10.3518 130.43201
-9.4112701 10.4388 130.98599
-9.4268799 10.4258 131.48
-9.3709202 10.3258 131.96201
-9.21486 10.1521 132.31799
-8.8417101 9.9061899 132.491
-8.5547304 9.6886702 132.46001
-9.9249296 10.3989 130.188
-10.121 10.6056 130.918
-10.3471 10.6299 130.875
-10.1247 10.4269 130.093
-10.5907 10.4484 130.845
-10.3596 10.2658 130.01601
-10.65 10.2076 130.832
-10.4397 10.0675 129.991
-10.0893 9.8843403 130.845
-9.9177399 9.7131596 130.14
-9.8793297 9.8046198 130.892
-9.7059002 9.7335701 130.216
-9.7239704 9.8806295 130.89
-9.5246201 9.9082203 130.35699
-9.6032495 9.9631205 130.832
-9.3721399 10.0164 130.877
-9.2381001 9.9878998 130.51401
-10.1805 10.66 131.605
-10.4192 10.662 131.619
-10.6624 10.4591 131.614
-10.6963 10.1915 131.58299
-10.1065 9.9390402 131.392
-9.7179899 9.7803898 131.233
-9.5848103 9.8818598 131.099
-9.8938398 9.7707596 131.327
-10.1099 10.6031 132.302
-10.3415 10.5796 132.37199
-10.5566 10.362 132.381
-10.5751 10.0725 132.315
-10.0104 9.9174204 131.873
-9.7944698 9.7337704 131.634
-9.5866499 9.6532497 131.533
-9.9168501 10.4164 132.73599
-10.1204 10.3834 132.85699
-10.2993 10.1626 132.884
-10.3303 9.8860102 132.743
-9.8254805 9.89007 132.196
-9.6304398 9.7093897 131.827
-9.4447298 9.7613602 131.392
-9.5368204 10.1291 133.011
-9.6939497 10.0561 133.174
-9.8539 9.8236303 133.19701
-9.9254599 9.5896196 133.002
-9.5243902 9.8271303 132.48199
-9.3717899 9.6037197 132.06599
-9.2251997 9.5092297 131.783
-9.2596302 9.9567499 131.274
-9.1189404 9.8258495 133.06799
-9.1793604 9.6738501 133.222
-9.3076401 9.4456701 133.226
-9.4374304 9.2744598 133.01801
-9.30371 9.6785603 132.64101
-8.7867298 9.40275 133.037
-8.8852396 9.1915302 132.98399
-9.0713501 9.0963202 132.77299
-9.1451302 9.4881401 132.394
-8.9681396 9.37465 132.12
-8.4986696 9.2373304 132.715
-8.5897102 9.0561104 132.582
-8.7695503 9.0048304 132.367
-8.77001 9.3348799 132.323
-9.0222998 9.9637003 131.017
-8.9681196 9.8587704 130.71201
-8.3224897 9.0698404 131.791
-8.4495096 9.0067196 132.222
-8.4868202 9.11759 131.62601
-8.6145802 9.00879 132.011
-8.6287603 9.2490797 131.515
-8.6465397 9.4103804 131.992
-8.2238197 9.15168 131.39799
-8.1159096 9.1177197 131.146
-8.8189201 9.8203897 130.494
-9.0697098 9.9254103 130.24001
-8.6153202 9.7912102 130.293
-8.8679104 9.8506098 130.02299
-8.1945295 9.2643499 130.664
-8.3929396 9.56738 130.511
-8.5753098 9.5894804 130.68201
-8.2417002 9.49786 130.39301
-8.1072702 8.7804203 130.464
-8.3178101 8.8885803 130.382
-8.0107203 8.7914305 129.474
-7.948 8.6582499 129.519
-7.7337298 8.6006603 129.562
-7.6803298 8.5748501 129.274
-7.9171901 8.5886698 129.12199
-7.9888201 8.6676903 129.12399
-8.0595598 8.6802101 128.991
-7.9918299 8.7578497 129.16
-8.0278301 9.0238504 129.35899
-8.1132002 8.9789801 129.26801
-8.1856298 9.4517097 129.619
-7.7216101 8.5941801 128.01601
-7.9534898 8.6082296 128.177
-8.1528597 9.4461603 128.569
-8.2399797 9.3790798 128.467
-8.3059797 9.3573103 128.35001
-8.3658199 9.4146099 128.13699
-8.4538498 9.4141397 127.965
-8.5788498 9.2665901 127.891
-8.6598597 9.0776901 127.987
-8.6759005 8.9759398 128.213
-8.3851404 9.5916004 129.73399
-8.6028299 9.7147999 129.82899
-8.7432299 9.5251999 129.69901
-8.5324898 9.7040396 128.92999
-8.6680002 9.5954399 128.81799
-8.7579498 9.5773697 128.696
-8.87854 9.6202602 128.463
-9.0225801 9.6007099 128.28
-9.1675396 9.4481897 128.209
-9.26929 9.3035603 128.37199
-9.1471395 9.2096996 128.56
-8.8778696 9.9269896 129.369
-9.0341702 9.7729902 129.27699
-9.1420202 9.7564497 129.155
-9.29743 9.8261299 128.888
-9.4566402 9.8100595 128.69901
-9.6167097 9.6690102 128.608
-9.6868601 9.5333099 128.64799
-9.6613302 9.4810104 128.743
-9.5938902 9.4591103 128.912
-8.8616505 9.2447395 129.68401
-9.2523699 9.50669 129.778
-9.1078701 9.6995201 129.847
-9.5240002 9.6405697 129.959
-9.3441496 9.8180799 130.05901
-9.1686897 10.1646 129.908
-9.3459101 9.9619598 129.84
-9.4870996 9.9579496 129.73
-9.6685305 10.1022 129.502
-9.8414097 10.1141 129.34399
-10.041 9.97052 129.237
-10.1203 9.8156004 129.228
-10.0786 9.7484503 129.297
-10.0047 9.7352304 129.401
-9.6950102 9.5423899 129.80299
-8.1660995 9.6251602 130.062
-7.95752 9.1790705 129.60899
-8.4118204 9.6799297 130.117
-7.9835901 8.9269304 129.526
-0.63082498 6.9127202 120.856
-0.31905901 6.70542 120.817
-0.190781 4.6530099 121.615
-2.0272999 4.2091599 131.01601
-1.47918 4.1248298 130.631
-1.14101 4.1305099 130.466
-0.77230102 4.1648302 130.327
-0.399304 4.22399 130.226
1.1286 4.8001199 130.19
2.09725 5.01296 130.68401
2.21574 4.9524398 131.69901
2.19877 4.7465901 131.94
1.94609 4.3032098 132.29601
1.27319 3.8649299 132.651
0.64800501 3.64153 132.853
-0.122255 3.5162599 132.995
-0.82363403 3.52104 132.961
-1.43094 3.63411 132.853
-1.89821 3.83496 132.78
-2.2722499 4.04741 132.717
-2.5130301 4.2544098 132.304
-2.55159 4.3074098 132.147
-2.5050099 4.3665099 131.709
-2.41764 4.3445501 131.532
-2.3053701 4.30475 131.349
-1.39185 4.2228599 131.61
-1.32848 4.2170401 131.58501
-1.35175 4.2235198 131.55299
-1.48203 4.2420502 131.58501
-1.46346 4.2360702 131.642
1.0937099 5.3038998 131.146
1.12966 5.3020902 131.161
1.16668 5.3018198 131.105
1.10597 5.3027902 131.10201
1.2485 5.2987299 131.093
1.2460099 5.2929502 131.02699
1.14613 5.2950401 131.041
-1.32568 4.1925502 131.161
-1.4733599 4.2279701 131.313
-1.3872401 4.2131901 131.334
-1.25849 4.1792002 131.201
-1.30813 4.1961598 131.338
-1.2023 4.1714001 131.226
-1.18188 4.1704302 131.30299
-1.42801 4.2357502 131.493
-1.30949 4.2130299 131.451
-1.37613 4.2232699 131.422
-1.46735 4.24192 131.42
-1.53889 4.2557702 131.49699
-1.57066 4.2589798 131.407
-1.65227 4.2740402 131.489
-1.7627701 4.2330198 131.147
-1.58755 4.19171 130.972
-1.5872101 4.2404199 131.254
-1.42893 4.2027402 131.086
-1.6989599 4.2747202 131.368
-1.79412 4.2933998 131.468
-1.88748 4.2743802 131.28799
-1.99743 4.3017602 131.42101
-1.60195 4.1665301 131.85001
-1.53606 4.2172098 131.774
-1.64979 4.2219701 131.79401
-1.79549 4.1835799 131.85899
-1.74625 4.10918 131.944
-1.80261 4.2687302 131.742
-1.8037 4.23454 131.79401
-1.66789 4.25805 131.74001
-1.6831599 4.2792001 131.686
-1.56918 4.25844 131.68201
-2.2305601 4.1687698 132.117
-2.25178 4.2185302 131.99899
-1.99463 4.1525798 131.966
-1.99942 4.20614 131.877
-1.94463 4.0718398 132.08501
-2.15854 4.0874801 132.26401
-2.2224901 4.29037 131.80499
-2.1694701 4.3080802 131.69099
-1.96595 4.2760801 131.737
-1.92896 4.2920399 131.65601
-1.78982 4.2841601 131.69299
-1.76118 4.28579 131.62801
-1.63231 4.2720799 131.58701
-1.9886301 4.2467699 131.80701
-2.2458 4.2575798 131.90199
1.2906899 5.0950398 130.52
1.53951 5.1531701 130.627
1.03134 4.9669299 130.43201
0.71883798 4.7635398 130.368
0.36062601 4.5541501 130.33701
-0.011637 4.3896098 130.356
-0.36221501 4.2851601 130.407
-0.69349802 4.21521 130.48599
-1.02074 4.1779699 130.60899
-1.32973 4.1719699 130.77901
-2.09377 4.31358 131.55901
-1.9932801 3.9689801 132.427
-0.83432299 3.6345 132.543
-0.746346 3.5690999 132.726
-0.53058201 3.6162801 132.59599
-0.181275 3.6265299 132.631
-0.078354001 3.57973 132.782
0.141912 3.6872699 132.631
-0.852557 4.3835101 131.306
-0.99399602 4.40345 131.41499
-0.81765699 4.31071 131.30701
-0.97148103 4.3240299 131.42
-0.79171503 4.2320199 131.295
-0.96201199 4.2381701 131.41299
-0.79111499 4.1784 131.28
-0.97116703 4.1891799 131.408
-0.811243 4.1537499 131.25
-0.99874902 4.1673198 131.38901
-0.86187398 4.1439099 131.194
-1.06205 4.1606898 131.351
-0.94042099 4.1450901 131.10899
-1.00288 4.15379 131.04201
-1.0501 4.1631699 131
-1.10732 4.1732502 130.95
-1.19893 4.1817298 130.87601
-1.06749 4.4277601 131.48199
-1.12391 4.4562201 131.52299
-1.04792 4.3413801 131.487
-1.05669 4.2532201 131.491
-1.09856 4.36028 131.528
-1.11226 4.2714601 131.532
-1.07551 4.2147102 131.492
-1.1099499 4.2004499 131.48
-1.1363699 4.2323198 131.533
-1.17252 4.2192898 131.53
-1.1819299 4.1985798 131.46001
-1.24078 4.2190399 131.52901
-1.72006 4.2816501 131.565
-1.87238 4.2979298 131.565
-1.1558 4.4605598 131.548
-1.1653 4.4572001 131.556
-1.12514 4.35991 131.54601
-1.1393501 4.2684002 131.547
-1.13185 4.3467898 131.54601
-1.1445301 4.2502999 131.55099
-1.16678 4.2263198 131.549
-1.20047 4.21595 131.554
-1.16872 4.2086 131.561
-1.19691 4.1950498 131.575
-1.25796 4.2140198 131.565
-1.24473 4.1887698 131.60001
-1.3059 4.1925201 131.632
-1.37247 4.2042398 131.672
-1.43927 4.21596 131.718
-1.14807 4.4492202 131.57001
-1.0501699 4.40764 131.634
-1.11064 4.33425 131.55299
-1.11835 4.2294798 131.562
-1.02169 4.3133101 131.591
-1.02221 4.2012801 131.593
-1.1338201 4.18504 131.57899
-1.15497 4.1666398 131.603
-1.03018 4.1547699 131.61099
-1.0470099 4.1325302 131.63499
-1.19294 4.1528001 131.65199
-1.24081 4.15307 131.707
-1.07516 4.1085901 131.715
-1.10648 4.1061401 131.791
-1.2962199 4.1680002 131.75999
-1.3479 4.1753502 131.80901
-1.14472 4.1197 131.854
-1.17206 4.11766 131.90601
-1.39899 4.1479101 131.858
-1.20049 4.0632 131.955
-1.47641 4.0788298 131.933
-1.61134 4.0041699 132.05499
-1.26305 3.9705 132.03999
-1.37466 3.88025 132.17599
-1.7894 3.96104 132.22501
-1.52583 3.8282299 132.349
-1.70976 3.81652 132.547
-0.90713298 4.3719702 131.718
-0.86835301 4.29106 131.65199
-0.834737 4.1801901 131.63901
-0.83093899 4.1299801 131.658
-0.839454 4.1012602 131.69501
-0.861938 4.0760999 131.78101
-0.88708198 4.0637102 131.862
-0.911035 4.0707102 131.931
-0.92174202 4.0636902 131.98801
-0.93305498 3.9808199 132.03999
-0.98136401 3.86972 132.146
-1.07112 3.76826 132.28999
-1.18686 3.7054 132.45399
-1.30337 3.66573 132.644
-0.70393401 4.36759 131.811
-0.649589 4.2988501 131.72
-0.59025902 4.18887 131.7
-0.57326102 4.1336498 131.722
-0.58427799 4.0949502 131.772
-0.60093999 4.0657501 131.85001
-0.62113601 4.0519199 131.922
-0.64175498 4.0552001 131.991
-0.64954698 4.04073 132.048
-0.64926201 3.9367001 132.101
-0.68803197 3.8166399 132.23
-0.75804698 3.7088499 132.381
-0.486494 4.3787999 131.843
-0.42535201 4.3158102 131.76601
-0.35654399 4.2143898 131.754
-0.33656201 4.1663499 131.776
-0.33203599 4.1294198 131.827
-0.33755401 4.0988698 131.89799
-0.35129401 4.0798202 131.97
-0.36889401 4.0770602 132.037
-0.37492999 4.0536499 132.091
-0.36678699 3.94279 132.14799
-0.393922 3.8182199 132.28799
-0.450176 3.70156 132.437
-0.24620201 4.4463 131.862
0.0077300002 4.5387201 131.856
-0.184062 4.3796 131.793
-0.109039 4.2772899 131.78799
0.065030999 4.46736 131.799
0.141813 4.3675199 131.802
-0.083297998 4.2311001 131.811
-0.073591001 4.1991801 131.856
0.174053 4.3221898 131.825
0.19369 4.2873998 131.866
-0.066719003 4.1675301 131.922
-0.069657996 4.1444898 131.994
0.206496 4.2537498 131.929
0.205129 4.2339101 132
-0.086138003 4.14046 132.06599
-0.095123999 4.1147599 132.119
0.189439 4.23594 132.07401
0.18548299 4.2143798 132.125
-0.076756001 3.9945099 132.17101
0.22042701 4.0904102 132.172
-0.086992003 3.8678401 132.30901
-0.126729 3.7377801 132.46001
0.232939 3.96435 132.295
0.20848 3.82305 132.44701
0.51824802 3.6711099 132.75
0.53288001 3.7971001 132.577
0.24829701 4.65869 131.82401
0.45383099 4.81389 131.75301
0.29547501 4.5859799 131.778
0.378907 4.4797201 131.785
0.495175 4.7543402 131.713
0.57548898 4.6492701 131.716
0.416044 4.4327302 131.80499
0.436836 4.3985 131.842
0.614097 4.6027699 131.73399
0.64721799 4.56428 131.771
0.44168401 4.3645301 131.907
0.43806601 4.3443198 131.98
0.65803701 4.52283 131.839
0.66105503 4.4959798 131.916
0.41995201 4.3478398 132.05701
0.41544801 4.3295202 132.11099
0.65214801 4.4937701 131.99899
0.65798199 4.47399 132.062
0.48385701 4.2107201 132.15601
0.74322498 4.3501401 132.118
0.53970599 4.0932598 132.263
0.552481 3.9521 132.39999
0.82595599 4.2354698 132.215
0.87583703 4.1115398 132.33
0.89976001 3.9537101 132.476
0.85959202 3.79843 132.658
0.592915 5.0796399 131.638
0.66517901 5.3454299 131.5
0.62764698 5.0118899 131.59399
0.71130401 4.89994 131.58701
0.69257897 5.2442002 131.45799
0.77214301 5.12568 131.459
0.74820799 4.8597598 131.601
0.78738898 4.82021 131.634
0.80777198 5.0865798 131.468
0.84204 5.05022 131.494
0.81895101 4.7535 131.71001
0.82837701 4.6939602 131.804
0.88733602 4.9768901 131.573
0.91814101 4.9128399 131.662
0.833646 4.6638899 131.895
0.85998499 4.6270099 131.967
0.94089699 4.8663702 131.755
0.98585099 4.8119998 131.834
0.95960999 4.5068302 132.041
1.09866 4.69524 131.918
1.0645601 4.3940201 132.138
1.1443599 4.2793498 132.23399
1.22544 4.5820899 132.017
1.3408 4.4693599 132.108
1.21272 4.1438799 132.35001
1.25287 4 132.494
1.4572999 4.3477702 132.21201
1.56783 4.21175 132.33299
0.73237699 5.4756398 131.395
0.77109498 5.5486398 131.311
0.75608802 5.3710399 131.36
0.82707101 5.2388101 131.36301
0.79647303 5.4456601 131.29201
0.869452 5.2922001 131.293
0.85706502 5.19981 131.373
0.88419002 5.1733599 131.401
0.898067 5.2467098 131.30299
0.91770101 5.22931 131.323
0.92148101 5.1269102 131.46899
0.96044898 5.0745301 131.543
0.94957101 5.20403 131.377
0.98469901 5.1768498 131.438
0.99686801 5.03443 131.621
1.04566 4.9898 131.688
1.02706 5.15271 131.506
1.07853 5.1242499 131.569
1.1678801 4.8844099 131.771
1.19779 5.0426002 131.63499
1.32133 4.78057 131.87399
1.47595 4.67589 131.965
1.37096 4.9531398 131.731
1.55734 4.86342 131.821
1.63783 4.5636702 132.064
1.8002501 4.4387398 132.177
1.75466 4.76335 131.916
1.93753 4.6531601 132.01801
0.811414 5.5995302 131.24001
0.86621499 5.6016898 131.17799
0.84055901 5.4766402 131.233
0.91321403 5.3236799 131.24001
0.890652 5.4756899 131.18401
0.95207298 5.3371701 131.194
0.94152099 5.2780299 131.248
0.95850599 5.26478 131.26601
0.98161602 5.2968001 131.20599
0.99933898 5.2873201 131.222
0.98189998 5.24898 131.30701
1.01021 5.23417 131.35699
1.02075 5.2789202 131.254
1.0443799 5.2708101 131.293
1.05277 5.2220402 131.409
1.10528 5.2088299 131.45799
1.0811 5.2687702 131.33
1.1336 5.2649102 131.36501
1.21814 5.15837 131.51401
1.24149 5.2402902 131.408
1.39773 5.0949202 131.593
1.60787 5.0220599 131.677
1.413 5.19663 131.46001
1.62063 5.1538401 131.517
1.81829 4.9449201 131.757
2.0113599 4.85151 131.841
1.84032 5.09868 131.578
2.0448999 5.0255599 131.63901
0.91645098 5.5921698 131.123
0.94863802 5.5767598 131.086
0.93391103 5.4689298 131.13901
0.98591602 5.3463101 131.15199
0.96421099 5.4596601 131.106
1.0083899 5.3536401 131.12
1.01721 5.3073201 131.164
1.0367301 5.3002901 131.17799
1.04381 5.3150702 131.129
1.06373 5.30828 131.13499
1.06059 5.29567 131.201
1.08714 5.29287 131.231
1.12586 5.2955899 131.259
1.18723 5.2968202 131.282
1.17366 5.3030601 131.17599
1.24036 5.30264 131.187
1.28064 5.28439 131.304
1.32806 5.30024 131.19501
1.42637 5.2693501 131.33
1.61019 5.2455401 131.35201
1.4344 5.2973499 131.19501
1.57306 5.28826 131.189
1.82701 5.2055502 131.381
2.0445099 5.1507702 131.41701
1.78417 5.2646198 131.18401
2.01246 5.2041602 131.185
0.96095401 5.5666599 131.07201
0.95974803 5.5726399 131.06799
0.974733 5.45436 131.093
1.01765 5.3540502 131.103
0.97237498 5.4628501 131.086
1.01238 5.3596201 131.095
1.05221 5.3164401 131.10699
1.06971 5.3091602 131.10699
1.04155 5.3192101 131.095
1.05653 5.3098001 131.08701
1.08871 5.2997999 131.069
1.317 5.2989802 131.092
1.40207 5.30304 131.08
1.51675 5.3003702 131.063
1.3176399 5.2954001 130.998
1.4078799 5.29843 130.97
1.70587 5.27666 131.02299
1.9442 5.2000399 130.97099
1.56896 5.2750502 130.901
1.83837 5.1434102 130.744
0.93160701 5.5887599 131.05701
0.85370201 5.5901098 131.049
0.94953698 5.4784198 131.078
0.99468601 5.3643398 131.08501
0.88808101 5.4849401 131.08
0.94190502 5.3589201 131.08299
1.0131 5.3280001 131.08
1.0250601 5.31216 131.067
0.963153 5.3196502 131.075
0.973032 5.2941599 131.05499
1.04699 5.2958999 131.036
1.08514 5.2835598 130.991
0.98581702 5.2652502 131.006
1.00679 5.2416101 130.942
1.14424 5.2736502 130.952
1.0381 5.21802 130.88699
1.1944 5.2685399 130.923
1.25433 5.2707 130.88699
1.06537 5.2039599 130.84599
1.09986 5.1987801 130.799
1.36848 5.2592001 130.799
1.17066 5.1912498 130.7
0.71059102 5.4842701 131.07001
0.75788599 5.3745599 131.091
0.81249797 5.2613702 131.078
0.84016699 5.20925 131.05901
0.85721201 5.1779699 131.03
0.878591 5.1424699 130.967
0.89749599 5.1070199 130.87399
0.90810603 5.08076 130.8
0.91387898 5.0635099 130.748
0.92491299 5.0559602 130.69701
0.96019399 5.0423498 130.604
0.564574 5.2268 131.021
0.61141902 5.1415701 131.03101
0.66451401 5.0559402 131.004
0.69853598 5.0082202 130.98199
0.71983701 4.9762902 130.953
0.73957002 4.94029 130.888
0.74003297 4.9057698 130.776
0.718252 4.8849201 130.69299
0.69960999 4.8688302 130.64
0.69387698 4.8537502 130.592
0.69837499 4.8298998 130.51601
0.39650601 4.8976302 130.968
0.44112 4.8263898 130.965
0.48536801 4.7606301 130.936
0.50941098 4.7289801 130.911
0.521725 4.7088299 130.879
0.52219999 4.6859899 130.80901
0.48981801 4.67555 130.69299
0.44922999 4.6658101 130.612
0.42212901 4.6524701 130.562
0.401815 4.6382899 130.521
0.38177601 4.6133199 130.459
0.142886 4.6548901 130.959
0.18500701 4.5899501 130.94901
0.227662 4.53128 130.922
0.250974 4.4983602 130.895
0.25634801 4.4813199 130.856
0.24059799 4.4689298 130.78101
0.19437499 4.47119 130.67101
0.14632501 4.4713802 130.59
0.111837 4.4661598 130.545
0.081060998 4.4572902 130.509
0.039558999 4.4374299 130.457
-0.121347 4.4933701 131.004
-0.075990997 4.4288301 130.994
-0.035264 4.37288 130.966
-0.016696 4.33742 130.931
-0.020302 4.3235102 130.892
-0.046613 4.3157902 130.817
-0.102682 4.3192 130.70799
-0.15787099 4.32302 130.631
-0.198163 4.3227401 130.586
-0.237598 4.32059 130.549
-0.29409 4.3133602 130.496
-0.37430599 4.4106302 131.09
-0.327889 4.3460202 131.07899
-0.289139 4.2862902 131.05299
-0.27564499 4.2453699 131.017
-0.285712 4.2274899 130.97701
-0.32477701 4.21731 130.903
-0.39267701 4.22121 130.795
-0.453545 4.22682 130.718
-0.496337 4.2288499 130.67
-0.540465 4.2323298 130.627
-0.60683501 4.2367501 130.571
-0.65402198 4.3867402 131.19901
-0.60661203 4.3183298 131.192
-0.560305 4.2481899 131.16499
-0.54856199 4.1997199 131.13901
-0.56212997 4.1781301 131.103
-0.60459101 4.1659002 131.034
-0.67774498 4.1655102 130.92799
-0.73930299 4.16956 130.853
-0.78438002 4.1756902 130.80499
-0.83391398 4.1838799 130.757
-0.91180801 4.1921802 130.694
2.73983 4.4713702 125.048
2.6321399 4.4431601 125.069
2.32078 4.3472199 125.14
1.9253401 4.2746902 125.206
1.70717 4.28263 125.221
1.40777 4.2954502 125.232
0.87734902 4.3235402 125.251
0.73605502 4.3527699 125.266
0.59003103 4.36201 125.274
0.47412801 4.4039302 125.297
0.62255198 4.3327298 125.267
1.03223 4.3031998 125.259
1.39323 4.3235502 125.252
2.3900499 4.5876598 125.165
2.55356 4.6538701 125.136
2.69048 4.7282701 125.115
0.337228 4.5276499 125.302
0.35113901 4.5141201 125.331
2.50354 4.6184201 125.143
2.6093299 4.6578698 125.121
2.3686399 4.5638499 125.169
2.2024601 4.4841499 125.207
2.0265701 4.4219699 125.242
1.81112 4.3944502 125.265
1.5944901 4.3953199 125.287
1.30998 4.3997402 125.312
0.99852002 4.3933201 125.326
0.80696201 4.4101901 125.341
0.66584098 4.44418 125.341
0.53245699 4.47999 125.347
0.41827899 4.5070701 125.348
0.391864 4.4873099 125.262
0.467749 4.4622502 125.243
0.583803 4.4225998 125.236
0.70078897 4.3877602 125.245
0.96283102 4.3758998 125.243
1.29777 4.3902998 125.234
1.54625 4.4236102 125.22
1.76573 4.48769 125.211
2.0118699 4.57271 125.199
2.29124 4.6877398 125.169
2.4602699 4.7589998 125.142
2.60027 4.8382001 125.117
2.7248399 4.7139201 125.1
2.7493401 3.4036 127.842
2.4363999 3.4658401 127.801
2.50722 3.48686 127.649
2.3337901 3.6868801 127.452
2.40769 3.74368 127.432
2.3471701 3.82093 127.383
2.0434799 3.89854 127.37
1.90219 4.1085901 127.328
1.85633 4.1557298 127.296
1.76998 4.1217699 127.171
2.4026201 4.1132002 126.913
2.70715 4.1052699 126.71
2.7843001 4.1588402 126.941
3.0416601 4.2059598 126.946
3.14539 4.2636099 126.873
-9.6706305 19.0564 133.367
-5.4183798 14.0371 141.31
-3.45171 11.6082 141.67
-2.48017 10.3838 141.59399
-1.8369499 9.6014795 141.431
0.54812902 6.3168602 139.582
1.3639899 5.1517301 137.81
0.53152603 4.9201398 137.83701
1.06521 4.2456398 135.547
1.22771 4.0834999 134.69901
1.3640701 3.7690899 133.741
1.3544 3.677 133.367
1.8231601 3.9633999 132.62199
2.0746 4.1982899 132.427
2.34025 4.7321601 131.974
2.36199 4.8984799 131.752
2.42623 5.0008202 131.205
2.4280901 4.9210701 130.88
2.37972 4.75598 130.467
1.75124 4.70925 130.07201
1.8134201 4.5008202 129.756
1.87046 4.3537698 129.453
1.99551 4.2307601 128.987
2.06113 4.1988602 128.804
2.1625199 4.0419998 128.52901
2.2255299 3.73949 128.27
2.25528 3.5943899 128.089
2.6897399 3.6593399 128.502
2.5547099 3.84356 128.612
2.5980301 3.8803301 128.71899
3.0044701 3.35782 127.752
2.81288 3.40486 127.724
2.94031 3.35642 127.869
2.8924999 3.3769 128.033
2.8654101 3.4235301 128.213
2.6682601 3.5554099 128.351
2.8850901 3.4776001 128.381
3.0692899 3.3422501 128.245
3.0780001 3.3094101 128.061
3.9639201 3.32602 128.571
3.9173601 3.4052501 128.69299
3.77843 3.2628601 128.569
3.7292399 3.3405001 128.689
3.6070499 3.21679 128.49899
3.50211 3.31006 128.633
2.8691199 3.7071099 128.73599
2.85044 3.6607299 128.634
3.2366099 3.3903301 128.592
3.3292201 3.28105 128.455
3.2983999 3.2298601 128.076
3.3006101 3.2407801 128.272
3.09694 3.3808899 128.41701
3.08986 3.5458 128.71899
2.93152 3.5350299 128.52901
3.9965 3.2588401 128.44501
3.8069401 3.2056201 128.459
3.5701399 3.16243 128.29401
3.5552199 3.15611 128.08
3.81727 3.1524501 128.287
3.7907 3.14311 128.064
4.0153298 3.20099 128.267
3.98805 3.1921501 128.02901
2.16787 4.12957 132.57401
2.24088 4.0527902 132.808
1.86009 3.8582799 132.89799
2.4129701 4.3625698 132.435
2.50805 4.2420101 132.754
2.30128 4.0256 133.14
2.41009 4.118 132.93401
1.91923 3.8452499 133.235
3.4403701 3.5613101 127.395
3.50104 3.5237801 127.395
3.5015099 3.6666 127.309
3.44734 3.6809101 127.329
3.50138 3.79426 127.237
3.40607 3.8100901 127.279
3.3763399 3.44923 127.493
3.4809301 3.4117501 127.491
3.20085 5.04776 131.937
3.2002299 5.0148702 132.119
3.2472899 4.9752898 132.321
3.3139601 4.91852 132.588
3.36923 4.8715301 132.978
3.38346 4.8892202 133.46201
3.3424699 4.98805 133.976
3.2758701 5.1240501 134.56599
3.2374899 5.19873 135.02901
3.2086 5.2511702 135.42799
3.16765 5.3131099 135.802
3.1073599 5.41991 136.25301
3.0315599 5.5781298 136.76401
2.95419 5.7496901 137.23399
2.8687601 5.9374199 137.703
2.7295699 6.2509599 138.36
2.5415299 6.6353202 138.92799
2.6981399 5.36338 136.787
2.61938 5.5325699 137.25999
2.5301199 5.71948 137.73399
2.3680301 6.0221801 138.38901
2.1293199 6.3643899 138.953
1.58481 6.7746 139.59399
2.6693499 3.8232999 127.581
2.4985399 3.9086499 127.538
2.42992 4.0074801 127.51
2.4359 4.11093 127.475
2.51846 4.1801801 127.466
2.7706001 4.2911301 127.491
2.6503301 4.1304598 127.184
2.5395701 4.0457201 127.272
2.72089 4.0876002 127.264
2.5374899 4.05474 127.419
2.5034299 4.0242701 127.426
2.5253 4.0114398 127.372
2.4888799 3.98827 127.385
2.4638901 4.0176401 127.309
2.43571 3.9793701 127.336
3.3761401 3.3104801 127.656
3.4923799 3.2581501 127.73
3.5471201 3.3245599 127.594
2.5971799 3.9912901 129.077
2.9995 3.78005 129.114
2.8947001 3.7636199 128.89999
2.5936301 3.9423399 128.87399
3.4381499 3.4323101 128.798
3.32181 3.2786701 127.758
3.22943 3.34214 127.665
3.3600199 3.37272 127.569
3.1756201 3.42366 127.578
3.30619 3.2460899 127.89
3.5228601 3.2002499 127.874
3.1611199 3.31708 127.763
3.1126499 3.30498 127.886
3.0868101 3.3794899 127.663
3.6479299 3.92908 129.52499
3.57075 4.0976 129.806
3.4551001 3.8863599 129.51601
3.38009 4.0628901 129.806
3.2530701 3.88638 129.476
3.18314 4.07267 129.77699
2.9591401 3.9509301 129.405
2.9205599 4.12959 129.713
2.5938101 4.0710301 129.31799
2.5731101 4.2174001 129.621
3.4759099 4.27141 130.11501
3.36742 4.4625902 130.493
3.2881501 4.2429399 130.12199
3.1847401 4.4344301 130.498
3.0987201 4.2634501 130.11301
2.9883599 4.4747701 130.498
2.8385401 4.3426399 130.077
2.73737 4.5798502 130.48599
2.4823401 3.9843199 127.435
2.46243 3.94818 127.399
2.42084 3.9260499 127.366
2.3359101 4.00389 127.289
2.19168 4.0230298 127.278
3.78776 3.63116 129.043
3.7191401 3.7699201 129.263
3.5999601 3.5714099 129.02699
3.5287299 3.7165301 129.24899
3.3885801 3.5590899 128.987
3.32002 3.71225 129.207
3.1280799 3.6323099 128.931
2.13235 4.14781 127.187
2.30865 4.1349602 127.166
2.5432999 4.1493001 127.078
3.2611499 4.0707002 127.497
3.1618299 4.1711202 127.511
3.2326601 3.98279 127.4
3.13854 4.06671 127.407
3.2697101 3.9504499 127.32
3.1733301 4.03897 127.311
3.3301799 3.93101 127.247
3.24143 4.0349798 127.215
3.4230001 3.94157 127.177
3.3380499 4.0504999 127.135
3.0987301 4.1215501 127.197
3.0683899 4.0871701 127.31
3.0411799 4.1167302 127.414
3.0703499 4.24054 127.501
1.67439 4.6670799 136.35201
1.57566 4.79529 136.851
2.3561001 4.9848399 136.30901
2.7751 5.2172999 136.28
2.27758 5.1243901 136.811
1.79703 4.5102701 135.54401
1.85024 4.4498501 135.15401
2.37078 4.7745099 135.50101
2.41417 4.7214198 135.133
2.65325 4.91714 135.48801
2.72281 4.88767 135.10201
2.92959 5.0738502 135.463
2.9860599 5.0401902 135.06599
2.8509099 5.1188998 135.836
2.4524901 4.8934999 135.832
1.74744 4.5795202 135.922
2.10198 5.4756298 137.76601
1.7189699 6.152 138.96899
1.93888 5.7912502 138.418
2.19433 5.28583 137.28999
1.47695 4.9605298 137.33501
2.61712 4.45748 132.494
2.7856901 4.6330099 132.407
2.6510401 4.72154 132.14799
2.4874301 4.71281 132.058
2.80445 4.7734399 132.194
3.02473 4.9286599 132.086
2.91133 4.9089699 131.955
3.0457799 4.9692602 131.923
2.9136701 4.7514501 132.349
3.08992 4.8713999 132.33
3.1613801 4.8063202 132.595
2.9939799 4.6740398 132.62
2.8153601 4.53017 132.64301
3.20508 4.74823 132.978
3.20348 4.7529602 133.48199
3.14446 4.84621 134.006
3.0510299 4.97615 134.591
3.14767 4.2042699 127.009
3.2283599 4.2730598 126.934
1.96153 3.9475801 133.677
-7.8589602 19.009199 137.31599
-8.53372 19.711901 135.33701
-8.8558502 19.9708 133.325
-1.5628099 11.0741 141.744
-2.5148499 12.4325 141.834
-4.4078598 14.9652 141.455
-5.54989 16.2915 140.782
-4.5518198 17.091101 140.72301
-6.6819201 17.611099 139.59
-7.3085399 18.3631 138.539
0.90988898 7.7066798 140.46201
0.113248 8.8285103 141.078
-0.936517 10.2189 141.591
1.91074 4.1244402 134.15601
1.9763401 4.35113 134.62601
2.2961099 4.3024101 134.116
2.3943999 4.1475101 133.55701
2.50087 4.6500201 134.658
2.80001 4.8238101 134.631
2.9184301 4.68894 134.04601
2.6454699 4.5117998 134.086
2.8073599 4.4245601 132.994
3.0005801 4.5991602 133.496
2.7526801 4.4066801 133.511
3.0246201 4.6061001 132.983
2.5099001 4.8655901 131.819
2.9592299 4.16254 127.157
3.2432799 4.14469 127.081
3.4032199 3.7139499 127.357
3.4014201 3.6198699 127.398
3.3343301 3.5374801 127.457
3.18009 3.4895501 127.53
2.9605501 3.4902799 127.571
2.5017099 4.44523 130.00301
2.8722 4.1784 127.061
2.7618599 4.0588999 127.361
2.59583 4.02775 127.361
2.41237 3.8550601 127.402
2.4423699 3.87872 127.422
2.45297 3.8097899 127.443
3.6233001 3.5141499 127.396
3.5837901 3.68295 127.283
3.71891 3.42418 127.495
3.8094399 3.3445301 127.617
3.9035299 3.2556801 127.786
3.8520501 3.5108199 128.853
3.2289701 4.7080002 130.923
3.1268301 4.9038401 131.33099
3.0744801 4.9718599 131.67799
3.6454699 3.2693601 127.684
3.1456101 3.5838001 127.507
3.2974501 3.62129 127.461
3.3634901 3.6867099 127.421
2.8854101 3.4433801 127.634
2.61796 3.6278501 127.514
2.9554501 4.3196301 127.482
3.3417301 3.93154 127.471
3.3508101 3.8382699 127.474
3.3310299 3.7818699 127.506
3.26492 3.7241499 127.538
3.1419699 3.6844699 127.566
2.9419999 3.73915 127.6
2.49945 3.8528399 127.479
2.66208 3.7725401 127.515
2.46909 3.9123399 127.456
2.6073699 4.0728302 127.421
2.7999401 4.12468 127.436
2.9477401 4.1456199 127.418
3.3242099 3.8679299 127.393
3.36619 3.76226 127.397
2.9468999 3.6700499 127.53
2.1584499 4.1121898 127.238
2.63906 3.6993201 127.505
2.9417 3.5871401 127.532
2.9548399 4.1030402 127.301
3.35376 3.8321099 127.333
3.0485799 4.6786399 130.91499
2.9497099 4.8645201 131.314
2.89663 4.9173298 131.65601
2.6609199 4.7867999 130.883
2.8650701 4.7049799 130.90199
2.6080301 4.9108701 131.24001
2.7804401 4.8642302 131.28101
2.5518501 4.9423199 131.55099
2.71685 4.9071999 131.61
2.70085 4.8446298 131.938
2.3310599 4.08953 127.235
2.4072499 4.1097398 127.195
3.7207501 3.19541 127.84
3.6651499 3.4478099 128.843
-8.0784101 20.505301 131.634
-7.7802 19.630699 128.511
0.58978301 7.0901399 120.612
-6.9309301 17.9062 124.98
-0.101372 7.9920101 120.618
0.33388099 7.42695 120.625
3.0220599 6.4576201 138.32201
1.1087199 9.4624996 141.045
-7.9866199 20.130699 129.97301
3.17258 6.1558499 137.674
-7.6298299 20.4475 135.28999
-8.0214996 20.668501 133.23
-1.56647 13.2066 141.815
-0.56615901 11.8361 141.72301
-6.2899299 19.122601 138.56
-7.0139899 18.1085 125.507
-7.3916898 17.773701 125.549
-8.01513 17.126301 125.588
-2.86026 5.3665299 137.325
-3.64448 5.6265202 136.75301
-2.4772401 4.8849401 136.436
-3.2531099 5.1732202 135.946
-1.95003 5.2095098 137.808
-1.56173 4.6764498 136.88499
-4.0601702 5.63656 135.21001
-4.6325998 6.2169499 135.741
-2.2309899 4.5908298 135.62199
-2.95783 4.8520699 135.19901
-3.51177 5.1149702 134.72301
-4.0081201 5.3668199 134.13
-2.1441801 4.4798899 135.258
-2.8116 4.7217698 134.882
-3.27581 4.9197402 134.481
-3.7088101 5.1080599 133.961
-3.6325901 4.7453699 128.638
-3.68067 4.8822398 127.824
-3.67835 4.6852698 130.812
-3.58547 4.59026 130.05701
-3.6018801 4.6335602 129.45399
-1.9288 4.2227101 134.461
-2.5500801 4.4275699 134.132
-3.22609 4.7126698 133.621
-3.5875499 4.8752599 133.052
-3.77897 4.9472899 132.407
-3.84006 4.9436898 131.931
-3.8414099 4.9101701 131.69099
-3.81089 4.85357 131.47
-3.802 5.0705199 127.122
-4.0782399 5.3673201 126.422
-3.2381899 4.5157399 131.19
-3.7437999 4.7660198 131.136
-4.29316 5.13557 131.105
2.48227 3.4655399 127.978
2.07497 4.74474 130.23599
1.92975 4.9798799 130.51401
2.4528699 3.52634 128.147
2.3606801 3.9898801 128.629
2.35167 4.0333099 128.701
2.3785999 3.925 128.57401
2.44099 3.64094 128.32401
2.3243599 4.0864301 128.84399
2.29303 4.1309199 129.03
2.1689701 4.4955101 129.882
2.2304599 4.2979598 129.53101
2.2671499 4.1842899 129.24699
2.42138 3.79422 128.479
-6.61587 7.5107598 130.685
-6.5445099 7.4445 130.064
-5.5656199 6.9511499 125.379
-5.3495698 6.7753601 124.913
-6.0068002 7.2262902 126.888
-5.7795801 7.1015601 126.1
-6.0634599 7.60254 135.41299
-6.3124099 7.6590199 134.19099
-6.4855099 7.6889801 133.22
-6.5366502 7.6083798 132.483
-6.60288 7.5420098 131.427
-6.4738202 7.4236698 129.386
-6.39714 7.4133501 128.666
-6.25351 7.3895998 127.78
-2.81756 4.2478399 130.677
-3.1886699 4.37604 130.51601
-3.6158199 4.6168399 130.427
-8.0621405 10.1973 136.798
-7.4124999 10.6371 138.776
-6.8737302 10.9742 139.79201
-5.9745698 11.5575 140.666
-5.1842899 12.1615 141.22099
-4.4401898 12.8286 141.569
-3.48019 13.7002 141.72
-2.5147901 14.476 141.703
-7.6921 9.7934599 127.364
-7.26897 9.3698301 127.409
-8.1220598 10.1967 127.293
-7.09131 9.0546904 127.446
-6.9454198 8.7182102 127.469
-6.7459602 8.28125 127.521
-8.6837301 10.8289 127.172
-9.0165596 11.3005 127.108
-9.8261299 13.0797 126.858
-9.4904499 12.2065 126.954
-10.013 14.4113 126.755
-9.9000101 15.1096 126.702
-9.6140804 15.881 126.668
-9.0363197 16.7927 126.628
-8.3977699 17.633301 126.597
-7.7741199 18.314501 126.572
-7.3231702 18.7141 126.54
-6.4841399 7.7944198 127.546
-1.3708301 4.3866501 135.983
-0.76499701 4.57689 137.172
-1.00848 3.9919701 126.79
-0.87966901 3.97785 126.786
-7.0931902 8.5249004 134.548
-7.0373702 8.6902304 135.741
-6.1104498 9.0041199 138.94501
-5.5106802 9.2888603 139.937
-4.50559 9.8272696 140.83701
-3.72209 10.4026 141.36
-2.9547601 10.9875 141.66299
-6.8158102 8.7099199 136.93401
-2.05128 11.7739 141.826
-1.0854599 12.5518 141.798
-7.9528098 9.3569603 133.784
-7.66853 9.7193003 136.894
-6.98241 10.116 138.897
-6.41749 10.431 139.87801
-5.4983802 11.0189 140.761
-4.69029 11.5855 141.312
-3.9465101 12.2245 141.649
-2.97697 13.0444 141.81
-2.0337801 13.8368 141.791
-8.6239004 10.0146 133.21001
-8.6162901 10.1246 133.763
-8.6503201 10.3009 134.52901
-8.6126099 10.5064 135.52901
-8.4225397 10.648 136.681
-7.78655 11.1109 138.664
-7.2993498 11.475 139.67101
-6.44837 12.112 140.56
-5.68538 12.7608 141.108
-4.9419899 13.4559 141.45599
-3.9419799 14.3585 141.61501
-3.0217299 15.1456 141.58501
-9.3516502 11.2447 134.215
-9.3006401 11.416 135.157
-9.1310501 11.5971 136.366
-8.6143198 12.1531 138.321
-8.1804304 12.5983 139.321
-7.4425902 13.3288 140.196
-6.72647 14.0208 140.696
-5.98423 14.748 141.04201
-4.9735999 15.6723 141.15601
-4.0455599 16.459801 141.091
-9.93999 12.1173 133.97099
-9.9284601 12.332 134.759
-9.8123598 12.536 135.84599
-9.4570398 13.1838 137.638
-9.0716 13.7507 138.603
-8.4226398 14.602 139.451
-7.7944899 15.3632 139.87801
-7.0648298 16.099199 140.189
-6.0725698 16.9044 140.314
-5.2529101 7.9068298 138.774
-6.0947599 7.8557401 136.769
-6.34975 7.9232798 135.58
-6.5187898 7.87994 134.23599
-1.99666 8.47577 141.021
-1.29293 8.8579502 141.19
-2.41484 8.2819099 140.849
-3.1273501 8.0329504 140.526
-3.62362 7.9201102 140.19
-4.4724798 7.7747102 139.493
-0.35966799 9.4398804 141.35201
0.65178698 10.1236 141.32001
-1.19745 7.4067998 140.495
-0.50076997 7.7484298 140.679
-1.7841001 7.1930699 140.27299
-2.43856 6.98593 139.92599
-3.0590899 6.8659201 139.46899
-3.7953801 6.7222099 138.722
-4.4435802 6.73878 137.929
-5.7375898 7.2302599 135.17101
-5.33885 7.0095601 136.336
-5.97574 7.27318 134
0.51593298 8.3023396 140.819
1.49843 8.8918505 140.765
-1.8976099 6.1742802 139.30299
-1.26367 6.3295298 139.666
-0.568564 6.5095201 139.86501
0.169539 6.7987199 140.02699
1.27372 7.2537398 140.05
2.19168 7.8368101 140.00301
-6.1424398 8.3137598 137.86301
-5.7581701 7.8320298 137.748
-5.3425598 7.2944698 137.438
-4.9893899 6.8503299 137.11
-4.6683302 6.4593 136.76401
-4.5004601 6.2462001 136.51601
-4.28477 5.9780102 136.145
-4.0383902 5.7150502 135.793
-10.2924 13.5438 135.799
-10.0666 13.2622 136.24899
-9.7692099 13.6008 126.118
-9.98734 13.7981 126.796
-10.2366 13.9655 127.596
-10.5453 14.127 128.774
-10.7932 14.3062 130.04401
-10.9667 14.3868 131.465
-10.9862 14.3343 132.77699
-10.7983 14.0816 134.237
-9.6959105 12.7716 136.64999
-9.3445597 12.2997 136.967
-8.9514303 11.7954 137.217
-8.5311699 11.2619 137.437
-8.1759596 10.8115 137.588
-6.9783101 9.3445702 137.94
-6.52913 8.7959805 137.931
-3.7976 5.4744601 135.48599
-7.8002801 10.3586 137.739
-7.3945799 9.8587198 137.847
-10.2124 12.8112 134.661
-10.4348 13.2662 134.757
-9.8063297 17.5252 136.076
-9.1306496 18.550501 136.17999
-10.2824 16.569901 135.951
-10.5611 15.4994 135.634
-10.6482 14.651 135.334
-10.5739 13.8846 135.02499
-8.2708998 19.4862 136.23199
-7.3640699 20.223499 136.196
-10.3022 12.5783 133.213
-10.7474 13.5182 133.312
-10.9171 14.2324 133.519
-11.0084 15.0449 133.77499
-10.9211 15.9173 134.01401
-10.6314 16.941799 134.213
-10.1871 17.932699 134.286
-9.5619602 18.9578 134.375
-9.8591204 11.8205 133.237
-8.7140198 19.870899 134.396
-7.8366399 20.585899 134.347
2.3162301 4.4163198 121.687
2.46193 4.5171599 121.65
2.3915401 4.4654799 121.669
2.21667 4.5201302 121.402
2.2723601 4.4608598 121.55
2.08129 4.2917399 121.684
2.22054 4.35853 121.696
2.3803 4.3684301 121.858
2.36025 4.3859 121.802
1.7803299 4.1145902 121.862
1.8640701 4.0391302 122.377
1.82532 4.0573802 122.111
2.1366 4.2055702 121.943
1.96235 4.1550398 121.896
1.67313 4.2825499 121.435
1.73264 4.1936898 121.633
1.3698699 4.10221 121.819
1.59593 4.09377 121.839
0.76792598 4.2410002 121.809
1.09479 4.1527901 121.805
0.67870098 4.4310002 121.387
0.713902 4.3319101 121.576
0.061115 4.4663601 121.828
0.400157 4.3590298 121.807
0.88915902 4.1213102 122.351
0.82896298 4.1701102 122.082
1.9824899 4.3929701 121.429
2.1157401 4.4639702 121.412
2.3758099 4.6161499 121.387
2.2980001 4.5676999 121.392
2.0733399 4.6815 121.139
2.15219 4.5905099 121.263
1.84609 4.5769901 121.156
1.91742 4.4752798 121.281
1.83662 4.3229499 121.442
2.0466399 4.3271799 121.583
1.54076 4.5087299 121.146
1.60725 4.3853598 121.276
1.2745 4.28544 121.405
1.49134 4.27075 121.418
1.00366 4.3362098 121.392
0.612894 4.6880698 121.124
0.64559901 4.54808 121.241
0.058784001 4.6889901 121.386
0.34609601 4.5531502 121.384
1.77728 5.0296402 120.897
1.41395 5.4569802 120.743
1.58427 5.2469001 120.808
1.61252 4.9506302 120.914
1.68864 4.9772401 120.91
1.9543101 4.8199401 121.014
1.95673 5.1325598 120.876
1.86689 5.08109 120.885
1.38279 4.94416 120.905
1.52321 4.9384899 120.913
1.74648 4.7328501 121.03
1.32696 5.2769198 120.79
1.33957 5.15628 120.828
1.04268 5.01262 120.89
1.22256 4.9704099 120.897
1.46259 4.6975899 121.023
0.62188601 5.1426601 120.902
0.841901 5.06991 120.891
0.70438498 5.6505299 120.757
0.66109598 5.4037199 120.822
0.17328601 5.2911701 120.953
0.39605099 5.2182798 120.92
0.60045999 4.8865399 121.011
0.18479399 4.3402901 122.353
0.55098099 4.2174702 122.354
1.00386 4.1097002 122.863
0.94885403 4.0977702 122.612
1.44873 4.0199099 122.35
1.19047 4.0552802 122.344
2.6065199 4.5959301 123.392
2.65044 4.48107 123.028
2.6240599 4.5478201 123.228
2.3936901 4.4591599 123.394
2.5119901 4.5338402 123.394
2.6335599 4.59794 123.64
2.60817 4.6145101 123.528
2.46263 4.3570399 123.029
2.42502 4.4135199 123.227
2.1094601 4.3109002 123.375
2.2565701 4.3813701 123.388
2.40674 4.4637899 123.648
2.3868599 4.4754801 123.533
2.1993401 4.2062402 122.998
2.14836 4.2603898 123.201
1.82279 4.2150102 123.338
1.96823 4.2537799 123.357
2.1213601 4.3328199 123.637
2.1029401 4.3356199 123.516
1.87791 4.08707 122.923
1.84372 4.1514301 123.152
1.48625 4.1742501 123.314
1.66626 4.1872802 123.323
1.83804 4.24998 123.622
1.82012 4.2466698 123.491
1.50532 4.0496898 122.88
1.50089 4.1157498 123.11
1.0292 4.1957402 123.289
1.2694499 4.1770802 123.306
1.50747 4.2012601 123.639
1.47746 4.20259 123.492
1.03458 4.1535902 123.09
0.43720001 4.2817898 123.308
0.74842602 4.2332702 123.287
1.00222 4.2181301 123.545
1.0071599 4.2161398 123.447
2.56532 4.4233499 123.031
2.50542 4.2831502 122.638
2.4917099 4.3081298 122.822
2.34132 4.2830601 123.021
2.27209 4.1605201 122.646
2.2479501 4.1717 122.791
2.04895 4.1353502 122.952
1.89239 4.0485601 122.654
1.70126 4.05797 122.9
1.4853899 4.0180898 122.621
1.27478 4.06566 122.866
0.342177 4.27211 122.87
0.69110799 4.1793499 122.867
2.2149701 4.1434698 122.325
2.05038 4.0838499 122.371
1.66954 4.0172 122.363
2.66675 4.3894501 122.629
2.66448 4.4267602 122.818
2.59164 4.3368402 122.637
2.6474099 4.37989 122.37
2.6570699 4.37604 122.469
2.5268099 4.4644499 121.841
2.49944 4.48493 121.767
2.42344 4.5597401 121.525
2.24439 4.7725 121.127
2.3171899 4.6862402 121.25
2.13028 4.9137201 120.999
1.5986201 5.5885401 120.716
1.76823 5.3703399 120.778
2.1593101 4.7261901 121.131
1.97317 4.6317301 121.145
1.6969 4.5324602 121.152
1.15755 4.5354199 121.129
1.36525 4.5098701 121.137
0.90498197 4.5929999 121.123
0.087448001 4.9265399 121.155
0.32674 4.8031802 121.139
2.6374099 4.4612098 122.015
2.57811 4.4513602 121.937
2.6047299 4.45402 121.973
2.6140599 4.43083 122.052
2.6206601 4.4433498 122.032
2.66328 4.4418898 122.128
2.6235499 4.42238 122.097
2.6403301 4.4281602 122.117
2.64711 4.4035602 122.236
2.65396 4.41921 122.185
2.39644 4.22124 122.634
2.5005 4.2806401 122.402
2.50741 4.2782302 122.478
2.5490601 4.4520001 121.895
2.52318 4.382 122.026
2.53688 4.4105401 121.972
2.5515599 4.3607502 122.152
2.59038 4.37151 122.21
2.6408601 4.38696 122.294
2.56601 4.4040399 122.039
2.61414 4.42307 122.074
2.5846701 4.3885899 122.124
2.1141801 4.2621198 121.785
2.2577701 4.1525798 122.511
1.05874 5.4337902 120.761
1.03056 5.2547598 120.811
1.0913301 4.74475 121.004
1.22097 4.3937802 121.254
1.32178 4.1876502 121.591
1.41113 4.0477901 122.079
2.4561999 4.4123902 121.858
2.3951499 4.31706 121.997
2.3892 4.3509698 121.908
2.5714099 4.3284898 122.38
2.4430399 4.2818799 122.221
2.48283 4.2823601 122.334
2.4706299 4.3558402 122.01
2.5292799 4.3648 122.087
2.5083399 4.3271599 122.186
2.2918999 4.2712002 121.971
2.4119 4.2930198 122.103
2.35744 4.2228899 122.273
2.17155 4.1619802 122.125
2.30618 3.5295 127.645
2.08231 3.67752 127.538
2.1717501 3.5992601 127.586
2.2086201 3.54335 127.789
2.2616501 3.5268099 127.713
2.641 3.4307799 127.754
2.4728601 3.4693201 127.713
2.3961999 3.5839601 127.537
2.34565 3.5480101 127.589
1.99949 3.8257999 127.441
2.02861 3.7513399 127.489
1.96751 3.7058401 127.666
2.0255401 3.6842301 127.594
2.2051101 3.70509 127.45
2.13936 3.68313 127.491
1.95131 3.96894 127.374
1.97335 3.9038401 127.402
1.86352 3.86712 127.545
1.93288 3.84091 127.485
2.1519799 3.8264799 127.378
2.0682199 3.82179 127.408
1.91309 4.07375 127.334
1.93154 4.0232601 127.353
2.06707 4.0762401 127.279
1.96632 4.0725298 127.314
1.79725 4.0971599 127.419
1.87392 4.0768499 127.359
1.99108 4.2026501 128.58299
2.2448299 4.07691 128.64301
2.1250801 4.1409702 128.621
2.01933 4.1486001 128.52499
2.00634 4.1803002 128.55499
1.71636 4.2832499 128.407
1.8475699 4.2529202 128.515
1.94067 4.2293 128.687
1.9686199 4.2182202 128.62399
1.75052 4.24405 128.354
1.73756 4.2686 128.384
1.60127 4.2954001 128.252
1.65698 4.2898202 128.451
1.6857899 4.29108 128.425
1.53158 4.2841501 128.064
1.5421799 4.2326398 127.726
1.51718 4.2602 127.88
1.59975 4.19065 127.735
1.57497 4.2169399 127.73
1.63217 4.1889601 127.526
1.58623 4.2076302 127.606
1.40984 4.2107401 127.65
1.4924901 4.23206 127.711
1.76632 4.1558599 127.388
1.6863199 4.17312 127.459
1.78642 4.1324801 127.4
2.02092 4.1381102 127.254
1.8820699 4.1406298 127.314
1.6798 4.1581802 127.346
1.73429 4.1662598 127.374
2.2614601 4.0250902 128.588
2.1471801 4.0855899 128.563
2.04704 4.0540099 128.44099
2.03461 4.1070299 128.487
1.88293 4.2044902 128.459
1.7756701 4.1626601 128.26401
1.76432 4.2088399 128.313
1.64145 4.2632699 128.20799
1.57967 4.2519398 128.036
2.08705 3.7250099 128.116
2.35198 3.61201 128.216
2.2409599 3.65801 128.179
2.13026 3.6057401 127.952
2.1064999 3.65692 128.03
1.81183 3.9024601 127.961
1.92879 3.81459 128.04201
2.06357 3.89973 128.30099
2.0727301 3.8087399 128.21001
1.8694201 3.7903299 127.816
1.8370399 3.84217 127.886
1.69217 4.0257702 127.823
1.7347701 3.9730301 127.886
1.7881401 4.04181 128.133
1.79598 3.9712 128.045
1.76088 3.9351599 127.682
1.72552 3.97768 127.748
1.64077 4.1172099 127.754
