# .PCD v.7 - Point Cloud Data file format
VERSION .7
FIELDS x y z
SIZE 4 4 4
TYPE F F F
COUNT 1 1 1
WIDTH 1567
HEIGHT 1
VIEWPOINT 0 0 0 1 0 0 0
POINTS 1567
DATA ascii
-44.661701 -34.9669 99.371803
-43.126499 -33.893398 97.574799
-43.067001 -34.3279 97.6493
-43.234699 -35.533501 97.266098
-43.337002 -35.341801 97.793404
-43.725601 -35.671501 97.802902
-43.5816 -35.895802 97.337601
-44.282398 -35.5005 98.0494
-44.083 -35.706501 97.632599
-43.866699 -35.4874 98.240303
-43.2971 -33.7467 97.501198
-43.429501 -33.4445 97.662903
-43.202202 -33.984001 97.388
-44.167599 -35.207001 98.765602
-44.917301 -34.806801 99.323097
-43.538898 -35.165798 98.268799
-45.157299 -34.748402 98.656998
-45.165001 -34.4977 99.222298
-45.285099 -34.294498 99.119598
-45.2878 -34.442902 98.799202
-44.9706 -33.5303 98.120697
-44.787102 -33.429798 97.8554
-45.2962 -34.101799 98.9646
-45.302898 -34.341999 98.5112
-44.979099 -34.976799 98.281799
-45.150501 -34.649899 98.057297
-44.7005 -35.174801 98.658501
-44.6422 -35.269299 97.741096
-43.9076 -35.937901 97.222504
-43.644901 -33.881699 97.012199
-43.611599 -33.549999 97.389099
-44.039101 -33.562 97.348602
-43.963902 -33.2579 97.712898
-44.432301 -33.319099 97.744598
-44.106701 -34.0355 96.820503
-44.485802 -33.615501 97.435303
-44.791801 -33.5802 97.693199
-44.964001 -33.749699 97.791298
-45.121399 -33.790798 98.549599
-45.147598 -34.0158 98.0868
-44.2855 -35.005299 95.929604
-44.311699 -34.6418 96.448799
-43.962601 -34.3246 96.436699
-43.834599 -34.595299 96.0532
-43.557499 -34.153 96.613098
-43.458302 -34.422699 96.155701
-43.115799 -34.202999 96.982002
-43.038399 -34.4566 96.448097
-42.928902 -34.477402 97.331703
-42.900799 -34.7314 96.785202
-43.005199 -34.913399 97.614899
-42.9482 -35.1264 97.101097
-44.486301 -34.341099 96.8395
-44.620602 -35.040001 96.631203
-44.772999 -34.6758 97.108101
-44.594101 -35.270699 97.000397
-44.832901 -34.965698 97.441704
-44.3923 -35.499699 97.317902
-43.133301 -34.828999 97.944298
-44.781502 -33.996799 97.366501
-44.041199 -36.223099 96.298302
-44.160999 -36.112598 95.849701
-43.728901 -36.3078 96.702599
-44.1586 -35.7537 96.925499
-44.451099 -35.618599 96.498199
-43.332001 -36.2766 96.735497
-43.1208 -35.980499 96.601601
-43.123402 -35.932999 96.661797
-43.0485 -34.718498 95.842102
-43.334499 -34.77 95.472099
-42.972198 -34.7579 95.791603
-43.571701 -35.085701 95.232803
-43.827599 -35.526798 95.161499
-43.004101 -35.455898 96.531502
-42.985699 -35.493301 96.455498
-42.958099 -35.008801 96.282501
-42.914501 -35.043598 96.216202
-45.021198 -34.318199 97.610001
-44.528 -35.409801 96.111198
-44.0984 -35.910301 95.401398
-44.182598 -33.8162 97.087799
-43.860199 -33.7295 97.120399
-44.055801 -33.778801 97.101997
-44.4687 -33.998199 97.075302
-44.290199 -33.866299 97.078598
-44.223499 -33.408001 97.568703
-44.240898 -33.578899 97.374802
-44.1959 -33.257099 97.742996
-43.7757 -33.382702 97.571297
-43.991901 -33.379002 97.564301
-44.6506 -33.471401 97.6754
-44.449402 -33.4426 97.605598
-45.0116 -34.8153 98.981796
-45.0448 -34.6619 99.278702
-44.973801 -34.948299 98.716202
-44.588799 -35.0784 99.050797
-44.812199 -34.985802 99.016502
-45.245399 -34.476101 98.950798
-45.160801 -34.625702 98.955299
-45.241901 -34.381001 99.173798
-45.260899 -34.553001 98.526001
-45.313999 -34.298901 98.860199
-45.3074 -34.412498 98.694099
-45.1996 -34.319698 98.037498
-45.2505 -34.475601 98.288597
-45.191502 -34.689098 98.394402
-45.2537 -34.553299 98.744003
-45.256802 -34.067299 98.498596
-45.235802 -33.954899 98.757599
-45.0765 -33.757702 98.117401
-45.1469 -33.892502 98.310204
-45.250702 -34.188301 98.266899
-45.310299 -34.212601 98.722504
-45.0564 -33.6506 98.317398
-44.897701 -33.568802 97.851097
-44.984501 -33.647099 97.965302
-45.0075 -34.014702 97.695396
-45.065102 -33.879601 97.9123
-44.886902 -33.480301 97.962303
-44.797001 -33.511902 97.760696
-44.785198 -33.714401 97.571098
-44.874901 -33.644402 97.722504
-44.638199 -33.371601 97.7864
-44.695 -33.584 97.601601
-43.8307 -33.546799 97.339302
-43.4016 -33.750702 97.352798
-43.642399 -33.7155 97.202202
-43.828602 -34.0891 96.688698
-43.868599 -33.940102 96.887802
-43.7215 -33.324299 97.678299
-43.452999 -33.5313 97.569504
-43.278198 -33.657299 97.612297
-43.3536 -33.6036 97.587502
-43.434399 -33.6385 97.455399
-43.6399 -33.4324 97.559601
-43.18 -33.923901 97.477402
-43.255199 -33.860401 97.443604
-43.366299 -34.022598 97.007698
-43.401798 -33.887501 97.204201
-43.582699 -35.4454 98.0494
-43.1833 -35.052299 97.964798
-43.377499 -35.257999 98.0382
-43.779701 -35.323502 98.470497
-43.656898 -35.372101 98.268501
-43.984501 -35.631901 97.938499
-43.787399 -35.582901 98.012001
-43.479401 -35.620499 97.587097
-43.530899 -35.5331 97.820503
-43.838699 -35.819 97.545097
-44.142601 -35.7313 97.289001
-43.998699 -35.805 97.444099
-43.629398 -36.1441 97.013
-43.751598 -35.951199 97.310402
-43.6642 -35.7631 97.592796
-43.910702 -35.7248 97.738899
-44.2085 -35.395699 98.446297
-44.0783 -35.526699 98.165199
-43.9813 -35.375301 98.500702
-44.383099 -35.243301 98.747704
-44.662399 -35.266201 98.176903
-44.459 -35.3643 98.329903
-44.441502 -35.106098 99.065804
-44.783199 -34.905399 99.3358
-44.927601 -34.971401 97.860802
-44.815899 -35.125599 98.011398
-44.348999 -35.5229 97.676598
-44.4828 -35.407501 97.897598
-44.841499 -35.110001 98.427803
-45.070099 -34.8396 98.141197
-45.289001 -34.368698 98.931503
-45.306999 -34.215 99.050598
-43.120998 -34.039398 97.5569
-43.074001 -34.121101 97.603401
-43.054199 -34.223701 97.373703
-43.113201 -34.152199 97.5075
-43.838402 -35.2216 98.521103
-43.240898 -33.671501 97.626099
-43.192799 -33.827 97.533997
-44.167801 -35.610699 97.824898
-43.272202 -35.956799 96.962097
-43.4062 -35.742802 97.3218
-43.126999 -35.206902 97.4823
-43.297798 -35.4174 97.553299
-42.985199 -34.7365 95.629601
-43.087898 -34.742599 95.582901
-43.021999 -34.734001 95.622704
-42.9095 -34.8703 96.014397
-42.952599 -34.763599 95.797096
-43.221699 -36.216599 96.601898
-43.2243 -36.202702 96.619797
-43.225399 -36.2141 96.604103
-43.037102 -35.737801 96.543198
-43.115601 -35.986301 96.6008
-42.9361 -35.254299 96.357697
-42.976898 -35.491501 96.453598
-43.049099 -35.731701 96.552597
-43.044201 -35.736599 96.543503
-42.901699 -35.044102 96.214203
-42.953499 -35.254002 96.370598
-42.946701 -35.256401 96.359299
-42.9403 -34.8587 96.022598
-42.924599 -34.867401 96.015099
-43.202702 -36.1436 96.691002
-43.024799 -35.544399 96.844597
-43.1101 -35.770699 96.904999
-43.451599 -36.0919 97.015198
-43.945801 -36.040298 96.825996
-43.799198 -36.120399 96.952499
-43.4674 -36.431801 96.6129
-43.523899 -36.322102 96.758797
-44.2528 -35.927399 96.396004
-44.123199 -35.980499 96.610199
-43.814201 -36.486801 96.258003
-43.9217 -36.279301 96.517899
-44.040901 -35.857201 97.0756
-43.875599 -36.201302 95.425301
-43.906399 -36.383301 95.838303
-43.91 -36.305401 95.635201
-44.419102 -35.800499 95.916199
-44.156399 -36.030701 95.607101
-43.6278 -35.896599 95.094597
-43.780998 -36.072899 95.2379
-44.360001 -35.8694 96.164101
-44.577202 -35.3367 96.568703
-44.526798 -35.533901 96.288902
-44.320801 -35.4935 95.576797
-44.403301 -35.676601 95.718002
-44.395401 -35.514599 96.967003
-44.513599 -35.435501 96.757004
-44.735298 -34.999298 97.041603
-44.6492 -35.171799 96.797096
-44.468102 -35.022701 96.279602
-44.568199 -35.209202 96.402496
-44.980301 -34.652302 97.524002
-44.792198 -34.339802 97.186401
-44.911301 -34.498501 97.3424
-44.838299 -34.825001 97.279503
-44.986401 -34.802898 97.697899
-45.1077 -34.475601 97.793701
-45.101501 -34.156399 97.858597
-43.978001 -35.733101 95.241501
-43.3106 -35.427898 95.031303
-43.4636 -35.667599 95.016502
-44.442402 -35.225201 95.983902
-44.012699 -35.043999 95.549202
-44.169201 -35.2738 95.499802
-44.076599 -34.594501 96.255699
-44.2962 -34.807701 96.221603
-44.561401 -34.684101 96.7351
-44.503201 -34.855099 96.509201
-44.915501 -34.165401 97.452103
-44.6348 -34.168098 97.091499
-44.653599 -34.512901 96.948799
-44.892399 -33.864201 97.595802
-44.641998 -33.819801 97.365402
-42.990002 -34.732899 96.295303
-42.980099 -34.827499 96.0756
-42.925598 -35.036999 96.2276
-42.998901 -34.750702 95.791603
-43.167301 -34.5825 95.911697
-43.051998 -34.616001 96.089996
-42.968102 -34.428799 96.9142
-42.931301 -34.571999 96.611
-42.955601 -35.099098 96.631302
-42.958401 -34.904202 96.472801
-43.020802 -34.6408 97.658798
-43.014999 -34.416698 97.515503
-42.992802 -34.308701 97.163399
-43.157398 -34.0769 97.216797
-42.969601 -35.223701 96.4245
-42.993099 -35.490601 96.467499
-42.913898 -34.791401 97.243599
-42.891602 -34.9217 96.952698
-42.978802 -35.313301 96.760803
-43.074001 -34.597099 97.781403
-43.0756 -34.858101 97.806396
-42.933998 -34.6926 97.483002
-43.052601 -35.7024 96.609497
-43.127102 -35.975601 96.608704
-43.078899 -35.3288 97.206001
-43.2752 -35.005798 98.105598
-43.153999 -35.131199 97.722702
-43.683201 -35.305099 95.162903
-43.083698 -34.974201 95.242401
-43.181599 -35.194901 95.1007
-44.076801 -34.778 95.987396
-43.5881 -34.665401 95.760902
-43.8181 -34.819302 95.679298
-44.206699 -34.333 96.594101
-44.137501 -34.4632 96.420303
-44.383801 -34.494801 96.639397
-44.306301 -34.185398 96.797897
-44.0294 -34.2001 96.612198
-43.484402 -34.893799 95.348801
-43.088799 -34.816299 95.4095
-43.712101 -34.341702 96.315102
-43.651199 -34.4874 96.081596
-43.3904 -34.5975 95.8097
-43.607899 -34.0224 96.8181
-43.770802 -34.216999 96.498802
-43.165699 -34.718102 95.619598
-43.280899 -34.270302 96.562302
-43.233299 -34.409 96.290802
-43.319801 -34.1507 96.786903
-43.302101 -36.372799 96.606201
-43.7006 -36.4851 96.462502
-44.270901 -35.615898 97.125099
-44.238201 -35.6264 97.485603
-44.118401 -36.172501 96.0774
-44.328602 -35.692299 96.705803
-44.627701 -35.245602 97.370003
-44.5019 -35.3778 97.172302
-44.762199 -35.115601 97.587097
-43.872398 -36.441502 96.043297
-44.5075 -35.388 97.521103
-44.697601 -35.115299 97.228104
-44.696999 -34.8652 96.863503
-42.985199 -35.004799 97.385498
-42.912899 -34.59 97.079201
-43.082699 -34.321098 96.742897
-43.510799 -34.278198 96.407898
-43.895802 -34.451302 96.269203
-43.101002 -35.996799 96.604897
-42.902699 -34.858101 95.393501
-42.897701 -34.7677 95.817497
-43.123299 -35.7383 94.983498
-43.466301 -36.171001 95.175903
-43.613499 -36.4543 95.525803
-43.601501 -36.609901 95.888298
-43.530201 -36.635799 96.260498
-43.339001 -36.411701 96.554802
-42.955399 -35.493198 96.4524
-42.858501 -35.0541 96.213203
-42.890598 -35.237999 95.116302
-41.567501 -36.949699 95.386398
-41.289902 -37.040199 95.3498
-41.3526 -37.154999 95.552299
-41.66 -37.077499 95.626404
-40.881802 -36.354698 95.129303
-41.028099 -36.427101 95.1073
-40.9268 -36.226398 95.140503
-41.121899 -37.070099 95.331596
-41.211201 -37.137001 95.442398
-41.164902 -36.7939 95.170502
-40.9874 -36.84 95.186501
-40.885399 -36.482201 95.132103
-41.2146 -37.114399 95.485199
-41.335098 -37.1534 95.615402
-41.1856 -37.029099 95.396599
-41.206299 -37.060501 95.4431
-41.055 -36.797199 95.246902
-41.0285 -36.816399 95.259201
-40.945999 -36.444698 95.186798
-40.914299 -36.460602 95.194801
-40.876202 -36.332802 95.173103
-40.907501 -36.203602 95.191704
-40.922699 -36.243301 95.201797
-41.009201 -35.9053 95.293701
-41.094398 -35.938599 95.232399
-41.2817 -35.6245 95.376404
-41.410198 -35.724701 95.211197
-41.470699 -35.815899 95.197899
-41.459999 -35.7789 95.2034
-41.930401 -35.3624 95.2827
-41.549801 -35.707199 95.190498
-42.024399 -35.593498 95.168602
-41.4538 -37.1731 95.728897
-41.4263 -37.137402 95.651497
-41.157001 -37.111599 95.478798
-40.957298 -36.846401 95.288902
-40.8354 -36.459202 95.205299
-40.846802 -36.194199 95.223999
-41.6991 -37.093601 95.733002
-42.446201 -36.712101 95.553902
-42.299198 -36.693901 95.503403
-42.042099 -36.994801 95.792801
-42.056999 -35.932098 95.197304
-41.6413 -36.053501 96.375999
-41.525398 -35.619999 96.1418
-41.991901 -35.3694 96.280098
-42.154301 -35.789101 96.5299
-40.779099 -36.211899 95.385696
-40.774899 -36.443501 95.3731
-41.2019 -35.634499 95.6381
-41.5214 -35.4049 95.737503
-40.942902 -35.904099 95.504303
-41.374699 -37.066502 96.008698
-41.1007 -37.095798 95.611397
-41.116199 -36.9884 95.859901
-41.6735 -36.997101 96.183502
-41.723099 -37.118099 95.968201
-42.0051 -36.883499 96.315102
-42.061798 -37.009499 96.060204
-42.5616 -36.877201 95.878799
-43.0061 -36.754601 95.8862
-43.036999 -36.7579 96.222198
-42.6012 -36.877201 96.176804
-42.9235 -36.619701 95.5653
-43.017799 -36.529301 96.548798
-42.549702 -36.711102 96.477203
-42.898602 -36.069901 96.688301
-42.362801 -36.2752 96.618599
-41.815399 -36.521 96.4422
-41.484699 -36.700802 96.274399
-41.227001 -36.853401 96.075401
-42.404099 -35.0424 95.354897
-42.427399 -34.906601 95.851501
-41.9133 -35.1614 95.7938
-42.454399 -35.4053 95.1465
-42.551201 -35.7808 95.097603
-42.127602 -35.859501 95.173302
-42.720001 -35.552898 96.587799
-41.3064 -36.2743 96.212303
-41.051601 -36.499901 96.009399
-40.891102 -36.723701 95.724899
-42.536499 -35.1157 96.3442
-41.1903 -35.852299 95.991898
-40.943802 -36.103001 95.800697
-40.790401 -36.3815 95.575104
-42.755901 -36.2617 95.252701
-42.366699 -36.335701 95.298203
-42.274601 -36.353001 95.305
-40.883701 -36.827702 95.471001
-42.0224 -35.9636 95.198601
-41.9702 -36.986 95.709
-42.246601 -36.7136 95.500702
-41.978298 -36.951401 95.644096
-41.1175 -35.983398 95.185303
-42.213902 -36.3792 95.292603
-41.286598 -36.3176 95.1073
-41.438099 -36.6982 95.178398
-41.691799 -36.127201 95.139999
-41.876999 -36.528198 95.211502
-41.993698 -36.8162 95.452904
-41.126202 -37.051201 95.368401
-40.987499 -36.821201 95.2239
-40.886101 -36.464401 95.168701
-41.518902 -35.905998 95.174004
-41.7752 -35.8274 95.191399
-41.827702 -35.736801 95.170998
-41.801899 -35.788799 95.188103
-41.644001 -35.5466 95.236397
-41.561699 -35.433102 95.431999
-41.7701 -35.652599 95.175201
-41.898998 -35.252602 95.435699
-40.932701 -36.478001 95.118599
-41.052601 -36.823799 95.173798
-41.170101 -37.060799 95.327103
-42.148201 -36.8428 95.594398
-42.181599 -36.870701 95.6558
-42.257599 -36.8783 95.6903
-42.161701 -36.861801 95.641296
-40.8964 -36.297001 95.133499
-40.882702 -36.280399 95.178902
-40.979099 -36.428101 95.197304
-41.091702 -36.784599 95.2612
-41.2295 -37.022598 95.419098
-41.270599 -37.1572 95.502098
-41.266998 -37.142101 95.554604
-41.2164 -37.052502 95.3321
-41.0984 -36.810101 95.169998
-40.968498 -36.459301 95.112
-41.607101 -35.491199 95.302002
-41.345699 -35.6712 95.270401
-41.1768 -36.064301 95.153702
-42.925499 -34.749699 95.621902
-43.158901 -36.263699 96.632301
-43.2122 -36.225899 96.602303
-42.958801 -35.769199 96.583199
-43.018799 -35.746399 96.547997
-42.7882 -35.289902 96.392097
-42.8978 -35.259399 96.349998
-42.731899 -34.9035 96.072601
-42.865101 -34.879299 96.017799
-43.215698 -36.4305 95.334801
-43.582802 -36.334599 95.340103
-42.934502 -36.018002 95.079102
-43.3027 -35.977402 95.050598
-42.6964 -35.524502 95.076698
-42.974998 -35.479 95.034103
-42.6605 -35.113499 95.206299
-42.877701 -35.0299 95.2183
-43.245899 -36.620602 96.399498
-43.4454 -36.566799 96.412804
-43.2472 -36.728298 96.042702
-43.578499 -36.645599 96.077797
-43.268902 -36.6553 95.676102
-43.619099 -36.547001 95.699799
-41.438702 -37.148701 95.637703
-41.5989 -37.116001 95.680496
-41.430099 -37.0882 95.484497
-41.4459 -37.1339 95.5839
-41.315399 -37.167 95.5802
-41.351398 -37.167301 95.6007
-40.956799 -36.626598 95.195602
-40.912701 -36.4566 95.177696
-40.8699 -36.372501 95.150597
-40.8741 -36.3661 95.168602
-40.935799 -36.339298 95.187103
-40.901501 -36.3563 95.177902
-41.0881 -36.944099 95.305702
-41.0173 -36.807999 95.235703
-40.9198 -36.650902 95.166199
-40.928799 -36.637798 95.185501
-41.010899 -36.608898 95.210098
-40.993301 -36.617599 95.206001
-41.148499 -37.036201 95.380798
-41.0485 -36.970699 95.2705
-41.057201 -36.956902 95.293602
-41.145599 -36.923 95.324203
-41.125702 -36.932499 95.317299
-41.1758 -37.113499 95.429497
-41.181 -37.096401 95.442001
-41.248001 -37.082298 95.480904
-41.2034 -37.087502 95.456902
-41.6469 -35.823898 95.190201
-41.648201 -35.784901 95.198196
-41.646198 -35.8022 95.195198
-41.313702 -35.914299 95.182701
-41.4837 -35.8475 95.187897
-41.677101 -35.928699 95.167999
-41.655701 -35.856602 95.182404
-41.981098 -36.236698 95.188904
-42.109402 -36.618401 95.346802
-42.068802 -36.4473 95.249199
-42.173401 -36.1366 95.235397
-42.127899 -36.161999 95.224998
-41.835098 -35.950901 95.1717
-41.901001 -36.0406 95.172997
-41.577099 -36.421902 95.1362
-41.792999 -36.327099 95.156898
-42.124599 -36.7966 95.507004
-42.136002 -36.737301 95.453201
-42.2869 -36.544399 95.398399
-42.245998 -36.559601 95.385002
-41.7202 -36.7696 95.291
-41.931702 -36.690899 95.314598
-42.207901 -36.787399 95.5569
-42.0546 -36.8694 95.570396
-42.0975 -36.830799 95.538101
-41.815899 -36.9631 95.538696
-41.971001 -36.909199 95.567001
-41.773998 -36.883701 95.411499
-41.6273 -37.025101 95.515198
-41.841 -37.037201 95.692398
-41.840801 -37.014999 95.643303
-40.8778 -36.4748 95.151703
-40.8881 -36.3787 95.123703
-40.874401 -36.387001 95.126999
-40.880001 -36.303501 95.1605
-40.8745 -36.3293 95.1577
-40.978298 -36.8339 95.2043
-40.958801 -36.650902 95.1381
-40.927101 -36.6567 95.147003
-41.115601 -37.0644 95.351601
-41.088799 -36.968601 95.2463
-41.057598 -36.976101 95.251602
-41.180302 -37.123199 95.407799
-41.247501 -37.150902 95.5196
-41.2146 -37.133301 95.482498
-40.964001 -36.110401 95.181801
-40.9855 -36.1171 95.159698
-41.2812 -35.864101 95.204803
-41.102402 -35.962898 95.203903
-40.951302 -36.113602 95.205101
-40.895199 -36.2397 95.165298
-40.9105 -36.205601 95.169502
-41.848301 -37.0425 95.739098
-41.846298 -37.040901 95.719597
-42.080502 -36.917 95.672096
-41.973301 -36.973801 95.681801
-41.695099 -37.086102 95.6866
-41.321499 -36.903702 95.254303
-41.505901 -36.8414 95.271004
-41.654499 -36.618698 95.193001
-41.180698 -36.578602 95.121498
-41.3643 -36.5084 95.124496
-41.403099 -36.061501 95.142601
-41.4879 -36.2281 95.118896
-41.2915 -35.882 95.195297
-41.144501 -36.004002 95.172501
-41.352699 -35.975201 95.164902
-41.254299 -36.763802 95.1689
-41.195702 -36.9426 95.2463
-41.232601 -36.932701 95.248703
-41.382599 -37.010502 95.365097
-41.114601 -36.393299 95.1036
-41.0574 -36.622002 95.128899
-41.091702 -36.611198 95.126801
-41.5751 -37.122398 95.713997
-41.579899 -37.114601 95.700302
-41.007599 -36.152401 95.143799
-42.2407 -36.7911 95.584602
-42.0863 -36.930099 95.703598
-42.1679 -36.865501 95.652298
-42.282501 -36.798 95.594398
-42.2565 -36.796398 95.588303
-42.278702 -36.693001 95.501503
-42.226898 -36.793301 95.582298
-42.3312 -36.540901 95.401901
-42.305698 -36.543999 95.398804
-42.261101 -36.355999 95.308701
-42.2066 -36.1194 95.228699
-42.187698 -36.129299 95.2323
-41.9245 -35.845501 95.193802
-42.049198 -35.943401 95.202103
-42.159599 -36.856899 95.629303
-41.868698 -37.074402 95.882599
-41.874699 -37.0495 95.778
-41.976898 -36.9851 95.731499
-40.965698 -36.0611 95.2276
-40.9678 -36.1222 95.2127
-40.920601 -36.2673 95.190498
-40.929501 -36.2281 95.198097
-41.3097 -37.138302 95.571701
-41.321499 -37.116199 95.568901
-41.284 -37.111099 95.540703
-41.303902 -37.117298 95.559402
-42.978699 -36.696701 95.7248
-42.6022 -36.511799 95.404198
-42.684101 -36.666801 95.569901
-41.1297 -35.713001 95.4403
-40.8741 -36.040901 95.330101
-40.973999 -35.889099 95.377098
-41.197399 -35.752399 95.289101
-41.166901 -35.7257 95.345398
-40.822498 -36.130199 95.569702
-40.895802 -36.432499 95.789597
-40.846001 -36.252899 95.690598
-40.761799 -36.367401 95.417297
-40.769299 -36.272202 95.485703
-40.839901 -36.063702 95.440498
-41.0411 -35.8274 95.742203
-40.9188 -35.971901 95.656502
-40.788399 -36.314098 95.265701
-40.765598 -36.328201 95.352798
-40.808899 -36.610901 95.528801
-40.773701 -36.4482 95.470001
-41.488098 -35.730999 95.196602
-41.536301 -35.652 95.209396
-41.483799 -35.707199 95.197899
-41.2803 -35.820801 95.2211
-41.422001 -35.7547 95.205299
-41.6623 -35.750301 95.188797
-41.5261 -35.7416 95.195801
-41.671001 -35.7225 95.1791
-41.6581 -35.769798 95.193901
-41.9473 -35.812698 95.1819
-41.809299 -35.770401 95.182602
-41.861301 -37.0289 96.144302
-41.872501 -37.069199 96.0158
-42.308701 -36.952801 95.979599
-42.053001 -37.0163 95.9161
-41.581799 -37.160999 95.807198
-41.718399 -37.124599 95.850998
-41.562698 -37.118999 96.010696
-41.579102 -37.159199 95.904297
-41.5802 -37.146 95.750801
-42.516998 -36.804501 95.723
-42.340698 -36.808998 95.626099
-40.966999 -36.940201 95.652802
-40.8708 -36.789902 95.592499
-40.840698 -36.648499 95.304604
-40.814701 -36.634998 95.4114
-40.831501 -36.547401 95.655403
-41.238201 -37.116199 95.8041
-41.094501 -37.049702 95.723602
-41.010101 -37.007198 95.4422
-40.979599 -36.985001 95.537804
-41.035702 -36.7906 95.923798
-40.9855 -36.874199 95.786102
-42.306198 -36.898899 96.266998
-42.3172 -36.943401 96.121498
-42.8256 -36.841999 96.049797
-42.5952 -36.897999 96.031502
-42.2873 -36.942402 95.8461
-42.823002 -36.743301 96.376297
-42.728298 -36.407501 96.621101
-42.792599 -36.610699 96.5233
-43.039398 -36.675301 96.398102
-42.8302 -36.815498 96.208099
-42.588001 -36.822701 96.333099
-41.381599 -35.506901 95.529198
-41.241501 -35.611099 95.489304
-41.067101 -35.754002 95.572403
-41.120399 -37.1143 95.538399
-41.0779 -36.983398 95.338303
-41.047199 -37.005501 95.371101
-40.9156 -36.8461 95.363998
-42.411701 -36.534599 95.401604
-42.297798 -36.347301 95.306801
-42.328899 -36.693699 95.508499
-42.4356 -36.074699 95.184303
-42.531399 -36.302101 95.281601
-42.848301 -36.470001 95.4011
-43.094101 -36.233002 95.188904
-43.266399 -36.567799 95.5056
-40.923599 -36.646702 95.208298
-40.882 -36.650799 95.231903
-40.798302 -36.454399 95.271301
-42.271599 -36.105701 95.212997
-42.0802 -35.915699 95.192001
-42.6497 -36.034 95.150803
-42.277302 -35.651501 95.144402
-42.341099 -35.831501 95.139702
-42.760502 -35.745201 95.055
-41.334099 -35.595501 95.888603
-41.177898 -35.710701 95.822098
-41.111198 -36.164501 96.023903
-41.058399 -35.9701 95.901398
-41.385601 -35.939301 96.205002
-41.339802 -35.735401 96.073402
-41.352001 -35.521702 95.695
-41.714802 -35.352501 95.997101
-41.513 -35.4744 95.946198
-41.805698 -35.6954 96.363899
-41.7458 -35.496399 96.217499
-41.702301 -35.292 95.583099
-41.7047 -35.280201 95.769897
-42.1968 -35.1021 96.083397
-41.944 -35.231098 96.047096
-42.474998 -34.979599 96.113197
-42.335602 -35.428398 96.477203
-42.253399 -35.236401 96.3209
-42.140499 -35.068001 95.584801
-42.159401 -35.0369 95.822899
-42.7327 -35.082298 96.2556
-42.6954 -34.821301 95.623199
-42.7169 -34.796501 95.880096
-40.994598 -36.289001 95.9188
-40.951801 -36.623001 95.870003
-41.237202 -36.049702 96.123901
-41.250099 -36.597401 96.164001
-41.174702 -36.384701 96.115196
-41.571999 -35.822399 96.283401
-41.5313 -36.401798 96.347198
-41.453602 -36.170601 96.291801
-42.618599 -35.313702 96.492599
-42.5457 -35.905201 96.649002
-42.4361 -35.657299 96.575401
-42.064701 -35.563 96.432602
-42.880699 -35.521198 96.496101
-41.129101 -36.694 96.059502
-41.2118 -36.995701 95.967102
-41.1376 -36.919102 95.958
-41.384201 -36.4995 96.260399
-41.4548 -36.9291 96.163803
-41.348701 -36.7799 96.183502
-41.971001 -36.161598 96.522903
-41.722301 -36.290501 96.429703
-41.7374 -36.8055 96.331802
-41.627899 -36.618099 96.3592
-42.253101 -36.0275 96.596901
-42.178699 -36.629101 96.494797
-42.069901 -36.4016 96.539398
-41.880699 -35.922001 96.461403
-42.6455 -36.164001 96.669502
-42.831001 -35.806301 96.668503
-43.046799 -36.026798 96.638199
-41.830898 -35.532299 95.211998
-41.874401 -35.617298 95.173599
-42.487202 -35.581299 95.108101
-42.189602 -35.352299 95.2183
-42.228901 -35.499699 95.1642
-42.071301 -35.719501 95.159302
-42.672401 -35.3153 95.122101
-42.419201 -35.2309 95.216904
-42.133999 -35.192799 95.343399
-42.149399 -35.242699 95.291603
-41.9823 -35.463402 95.215897
-42.679501 -34.929501 95.367599
-42.4076 -34.9324 95.604202
-41.900398 -35.185501 95.591599
-42.128399 -35.146301 95.410896
-41.3228 -36.9734 96.066498
-41.232201 -37.055 95.9132
-41.5951 -36.870998 96.251198
-41.525501 -37.0415 96.103401
-41.9161 -36.733601 96.404503
-41.819901 -36.9464 96.253601
-42.469799 -36.517502 96.573997
-42.264999 -36.806099 96.398201
-42.958801 -36.319901 96.646103
-43.225201 -36.467899 96.549103
-42.050098 -36.970001 96.197197
-43.242699 -36.706299 96.221603
-43.266201 -36.707699 95.858101
-43.029202 -36.780499 96.054298
-42.794701 -36.818298 95.887604
-41.236401 -37.154598 95.673798
-41.291 -37.161999 95.606102
-41.712799 -37.076801 96.084396
-41.403099 -37.138599 95.912498
-40.8078 -36.188801 95.288902
-40.915401 -36.049198 95.257004
-40.863098 -36.333599 95.1875
-40.823799 -36.318401 95.204498
-42.1091 -36.9422 95.720802
-42.2075 -36.8685 95.660301
-41.043598 -35.926998 95.253998
-40.889 -36.214699 95.2015
-41.437801 -37.149799 95.671097
-40.876801 -36.463699 95.1866
-40.929199 -36.342499 95.192398
-40.899399 -36.3456 95.196198
-40.9949 -36.834202 95.260201
-40.996201 -36.620998 95.2136
-40.960701 -36.635601 95.212097
-41.180302 -37.085201 95.444504
-41.144001 -36.938599 95.333298
-41.104401 -36.958 95.331802
-41.715 -35.581799 95.207397
-41.7799 -35.464802 95.251297
-41.536999 -35.399399 95.562698
-41.735699 -35.388599 95.3517
-41.717899 -35.345798 95.441101
-41.2742 -35.7995 95.224602
-41.2808 -35.8465 95.2164
-41.227501 -35.7742 95.256104
-41.446201 -35.5518 95.3321
-41.315899 -35.6488 95.309097
-40.907398 -36.358101 95.120903
-40.889801 -36.325001 95.130203
-40.8862 -36.276199 95.160797
-40.878201 -36.311798 95.175301
-40.955299 -36.333099 95.192299
-40.962299 -36.433399 95.193199
-41.026199 -36.606098 95.2173
-41.0755 -36.787399 95.252998
-41.163898 -36.921398 95.332199
-41.2075 -37.0224 95.4067
-41.277 -37.086399 95.503899
-41.2416 -37.132301 95.525101
-41.275501 -37.160801 95.547401
-41.230499 -37.120399 95.421402
-41.243599 -37.151199 95.477898
-40.934299 -36.312801 95.122498
-40.9939 -36.446899 95.109596
-41.012299 -36.638901 95.131798
-41.029301 -36.629501 95.130501
-41.1287 -36.804199 95.171204
-41.142601 -36.955002 95.243401
-41.164001 -36.948299 95.243103
-41.2887 -37.119801 95.445503
-41.25 -37.047901 95.341698
-41.313099 -37.159801 95.531799
-41.332802 -37.114399 95.463303
-41.254299 -37.121601 95.431297
-40.907398 -36.265499 95.137604
-40.918098 -36.340099 95.120796
-40.958 -36.281502 95.123497
-41.214901 -36.1516 95.129898
-41.570999 -35.978001 95.157204
-41.907398 -35.866901 95.191002
-41.758202 -35.920898 95.172302
-41.792801 -35.804298 95.194397
-41.9319 -35.832699 95.187698
-41.962502 -35.780899 95.172897
-41.4147 -35.526299 95.4077
-41.586102 -35.4646 95.349197
-41.503799 -35.597198 95.253197
-41.4743 -35.5732 95.288002
-41.660099 -35.680901 95.180603
-41.752499 -35.426201 95.293503
-41.912899 -35.305901 95.346901
-40.910599 -36.483101 95.124496
-40.8964 -36.370899 95.1222
-41.021301 -36.832401 95.178101
-40.987598 -36.644501 95.133904
-41.145599 -37.067101 95.327797
-41.117001 -36.959702 95.241699
-41.203201 -37.120499 95.4114
-42.079201 -36.898201 95.635101
-42.0802 -36.924999 95.691902
-42.094299 -36.936798 95.711098
-42.144699 -36.942902 95.743301
-40.8918 -36.2402 95.185303
-40.9305 -36.2761 95.193497
-40.949902 -36.442699 95.195
-41.071098 -36.799702 95.261398
-41.212799 -37.042099 95.422997
-41.301899 -37.150002 95.588097
-40.953899 -36.4701 95.114197
-41.080002 -36.818298 95.172401
-41.193401 -37.056702 95.329002
-41.525101 -35.6245 95.225998
-41.382702 -35.692299 95.2369
-41.618301 -35.5154 95.2677
-41.466099 -35.796101 95.2043
-42.75 -36.753399 95.728996
-41.994598 -36.995098 95.749496
-41.6987 -37.0895 95.713699
-41.709499 -37.109001 95.768898
-41.421501 -37.176498 95.806396
-40.929298 -36.318401 95.184601
-40.943001 -36.293999 95.190697
-41.0951 -35.941399 95.220497
-41.067001 -35.935101 95.239304
-41.1422 -35.870098 95.240501
-41.0868 -35.8092 95.321602
-41.0644 -35.7803 95.4142
-41.111698 -35.842602 95.271698
-41.907799 -35.678902 95.166298
-41.6492 -35.610001 95.207397
-41.044998 -36.2239 95.128799
-45.510399 -38.5285 100.51
-45.5308 -38.4697 99.826202
-45.0756 -38.476898 99.611397
-45.005798 -38.528301 100.164
-44.648102 -38.261398 99.266602
-45.9422 -36.969501 101.119
-45.865299 -37.194199 101.481
-45.7626 -37.395 101.7
-46.0266 -36.838799 100.731
-44.263 -37.4832 99.049698
-45.466499 -36.555199 99.530602
-45.0905 -38.413601 99.106201
-45.511799 -38.400902 99.280602
-45.784901 -36.464901 100.188
-46.111801 -37.078098 100.04
-44.820499 -38.350101 101.302
-45.187401 -38.3605 101.354
-45.197701 -37.919201 101.922
-44.942101 -38.009998 101.815
-44.775501 -38.3153 98.910103
-44.446602 -38.012798 98.740097
-44.2724 -37.452702 98.696404
-46.038799 -36.950401 97.584999
-45.688702 -36.5933 97.250099
-46.060699 -36.939499 97.316803
-46.204399 -37.494301 96.990196
-46.175301 -37.511799 97.692497
-45.9161 -37.8778 96.836098
-45.990601 -38.048901 97.545097
-45.595798 -38.225399 96.781303
-45.615002 -38.347198 97.4953
-45.191502 -38.372101 96.865303
-45.146599 -38.355701 97.488602
-44.798801 -38.206001 96.856796
-44.834 -38.232899 97.416199
-45.538399 -36.6446 98.9664
-45.5411 -36.643101 99.289803
-45.020199 -36.586399 99.2155
-44.970901 -36.588501 98.871399
-45.990799 -37.032902 99.555702
-46.1366 -37.692101 99.812897
-46.177101 -37.823898 100.612
-45.913601 -38.2551 99.895103
-45.892399 -38.364899 100.518
-45.963799 -37.158401 96.474098
-46.0406 -36.8801 96.869102
-45.804501 -36.7103 97.2808
-45.427898 -36.961601 97.649803
-45.348598 -37.8908 96.301498
-45.4646 -37.372799 96.222603
-45.007099 -37.6548 96.172997
-44.6618 -37.885799 96.412804
-44.991001 -38.164101 96.478897
-44.558102 -37.9949 96.834503
-44.7103 -38.044899 97.182701
-45.070702 -37.292702 97.665298
-45.197498 -37.379002 97.715302
-44.595501 -37.922199 97.062103
-44.467499 -36.962299 99.082703
-44.7481 -37.6432 97.4785
-44.893299 -37.752399 97.550201
-46.085499 -37.563999 99.311798
-45.971901 -36.995201 99.150002
-44.477299 -36.940201 98.7425
-46.006001 -36.9771 98.353798
-46.124901 -37.521999 98.490601
-45.901001 -38.1437 99.3694
-45.91 -38.032501 98.498001
-45.535 -38.3526 98.415802
-44.863499 -38.290298 98.152
-45.167999 -38.4021 98.270203
-44.519798 -37.960701 98.037399
-44.534901 -37.898399 97.318802
-44.310501 -37.4366 97.980003
-44.4109 -37.414902 97.213402
-44.532501 -36.932201 97.988098
-44.664398 -36.965698 97.279404
-45.007599 -36.598701 98.092697
-45.082802 -36.609402 97.258499
-45.613701 -36.629299 98.215302
-45.653301 -36.903301 96.328796
-45.712299 -37.5201 96.461098
-45.963699 -37.915699 101.379
-45.7812 -37.853802 101.673
-45.607899 -38.0793 101.707
-45.8111 -38.321899 101.246
-45.386902 -38.1987 101.637
-45.511299 -38.421501 101.208
-45.383801 -37.7729 101.968
-45.608799 -37.566299 101.877
-45.560001 -36.409302 99.849503
-45.929901 -36.764 100.095
-45.679298 -36.515301 99.9235
-44.5439 -38.198299 99.018898
-44.894199 -38.394001 99.2575
-44.729 -38.319599 99.130203
-44.6577 -38.182201 98.483101
-44.6049 -38.197102 98.813797
-44.288399 -37.756699 98.912697
-44.3825 -38.013802 98.941597
-44.500599 -38.201801 99.160599
-44.352901 -37.733299 98.379501
-44.324799 -37.748199 98.703499
-44.322701 -37.199902 98.934402
-44.265701 -37.4688 98.918404
-44.2547 -37.7444 99.040001
-45.298801 -38.465698 99.492599
-45.070301 -38.4314 99.379898
-44.979198 -38.3806 98.638802
-44.929699 -38.383801 99.010803
-44.867199 -38.407902 99.441101
-46.166901 -37.092999 100.523
-46.1166 -36.977299 100.377
-46.147499 -37.366299 100.884
-46.174099 -37.186901 100.659
-45.972198 -36.889 100.972
-45.172798 -38.521801 100.895
-44.999802 -38.5481 100.832
-44.962299 -38.2332 101.516
-44.873001 -38.159801 101.602
-45.182899 -38.1064 101.734
-45.073299 -38.165199 101.643
-45.038101 -38.365501 101.302
-45.092098 -37.966301 101.876
-45.4063 -38.002998 101.845
-45.297699 -37.867199 101.958
-45.307098 -38.5406 100.022
-45.278099 -38.573601 100.409
-45.398701 -38.470501 101.082
-45.339001 -38.5056 100.959
-45.824902 -37.6866 101.666
-45.702 -37.4884 101.786
-45.810101 -36.8125 99.566002
-45.847401 -36.795799 99.776299
-45.930801 -36.651299 100.412
-45.723801 -38.3582 99.643402
-45.520699 -38.438599 99.5811
-45.316601 -38.404202 98.792198
-45.292301 -38.426601 99.194397
-45.307098 -38.505299 99.741699
-45.908798 -37.0811 101.31
-45.073399 -38.520802 99.861198
-45.731998 -38.432899 100.162
-45.5299 -38.5014 100.106
-45.5294 -37.610298 96.287903
-45.674 -37.9072 96.551598
-45.577801 -37.742599 96.385597
-45.7309 -37.259102 96.321503
-45.627602 -37.4366 96.329102
-45.312099 -37.5951 96.183098
-45.409901 -37.633099 96.225601
-45.340801 -38.342602 101.412
-45.3783 -38.409199 101.271
-45.709999 -38.448502 100.847
-45.548901 -38.4865 100.883
-45.782299 -36.888199 96.429298
-45.627201 -36.7383 96.456802
-45.4944 -36.784199 96.341499
-45.5354 -36.737999 96.397598
-45.0485 -37.378201 96.140297
-44.6563 -37.650101 96.304497
-44.835999 -37.5159 96.1894
-45.208599 -37.516602 96.151901
-45.3722 -37.0359 96.198997
-45.255199 -37.2201 96.165604
-44.661499 -38.075401 97.113098
-44.664398 -38.065701 96.9506
-44.649502 -38.0499 96.943497
-44.489101 -37.6768 97.100502
-44.546799 -37.8829 97.069298
-44.6931 -38.117199 97.708504
-44.674999 -38.0896 97.372101
-44.991402 -38.335098 97.175499
-44.807201 -38.223202 97.159401
-44.9585 -38.2743 96.730797
-45.300098 -38.2169 96.559402
-45.126202 -38.287498 96.634201
-44.7132 -38.0606 96.570396
-44.871101 -38.191799 96.616501
-45.008598 -38.333 96.899399
-45.4174 -38.392502 97.098801
-45.391399 -38.338299 96.814903
-45.4949 -38.077301 96.521301
-44.9883 -37.924198 96.279503
-45.154202 -38.068001 96.373001
-45.584 -38.292 101.484
-45.495701 -38.149502 101.686
-45.8158 -38.070801 101.534
-45.716599 -38.2327 101.529
-45.6618 -38.392799 101.203
-45.464401 -38.3214 101.45
-46.005001 -38.179298 100.934
-45.864799 -38.373199 100.895
-45.721401 -38.458599 100.486
-45.822601 -38.176399 97.089996
-45.7728 -38.070702 96.799202
-45.983898 -37.557201 96.623596
-45.811798 -37.6991 96.605904
-45.442799 -36.859901 96.2817
-45.0877 -37.601799 97.689796
-44.760201 -37.909698 97.421204
-44.9207 -37.7719 97.5858
-45.4137 -37.2449 97.756302
-45.256802 -37.4212 97.744202
-44.990799 -37.526901 97.635101
-45.0411 -37.563801 97.657402
-44.732399 -37.880402 97.346703
-44.792999 -37.938202 97.379799
-44.548401 -37.9902 97.060997
-44.6315 -37.9888 97.2332
-44.333801 -37.183498 98.373703
-44.323399 -37.186401 98.712601
-44.7033 -36.731899 99.0196
-44.469002 -36.950901 98.961899
-44.326401 -37.2155 99.064003
-45.360001 -36.576302 99.324501
-45.256001 -36.570702 99.115303
-45.285599 -36.575802 99.229698
-45.570099 -36.640202 99.4105
-45.266399 -36.561798 99.343498
-46.1674 -37.1814 96.879501
-46.110802 -37.376701 96.697998
-45.851898 -37.372299 96.449501
-46.1432 -37.793098 97.195702
-46.0937 -37.711399 96.889801
-44.469002 -37.8587 96.697601
-44.509998 -37.7579 96.493401
-44.820301 -37.785198 96.262199
-46.160801 -37.400299 99.927002
-46.216499 -37.4594 100.311
-45.994801 -37.613602 101.374
-46.080898 -37.526299 101.145
-45.2971 -38.051498 101.802
-45.284199 -38.252602 101.555
-45.6329 -37.8288 101.807
-45.5149 -37.930698 101.838
-46.068699 -37.916199 101.084
-46.070301 -38.087399 100.185
-46.054501 -38.150799 100.541
-45.919498 -38.1469 101.284
-45.718102 -37.954498 101.689
-45.866199 -37.880798 101.572
-45.5187 -37.691101 101.917
-45.7383 -37.734402 101.753
-45.906399 -37.656101 101.542
-45.8167 -37.2981 101.603
-45.9091 -36.719501 97.174301
-46.099998 -36.9585 97.116302
-45.893101 -36.731701 97.341904
-45.8964 -36.722301 97.281898
-45.701599 -36.589699 97.137703
-45.8339 -36.6549 97.0783
-45.923199 -36.7216 97.0485
-45.860199 -36.755001 97.841103
-46.121899 -37.220699 98.011398
-46.021198 -36.961399 97.924797
-45.809101 -36.7869 98.704102
-45.8395 -36.7747 98.281998
-45.3475 -36.551498 97.708199
-45.636902 -36.607101 97.767899
-45.884399 -36.740501 97.497398
-45.781502 -36.796101 99.266197
-45.7864 -36.789101 99.052002
-46.068802 -37.2812 99.486397
-45.9744 -37.0126 99.384697
-45.791698 -36.805401 99.4133
-45.5299 -36.643398 99.1661
-45.3479 -38.378399 97.911201
-45.347401 -38.400398 98.344398
-45.749001 -38.2034 98.040497
-45.547501 -38.330299 97.986504
-45.378101 -38.388199 97.490097
-45.010399 -38.338799 97.795403
-45.164001 -38.373699 97.839798
-45.712799 -38.263599 98.925102
-45.509399 -38.357899 98.863602
-45.134701 -38.409302 98.717003
-45.014198 -38.369301 98.209198
-44.985298 -38.316601 97.448097
-44.862099 -38.258301 97.757797
-45.569801 -37.153 96.238602
-45.815102 -37.011299 96.372398
-45.9011 -36.896099 96.553802
-46.181801 -37.2337 97.402496
-46.2076 -37.239899 97.150497
-46.044701 -37.0396 96.667297
-46.0821 -37.248299 98.864601
-45.984901 -36.987499 98.783501
-45.2812 -36.568001 98.574799
-45.570801 -36.643501 98.630997
-45.441601 -36.6199 97.304497
-45.080399 -36.976101 97.580704
-45.252701 -36.776798 97.497002
-45.375099 -36.551899 97.325203
-45.316898 -36.560799 98.152496
-44.792 -36.7416 97.591904
-45.047798 -36.6022 97.650101
-44.715 -36.731098 98.452499
-44.980099 -36.5947 98.518997
-45.259102 -36.568501 98.915802
-44.722599 -37.348598 97.490402
-44.898102 -37.165901 97.565697
-45.2934 -37.1735 97.704697
-45.227501 -37.123699 97.686096
-44.861099 -36.765499 97.278198
-44.745998 -36.736698 98.031502
-44.4249 -37.168499 97.5522
-44.5821 -36.934799 97.556198
-44.7038 -36.726299 98.804802
-44.497101 -36.9366 98.3965
-44.571301 -37.517502 97.338699
-44.9021 -37.469501 97.598999
-44.493401 -37.164398 97.190102
-44.370899 -37.173 97.973198
-44.4035 -37.688702 97.614197
-44.3503 -37.4319 97.578102
-44.285 -37.443802 98.366402
-44.641998 -37.802502 97.286201
-44.435299 -37.669102 97.264297
-44.3769 -37.712101 97.998703
-44.5308 -37.925201 97.659698
-44.491901 -37.993401 98.418602
-44.4944 -37.9412 96.884003
-44.617699 -38.040699 97.017899
-44.690701 -38.153801 98.091202
-44.827499 -38.3083 98.560898
-44.555199 -37.93 96.629799
-45.731098 -38.2234 98.4664
-46.067101 -37.7771 98.091904
-45.925999 -38.016102 98.076103
-45.820099 -38.230099 97.512802
-45.7127 -38.318802 99.345703
-46.027599 -37.815399 98.953102
-45.898102 -38.074799 98.952904
-46.047199 -37.9464 99.648003
-45.907902 -38.200298 99.659302
-45.733898 -38.3937 99.8825
-46.050201 -37.792702 98.509399
-46.1422 -37.503899 98.074699
-46.130199 -37.810299 97.6194
-46.0364 -37.881901 99.361504
-46.095798 -37.533401 98.926903
-46.1077 -37.627399 99.5858
-46.061199 -38.012001 99.886398
-46.105801 -37.237701 98.432198
-46.1325 -37.208199 97.6707
-46.066399 -37.259102 99.239197
-44.976898 -36.592999 99.080704
-44.7089 -36.741199 99.131798
-46.1035 -37.327499 99.681099
-45.720699 -36.899101 97.548302
-45.565102 -37.0718 97.699799
-45.331402 -37.201801 97.729698
-44.8391 -37.709 97.5224
-45.143101 -37.356602 97.695801
-44.676601 -38.003899 97.155098
-44.669102 -38.0816 96.984703
-45.632999 -36.8172 97.5028
-44.633099 -38.0546 96.765099
-44.827 -38.0229 96.403702
-45.170399 -37.767399 96.2034
-45.818199 -36.735699 97.327698
-45.844398 -36.6987 96.785103
-45.911301 -38.317402 100.183
-46.173 -37.775501 100.116
-46.018902 -37.0467 99.739601
-45.202599 -38.397099 97.131599
-45.636501 -38.312199 97.081001
-45.977699 -37.992802 97.125397
-46.227699 -37.537899 97.293602
-46.0536 -36.941399 97.413696
-44.3139 -38.0159 99.034203
-45.624199 -36.6427 99.605904
-45.666401 -36.5923 97.4067
-44.8083 -38.223301 96.976402
-44.723202 -38.132 96.758904
-45.638901 -36.621799 96.644096
-45.643002 -36.544701 96.8545
-45.693699 -36.644798 97.364998
-45.487598 -36.994301 97.736397
-45.177101 -37.3461 97.789597
-44.400002 -37.858101 96.944397
-44.3988 -37.656502 96.579903
-44.522701 -37.904598 97.300201
-45.069901 -37.097599 96.1744
-45.295601 -36.770599 96.310799
-44.624401 -37.3451 96.280701
-44.831402 -37.689999 97.6399
-45.382801 -36.558701 96.5718
-44.629101 -35.879902 97.672897
-44.373402 -35.713699 97.734001
-44.320599 -35.712502 97.250504
-44.632 -35.923401 97.1576
-44.333099 -35.9715 98
-44.284401 -35.930199 98.033096
-43.605999 -36.987801 97.0103
-43.337502 -36.772701 97.138
-43.343899 -36.9207 97.425003
-43.552502 -37.112598 97.320602
-43.498001 -36.9491 97.7248
-43.5956 -37.080101 97.675598
-43.826 -36.740398 97.997398
-43.9198 -36.855701 97.9804
-44.136299 -36.355701 98.0783
-44.230301 -36.476398 98.079597
-44.451199 -36.083401 98.010803
-44.012001 -35.8517 96.930496
-44.355499 -36.084599 96.755699
-43.730801 -36.155998 96.851097
-44.028801 -36.359798 96.648102
-43.466099 -36.509201 96.910599
-43.740299 -36.712399 96.751503
-44.794899 -36.987301 97.972801
-44.441101 -37.347401 97.837502
-44.071499 -37.370701 96.780098
-44.032398 -37.5443 97.120697
-44.122799 -37.5686 97.486801
-43.789398 -36.689098 98.045303
-44.100399 -36.3008 98.099998
-45.072899 -36.610298 97.894699
-45.2579 -36.296902 97.475998
-45.183701 -36.270901 96.936798
-44.8461 -36.4268 96.610199
-45.0919 -36.623001 96.445999
-44.812901 -36.931 96.2911
-44.5019 -36.704899 96.460297
-44.2323 -37.082401 96.550499
-45.3951 -36.411598 96.815804
-45.525101 -36.5242 96.728798
-44.803101 -37.182598 96.213898
-44.892502 -37.2467 96.1689
-45.292099 -36.606098 96.468903
-45.367802 -36.6712 96.4067
-44.856499 -37.3853 97.829201
-45.007401 -37.524502 97.739403
-44.4944 -37.684299 97.573196
-44.660099 -37.823399 97.482903
-44.322899 -37.386101 96.534203
-44.459099 -37.496601 96.437401
-45.064499 -36.844002 96.273697
-45.199799 -36.929901 96.218697
-44.273998 -37.771999 97.206596
-44.443699 -37.9048 97.125603
-44.238602 -37.6465 96.840698
-44.381199 -37.779202 96.755501
-45.1828 -37.0186 97.876297
-45.3395 -37.1707 97.797699
-45.435501 -36.649502 97.646202
-45.611801 -36.804298 97.580902
-45.714901 -36.5718 97.130501
-45.182301 -36.691101 96.371498
-45.162998 -36.452999 96.621803
-45.238899 -36.555401 96.524597
-44.9533 -37.0186 96.214996
-44.531799 -37.022701 96.382896
-44.6926 -37.1134 96.275703
-44.831001 -36.6745 96.435799
-44.938099 -36.756599 96.359596
-44.304699 -35.7915 97.959801
-44.339802 -35.8008 97.9105
-44.316502 -35.796902 97.948196
-44.201801 -36.092701 98.096001
-44.2756 -35.920399 98.048401
-43.628899 -36.807301 97.978302
-43.631802 -36.846401 97.913002
-43.632702 -36.818501 97.960503
-43.944302 -36.495602 98.105202
-43.780399 -36.681999 98.063698
-44.091801 -36.289501 98.113197
-44.229 -36.124699 98.069099
-44.211899 -36.1026 98.082397
-43.969601 -36.528301 98.073303
-43.952801 -36.5061 98.089203
-45.522202 -36.515301 97.434799
-45.505299 -36.425301 97.173302
-45.449799 -36.407902 96.921501
-45.309101 -36.426899 96.730797
-43.8955 -37.053101 96.7696
-43.493099 -36.738098 96.941101
-43.651402 -36.861801 96.863602
-43.794998 -37.2626 97.057602
-43.8325 -37.173 96.903999
-44.134998 -37.240601 96.6502
-44.1133 -36.713501 96.5728
-43.9813 -36.894699 96.651199
-43.259201 -36.571701 97.115097
-43.476398 -36.257801 96.940804
-43.3442 -36.426998 97.002502
-43.2575 -36.809898 97.383003
-43.229 -36.696499 97.2509
-43.377998 -36.651299 97.015099
-44.2631 -37.5308 96.671799
-44.415199 -37.214802 96.436996
-43.733799 -35.898602 97.009697
-43.610699 -36.072102 96.956802
-43.720501 -36.425201 96.763
-43.598801 -36.341 96.847603
-44.426701 -36.375 96.584503
-44.2645 -36.5294 96.548599
-43.879501 -36.540501 96.6726
-44.352699 -36.8918 96.476898
-44.667702 -36.831699 96.381401
-44.665901 -36.548801 96.507599
-44.777 -36.1712 96.852997
-44.606998 -36.259899 96.6838
-44.000999 -36.081902 96.775902
-44.181198 -36.204498 96.675598
-44.996899 -36.541698 96.517403
-45.018398 -36.327801 96.743599
-44.029701 -35.662102 97.140602
-44.3367 -35.865101 96.983498
-44.179501 -35.7617 97.0476
-44.259102 -35.620998 97.543602
-44.1754 -35.618698 97.304001
-43.870602 -35.7589 97.048698
-44.527302 -35.997898 96.926804
-44.9394 -36.072399 97.322899
-44.889702 -36.101101 97.063904
-44.4865 -35.760201 97.4739
-44.367599 -35.688301 97.510597
-44.327801 -35.6898 97.754601
-44.660702 -35.8773 97.415604
-45.238602 -36.250401 97.209396
-44.854599 -36.185699 97.816101
-44.925598 -36.098202 97.589104
-44.418999 -35.8508 97.884003
-44.4534 -35.762402 97.724098
-44.5415 -35.944901 97.884201
-44.277599 -36.188202 98.058701
-44.365601 -36.0019 97.996101
-44.3755 -35.820801 97.888199
-44.615398 -36.506302 98.051697
-44.743301 -36.328499 97.977097
-45.182899 -36.444698 97.728302
-45.320301 -36.8354 97.808502
-44.1161 -36.323799 98.087196
-44.304798 -35.9454 98.011902
-44.252399 -36.154301 98.061302
-44.942501 -36.7934 97.966904
-44.313202 -36.900799 98.032501
-44.472801 -36.7033 98.064003
-44.3549 -36.272099 98.067596
-45.028198 -37.203701 97.875298
-44.014999 -36.594799 98.054901
-43.9907 -36.559502 98.060898
-43.802898 -36.711498 98.0186
-44.672401 -37.550999 97.731102
-44.624699 -37.176601 97.932899
-43.674198 -36.907902 97.851997
-43.650398 -36.873699 97.876198
-43.386299 -36.935799 97.6362
-43.483898 -36.923302 97.779404
-43.9767 -37.224899 97.783203
-44.2626 -37.484798 97.677696
-43.790901 -37.344398 97.402603
-43.847301 -37.317402 97.589302
-43.7384 -36.992001 97.844498
-44.142899 -37.078999 97.942001
-44.351101 -37.763802 97.386398
-43.326302 -36.898399 97.497101
-43.428398 -36.999901 97.541801
-43.401299 -36.9585 97.571098
-44.052799 -37.581699 97.300797
-43.782398 -37.320301 97.2257
-43.551998 -37.120499 97.492302
-44.243099 -37.726601 97.025902
-43.431499 -36.950298 97.2295
-43.3353 -36.868698 97.278198
-43.569901 -37.068501 97.161499
-44.0387 -37.4729 96.9422
-43.858501 -35.9869 96.889
-44.084702 -36.6777 98.054901
-43.4515 -36.861599 97.072403
-43.583599 -36.592999 96.834702
-43.861 -36.244598 96.748703
-44.167801 -35.955601 96.836899
-44.463799 -35.806198 97.218597
-44.158699 -36.3918 98.075798
-43.852299 -36.773499 97.984802
-43.519199 -36.985901 97.690201
-43.415798 -36.988499 97.385803
-43.155899 -36.652599 97.387604
-44.053501 -35.542999 97.417397
-43.483299 -35.991001 97.041
-43.226398 -36.3545 97.118401
-43.273399 -36.858799 97.611504
-43.4879 -36.898399 97.873398
-43.776402 -36.671001 98.088501
-44.085098 -36.284 98.137604
-44.268101 -35.9147 98.070198
-44.2962 -35.6777 97.813599
-43.753799 -35.673901 97.148499
-42.5051 -35.102901 99.337196
-42.6605 -35.066101 99.277199
-42.688 -35.070202 99.337997
-42.5271 -35.109501 99.376602
-42.180698 -35.4855 99.284798
-42.194901 -35.6497 99.188301
-42.238098 -35.5275 99.153503
-42.370499 -35.3116 99.1689
-42.3027 -35.266399 99.324898
-42.553902 -35.134499 99.217499
-42.576 -35.136398 99.365402
-42.349499 -35.296398 99.355698
-42.307098 -35.2747 99.369202
-42.254101 -35.525501 99.315697
-42.185799 -35.510601 99.325302
-42.2061 -35.687801 99.263199
-43.745701 -35.3503 97.900299
-43.916199 -35.453999 97.647903
-44.188999 -35.5783 97.981697
-44.036701 -35.451698 98.190201
-44.2505 -35.8936 98.181602
-44.154202 -35.8186 98.387299
-44.075199 -36.262699 98.248703
-44.040298 -36.23 98.441597
-43.7603 -36.645901 98.2136
-43.68 -36.577999 98.432503
-43.379501 -36.842899 98.060997
-43.237701 -36.740299 98.322701
-43.1525 -36.777901 97.852898
-43.0065 -36.675499 98.132202
-43.024399 -36.568699 97.612602
-42.877998 -36.468399 97.873703
-43.046501 -36.254101 97.4067
-42.9118 -36.164501 97.665199
-43.268299 -35.8713 97.2743
-43.103199 -35.790298 97.569901
-43.5676 -35.563202 97.372704
-43.4091 -35.493698 97.655197
-42.798199 -35.061501 99.327301
-42.560398 -35.1222 99.377296
-42.784401 -35.067902 99.286301
-43.046299 -35.1231 98.966301
-42.2509 -35.8106 99.1754
-42.215199 -35.5116 99.327797
-42.248199 -35.8326 99.220901
-42.435101 -36.052799 98.7967
-42.406799 -35.958698 98.8162
-42.2285 -35.553299 99.403297
-42.331799 -35.2892 99.377502
-42.358799 -35.301899 99.450996
-42.589298 -35.115299 99.4394
-42.646301 -35.8582 99.621696
-42.342701 -35.689602 99.552299
-42.494701 -35.341999 99.6008
-42.900101 -35.471901 99.685997
-42.774601 -35.2337 99.610001
-42.662201 -36.269299 98.315804
-42.7598 -36.453201 98.596199
-42.5476 -36.2402 98.998703
-42.9664 -36.5009 98.806801
-43.3619 -36.378899 98.918602
-42.745998 -36.266201 99.1772
-43.0546 -36.153999 99.3274
-43.707901 -36.024601 98.941704
-43.344398 -35.778099 99.372704
-43.7966 -35.576099 98.858704
-43.419399 -35.374001 99.242302
-43.718498 -35.294899 98.578796
-43.300499 -35.164299 99.122101
-43.414299 -35.233799 98.317703
