# .PCD v.7 - Point Cloud Data file format
VERSION .7
FIELDS x y z
SIZE 4 4 4
TYPE F F F
COUNT 1 1 1
WIDTH 1751
HEIGHT 1
VIEWPOINT 0 0 0 1 0 0 0
POINTS 1751
DATA ascii
3.7295301 -25.407301 131.92101
4.4362602 -25.1017 131.817
4.0998502 -24.822001 133.851
4.2175598 -24.1243 135.09599
4.1701999 -24.511 134.521
4.0373402 -25.0019 133.366
4.74719 -24.693199 133.213
2.97947 -25.7094 128.649
2.7214701 -25.712601 128.63499
2.67381 -25.544701 128.38499
2.7613001 -25.4268 128.269
2.55001 -25.6245 128.466
2.26669 -25.678801 128.436
2.31721 -25.603901 128.287
2.17817 -25.661501 128.293
2.5382199 -25.725201 128.62801
2.33356 -25.7738 128.668
2.40765 -25.8794 128.918
2.61689 -25.8458 128.883
2.8411701 -25.8118 128.842
2.52864 -25.9638 129.27901
2.6696801 -25.9765 129.763
2.7916901 -25.887899 130.27699
2.9278901 -25.7512 130.85201
1.25201 -26.085501 123.424
1.12973 -26.0961 123.382
4.10182 -25.6094 129.55499
0.98997802 -8.3345699 134.88699
0.37581301 -7.2957902 133.03999
-0.166814 -6.81532 131.119
3.6984701 -18.4792 138.34599
3.3936701 -16.864201 138.588
2.7465999 -13.7474 138.494
2.3715601 -11.9878 137.965
1.84723 -10.2226 136.939
1.43085 -9.2177 136.00101
4.08002 -22.5301 136.75101
3.9888301 -21.207001 137.468
3.8455701 -19.5126 138.106
4.1470799 -25.469 130.047
4.0787101 -25.3806 130.56
3.7588301 -25.632099 130.114
3.6443801 -25.790001 129.558
3.5350699 -25.567301 130.748
3.20999 -25.67 130.812
3.0611 -25.828501 130.241
3.3750601 -25.7477 130.192
3.0202799 -25.889 129.153
2.9140501 -25.930901 129.70599
3.2153299 -25.878201 129.63499
2.7476299 -25.9266 129.22
2.5715001 -25.3323 128.07899
1.4463 -25.9795 123.524
1.25156 -26.198601 123.495
1.52763 -26.616301 123.686
1.60663 -26.6798 123.704
1.72504 -26.687799 123.73
1.88011 -26.608801 123.763
2.0346899 -26.447599 123.765
2.35589 -25.548 126.241
1.46481 -25.9014 123.421
1.7061501 -25.9107 123.663
1.83655 -25.809099 123.628
2.0891099 -25.7915 123.596
2.05863 -25.798401 123.626
2.1059599 -25.853399 123.632
1.53509 -26.9147 123.715
1.41045 -26.768 123.639
1.5636899 -27.049299 123.804
1.5953 -27.173901 123.919
1.64397 -27.309 124.075
1.80176 -27.135201 125.148
1.95737 -25.938801 127.304
2.0028701 -25.7453 127.724
2.0880001 -25.6726 128.064
1.77405 -27.105801 123.937
1.82998 -26.518999 123.757
1.6914001 -26.6042 123.747
1.59085 -26.6075 123.735
2.1347201 -26.4259 123.803
2.14586 -26.100201 123.685
1.43099 -25.881901 123.872
1.44759 -26.4282 123.836
1.50799 -26.497801 123.819
1.56958 -26.522301 123.833
1.66228 -26.5135 123.839
1.77844 -26.4505 123.836
1.88054 -26.2672 123.848
2.0558 -25.8599 123.685
2.0160301 -26.035299 123.728
2.02724 -25.7966 123.671
1.81426 -25.789301 123.697
1.6562901 -25.896999 123.756
1.53996 -25.991301 123.769
1.48142 -26.4554 123.743
1.5295 -26.5578 123.73
1.9058501 -26.315001 123.765
2.02806 -25.4252 123.456
2.0794599 -26.067301 123.697
1.96794 -26.3671 123.747
1.53189 -26.021299 123.648
1.4703 -26.499399 123.683
2.0937901 -25.825199 127.26
2.1413 -25.640499 127.669
2.23615 -25.577299 128
2.2620599 -25.465099 127.189
2.1914599 -25.6716 127.223
2.3110199 -25.354601 127.551
2.2427001 -25.514601 127.609
2.4140601 -25.3025 127.847
2.34778 -25.4499 127.924
2.4951 -25.4914 128.22
1.93029 -25.567801 123.477
1.85493 -25.608999 123.456
1.82104 -27.216499 124.082
1.96527 -27.0394 125.092
-1.8127199 -8.9991903 123.204
-0.93229598 -9.0590496 123.137
7.2947502 -21.2185 132.571
7.46246 -20.445101 131.952
7.1293998 -21.7955 131.67101
7.2951102 -21.011999 131.138
6.9470701 -22.0124 133.14999
6.8050199 -22.6269 132.207
7.2887402 -20.079201 130.40601
7.4064598 -19.2836 130.953
6.9436002 -22.1479 130.86501
7.1153002 -21.421 130.39799
7.1577301 -20.818899 129.91
7.13691 -20.262699 129.317
6.8611202 -22.2743 130.504
7.0208998 -21.606001 130.088
7.0717101 -21.1164 129.673
7.0748501 -20.6523 129.145
5.7670898 -20.772301 123.973
5.4712801 -20.617001 123.217
6.45683 -20.8528 126.035
6.24828 -20.959801 125.305
6.0574002 -20.8981 124.735
6.6743002 -22.579599 129.717
6.8434701 -21.971901 129.34599
6.9401999 -21.2635 128.80901
6.9007502 -20.8678 128.241
6.7918601 -20.656099 127.607
6.6991301 -20.5973 127.14
6.6554298 -20.6108 126.902
6.6122398 -20.6639 126.682
5.2189698 -20.376699 122.567
4.99262 -19.9491 121.92
6.3955598 -21.3048 126.432
6.5351801 -20.761101 126.354
6.6261101 -20.1056 126.317
2.4804699 -26.1252 124.07
2.4907899 -25.039101 126.461
2.49984 -24.7829 126.758
2.5049601 -26.068199 124.241
2.3768899 -25.7041 124.794
2.3727601 -25.6707 124.872
2.39501 -25.759199 124.729
2.48263 -25.988199 124.435
2.39412 -25.6196 125.017
2.4361701 -25.5728 125.2
2.5036099 -25.2644 126.08
2.5023999 -25.431 125.709
2.4772501 -25.525101 125.416
2.43191 -25.8757 124.616
6.3590798 -16.7764 126.076
6.1823702 -16.852699 125.477
4.5576301 -17.7486 121.038
4.4072099 -18.0107 120.587
5.0816398 -17.288799 122.474
4.7968202 -17.5138 121.728
7.2768402 -17.2827 130.72
7.0526299 -17.0194 129.52
6.869 -16.838499 128.56799
6.74965 -16.830099 127.835
6.5392599 -16.7901 126.796
5.95822 -16.895901 124.835
5.7107801 -16.934999 124.155
5.3818598 -17.026899 123.325
6.16257 -21.778299 125.948
6.26968 -21.4126 125.762
6.3545899 -20.931999 125.661
7.0461102 -13.9903 131.17
7.1566501 -14.1059 132.314
6.9854898 -14.3561 134.42
6.6855302 -14.5609 135.562
5.9369502 -14.8611 136.685
5.1543198 -15.056 137.489
4.2989802 -15.1674 138.103
3.10307 -15.2936 138.61099
4.5177498 -14.331 123.242
4.5510702 -14.9303 123.258
4.49582 -13.7395 123.196
4.6664701 -15.2751 123.25
4.8137898 -15.6103 123.219
5.00455 -16.053699 123.201
4.3850398 -12.8948 123.132
4.2537599 -12.3292 123.125
3.46381 -10.5242 123.162
3.8843 -11.3636 123.108
2.6228001 -9.4853096 123.341
2.0439301 -9.0962696 123.47
1.30626 -8.7862101 123.665
0.27767399 -8.5968103 123.934
-0.73811603 -8.5004597 124.207
-1.63079 -8.5007095 124.445
5.1821699 -16.575899 123.156
6.6270499 -22.932501 131.30701
6.4355402 -23.2917 132.593
4.0553098 -23.1539 122.468
3.9799099 -23.2584 122.483
7.0569901 -15.8717 129.93201
7.2435699 -15.842 131.123
7.3278399 -16.423201 134.42101
7.0179901 -16.7076 135.539
6.2389598 -17.117001 136.694
5.4717102 -17.325199 137.46001
4.6459599 -17.507601 138.01401
7.4238 -16.0327 132.308
3.55007 -17.6499 138.504
6.8181901 -14.6507 129.24899
6.9688101 -14.59 130.069
7.1370702 -14.605 131.235
7.2617998 -14.7218 132.36
7.10425 -15.0288 134.487
6.7926798 -15.2667 135.595
6.0303202 -15.5787 136.731
5.2613702 -15.8119 137.526
4.42275 -15.9416 138.12199
3.2595501 -16.1099 138.629
6.6326299 -13.6927 128.739
6.7075701 -13.643 129.29601
6.82373 -13.525 130.065
6.93922 -13.4483 131.077
7.04287 -13.5322 132.246
6.8656998 -13.7569 134.35899
6.5780602 -13.9052 135.491
5.8275299 -14.1341 136.633
5.0294499 -14.2785 137.436
4.15486 -14.3705 138.056
2.9133 -14.5055 138.58501
6.5309901 -12.3607 129.86501
6.6451998 -12.3149 130.81599
6.75069 -12.359 132.045
6.5782399 -12.4319 134.133
6.2666202 -12.4861 135.26801
5.5204301 -12.5679 136.399
4.70924 -12.6471 137.16
3.81197 -12.7164 137.783
2.5355401 -12.8431 138.27699
6.2340899 -11.3301 129.735
6.2999902 -11.2207 130.54201
6.3896799 -11.2057 131.64999
6.2122698 -11.0922 133.577
5.8368702 -11.0274 134.698
5.0563202 -10.9613 135.81599
4.2332101 -10.9264 136.507
3.3283899 -10.9793 137.099
2.15046 -11.1732 137.571
7.4882998 -17.789801 134.147
7.50491 -17.135 132.073
7.2863998 -16.860901 130.90601
7.0454998 -16.719801 129.58
5.5992799 -19.8857 136.978
4.9190998 -20.1532 137.34599
5.95959 -19.7019 136.698
6.5083899 -19.332899 136.21201
6.8164902 -19.0313 135.78
7.2753401 -18.4792 134.936
3.947 -20.4552 137.793
5.67735 -21.178101 136.36
5.0344801 -21.468201 136.73199
6.1474299 -20.881701 135.99899
6.6220598 -20.526501 135.509
6.9819198 -20.1339 134.939
7.3519101 -19.6621 134.067
7.5385699 -19.145599 133.202
7.2560101 -17.7658 130.45599
7.48141 -18.2484 131.589
7.0489702 -17.5214 129.304
4.0210099 -21.85 137.16499
6.66081 -21.451599 134.815
6.2406301 -21.8272 135.30499
5.7167001 -22.225599 135.65401
5.0771298 -22.5809 135.99899
4.0429802 -23.089899 136.313
7.5257001 -16.828199 133.22
7.57973 -17.4326 133.062
7.59693 -18.091 132.71001
7.5845699 -18.6399 132.35201
7.5507102 -19.128599 131.98399
7.5199599 -19.387699 131.72501
7.4615302 -19.715 131.343
7.3850598 -20.062099 130.98599
5.9834399 -10.1707 131.759
6.1609802 -10.5423 132.162
2.85094 -10.1899 122.583
3.0475399 -9.91889 123.241
3.3204601 -9.64925 124.006
3.74371 -9.3525801 125.12
4.1409001 -9.0920401 126.337
4.60151 -8.9579 127.688
5.0238299 -9.0233402 128.92999
5.4928002 -9.3818398 130.30099
6.3766799 -11.1602 132.494
6.5683198 -11.7483 132.748
6.7358899 -12.3868 132.936
6.8979201 -13.064 133.09399
7.02456 -13.6348 133.194
7.3709102 -15.5192 133.392
7.4593902 -16.2201 133.33099
7.3090401 -20.3916 130.67599
7.1396298 -14.2224 133.29601
7.2558198 -14.8623 133.35201
6.1214499 -10.6849 130.511
5.9750199 -10.2173 130.672
2.9516201 -7.8555002 133.02901
1.82021 -7.6666598 133.479
3.8973401 -8.1437502 132.60699
4.74019 -8.6487799 132.008
5.3070302 -9.1461201 131.50999
5.7084298 -9.7069702 131.049
0.61656201 -7.6722298 133.89
5.9322701 -10.7264 129.05499
5.5920501 -9.7677498 129.293
5.2607698 -9.1682396 129.62801
4.82342 -8.5619402 130.047
4.2221298 -8.0464897 130.492
3.3709099 -7.5766101 130.97
2.4059501 -7.23912 131.343
1.30358 -7.0125499 131.771
6.1810699 -11.565 128.97701
0.114926 -7.0236902 132.146
0.13462099 -25.148399 118.234
-0.041859001 -25.186701 118.246
0.045818999 -25.1702 118.241
0.036899 -25.0086 118.019
0.089685999 -25.086 118.124
0.374648 -25.0588 118.163
0.24039 -25.117001 118.214
0.175 -25.2337 118.398
0.159743 -25.2052 118.344
0.74643201 -24.9622 118.243
0.89068198 -25.0923 118.732
0.82764697 -25.042299 118.475
0.472743 -25.1665 118.401
0.60859603 -25.0704 118.315
0.56900603 -24.770599 117.907
0.65525502 -24.868401 118.042
1.01095 -24.6661 118.129
0.87477303 -24.8393 118.184
1.3043801 -24.128 118.051
1.15145 -24.4286 118.081
1.10376 -23.937599 117.731
1.2077 -24.0242 117.857
1.61366 -23.4552 118.003
1.4614 -23.777 118.015
1.46289 -24.3165 118.562
1.3916399 -24.230101 118.306
0.28732401 -24.922701 117.975
0.145255 -24.972601 117.998
-0.13926101 -25.0604 118.052
-0.052719999 -25.0362 118.034
-0.063963003 -24.8001 117.828
-0.013945 -24.917 117.918
0.163717 -24.704599 117.784
0.226137 -24.823099 117.871
0.435956 -24.863001 117.947
0.341005 -25.010099 118.085
0.409457 -24.5277 117.712
0.49117699 -24.657101 117.798
0.81938797 -24.476101 117.818
0.691194 -24.6455 117.862
0.957753 -24.2421 117.771
0.88930303 -23.7222 117.57
0.999888 -23.8384 117.638
1.32978 -23.3041 117.676
1.23572 -23.6089 117.696
-0.183374 -24.3491 117.654
-0.285739 -23.791 117.545
-0.23314901 -24.059601 117.589
-0.014701 -24.282301 117.624
-0.084613003 -24.319901 117.639
-0.11957 -24.6208 117.738
-0.379816 -24.4104 117.686
-0.28197801 -24.3797 117.668
0.138809 -24.118401 117.576
0.052616 -24.2251 117.606
0.082942002 -24.5278 117.699
-0.089424998 -23.8505 117.535
-0.002566 -23.942101 117.547
0.311566 -23.821699 117.519
0.224096 -23.9828 117.548
0.29272899 -24.3438 117.639
0.501948 -23.4223 117.481
0.40435499 -23.6346 117.496
0.051720999 -23.136101 117.471
0.271166 -23.273001 117.471
0.70828301 -22.988701 117.473
0.60318297 -23.203699 117.471
0.72602499 -23.58 117.516
1.77052 -23.6492 118.498
1.61742 -24.0023 118.531
1.5418 -24.426399 119.07
1.51465 -24.3853 118.817
1.16798 -24.7978 118.632
1.3105299 -24.5832 118.592
0.30326 -25.2994 119.958
0.251876 -25.3969 119.591
0.27911699 -25.339199 119.793
0.53891599 -25.2346 119.893
0.40935299 -25.271601 119.93
0.35480601 -25.326401 120.201
0.32774499 -25.2927 120.093
0.46185401 -25.3419 119.531
0.50311297 -25.282801 119.728
0.82342303 -25.1241 119.793
0.68143803 -25.1856 119.846
0.59926599 -25.249701 120.139
0.57131702 -25.2232 120.028
0.73090202 -25.248199 119.422
0.78393298 -25.180901 119.621
1.0674 -24.975901 119.687
0.95060998 -25.0578 119.738
0.87455702 -25.127001 120.05
0.850407 -25.107401 119.933
1.00339 -25.088699 119.269
1.04563 -25.027901 119.498
1.30924 -24.7542 119.598
1.18497 -24.878599 119.64
1.11352 -24.9732 119.969
1.09038 -24.9578 119.84
1.26072 -24.8375 119.156
1.28263 -24.797501 119.391
1.58571 -24.4016 119.502
1.4466799 -24.591999 119.555
1.36858 -24.762699 119.919
1.34562 -24.7346 119.773
1.5552 -24.4272 119.302
1.91792 -23.907301 119.442
1.74247 -24.169001 119.462
1.66057 -24.375299 119.749
1.63081 -24.3769 119.655
0.34867799 -25.372999 119.565
0.374571 -25.41 119.146
0.418338 -25.389299 119.326
0.59073001 -25.301901 119.486
0.61532599 -25.3207 119.086
0.66449201 -25.300301 119.224
0.86588901 -25.183399 119.337
0.94436401 -25.116199 119.004
1.13264 -24.9772 119.21
1.22241 -24.8353 118.897
1.39626 -24.656099 119.108
1.86218 -23.828899 119.003
1.69835 -24.1488 119.037
0.57349998 -25.2792 118.765
0.73591697 -25.1994 118.768
1.0294 -24.962999 118.681
0.191956 -25.4571 119.189
0.220947 -25.436701 119.379
0.280168 -25.437401 119.172
0.137769 -25.4405 118.936
0.16227899 -25.4536 119.031
0.0069630002 -25.276501 118.428
-0.010411 -25.24 118.358
-0.086112998 -25.1304 118.151
-0.243558 -24.863501 117.865
-0.193157 -24.9729 117.954
-0.305639 -24.685801 117.773
-0.50744802 -23.8363 117.578
-0.449586 -24.1101 117.618
-0.154201 -24.8328 117.845
0.038594 -24.760599 117.807
0.291747 -24.6259 117.748
0.63818902 -24.2281 117.638
0.52145702 -24.398199 117.675
0.76278597 -24.002701 117.601
1.07751 -23.1703 117.549
1.00177 -23.431801 117.554
-0.013538 -25.366301 118.613
0.0099409996 -25.3265 118.526
0.00078300002 -25.345501 118.565
0.033567999 -25.3708 118.638
0.014763 -25.366501 118.622
0.015091 -25.402201 118.721
0.046016 -25.385 118.68
0.036582999 -25.3941 118.703
0.083158001 -25.419701 118.812
0.053406999 -25.4125 118.769
0.48796299 -25.371099 119.109
0.312415 -25.4 118.918
0.331368 -25.409401 118.993
0.016595 -25.3032 118.481
0.119687 -25.335699 118.586
0.075479999 -25.3248 118.543
0.15188199 -25.3752 118.706
0.135368 -25.3986 118.771
0.115414 -25.428301 118.863
0.079983003 -25.3529 118.61
0.045228001 -25.376801 118.657
0.102814 -25.379999 118.692
0.40278399 -25.106501 118.259
0.59192902 -25.3109 118.953
-0.029789001 -23.5459 117.495
0.128061 -23.6476 117.498
0.49910101 -24.039101 117.568
0.73268801 -24.3678 117.718
0.91500401 -24.570999 117.942
1.09622 -24.7421 118.373
0.094573997 -25.260099 118.421
0.24084599 -25.284 118.522
0.19557901 -25.2537 118.443
0.226419 -25.419399 118.921
0.29789799 -25.3507 118.736
0.30356199 -25.383499 118.851
0.167933 -25.313999 118.556
0.14511301 -25.353901 118.641
0.21328101 -25.3671 118.724
0.33302701 -25.237801 118.469
0.27678901 -25.3162 118.62
0.40978599 -25.329 118.757
0.53210503 -25.2279 118.571
2.45591 -25.9408 123.736
2.4681101 -25.672199 123.63
2.47823 -25.792601 123.673
2.5509601 -25.864401 123.861
2.5063801 -25.9121 123.793
2.33727 -26.258101 123.873
2.4086001 -26.106701 123.815
2.3283999 -25.9669 123.661
2.4012401 -25.955601 123.693
2.39059 -25.507799 123.557
2.4373801 -25.5811 123.591
2.5595801 -25.572701 123.74
2.51635 -25.627701 123.676
2.3436 -25.741301 123.573
2.4133999 -25.7089 123.596
2.3025899 -25.373501 123.518
2.34182 -25.434601 123.534
2.4802301 -25.3832 123.645
2.4359901 -25.450001 123.592
2.2725999 -25.6178 123.523
2.3391399 -25.5602 123.537
2.2428899 -25.273399 123.498
2.27157 -25.3216 123.508
2.1249001 -25.383499 123.472
2.20314 -25.312799 123.487
2.3262701 -25.174999 123.566
2.2734301 -25.2432 123.517
2.4563501 -25.2864 124.738
2.39574 -25.560499 124.809
2.4226699 -25.4282 124.782
2.4591401 -25.3417 124.674
2.45403 -25.3118 124.708
2.52918 -25.023399 124.541
2.49541 -25.1443 124.66
2.4999499 -25.2348 124.835
2.47155 -25.2607 124.777
2.5194299 -25.0732 124.488
2.51932 -25.0481 124.52
2.5520201 -24.924999 124.377
2.5758901 -24.976601 124.575
2.549 -24.996201 124.556
2.55211 -24.8748 124.183
2.48526 -24.9058 123.849
2.52595 -24.874001 123.998
2.4795201 -24.9769 123.857
2.4760101 -24.9408 123.854
2.4002299 -24.9949 123.662
2.4398701 -24.951099 123.735
2.56532 -24.820299 123.748
2.5137999 -24.869101 123.826
2.2965801 -25.1115 123.545
2.35675 -25.043301 123.603
2.3032701 -25.1425 123.554
2.1043899 -25.306801 123.454
2.21051 -25.2047 123.489
2.3394599 -25.044701 123.49
2.3062301 -25.0804 123.528
2.4056001 -25.605801 124.747
2.43065 -25.479799 124.718
2.48365 -25.4231 124.577
2.4675 -25.3797 124.631
2.4904399 -25.2012 124.601
2.5344701 -25.1436 124.387
2.52337 -25.1057 124.442
2.5357399 -24.9748 124.334
2.53509 -24.931 124.156
2.5959201 -25.6633 124.196
2.5302899 -25.9384 124.309
2.5601799 -25.8242 124.266
2.6045699 -25.77 124.018
2.60639 -25.7206 124.1
2.6073699 -25.3354 124.042
2.6155701 -25.483601 124.119
2.5411201 -25.5345 124.409
2.5731299 -25.599501 124.302
2.60711 -25.4485 123.887
2.6118901 -25.392099 123.961
2.5597301 -25.159201 123.918
2.5868001 -25.228399 123.974
2.5737801 -25.229799 124.235
2.5933599 -25.280199 124.136
2.5385001 -25.2663 123.774
2.55039 -25.213699 123.841
2.5097799 -25.0574 123.865
2.5320599 -25.104601 123.883
2.5675399 -25.1056 124.067
2.5646901 -25.1152 124.001
2.39625 -26.235901 124.014
2.2962301 -26.431801 124.067
2.3396399 -26.341101 124.042
2.3714001 -26.242201 123.937
2.4904799 -26.069201 123.963
2.4593999 -26.130699 123.984
2.44556 -26.1987 124.182
2.4230499 -26.2243 124.098
2.51301 -26.0047 123.931
2.57058 -25.7092 123.795
2.58741 -25.816 123.942
2.5274701 -25.4631 123.688
2.5899 -25.508301 123.815
2.3910799 -25.2617 123.594
2.4322701 -25.3158 123.613
2.5162001 -25.3188 123.71
2.2393601 -26.2859 123.788
2.29158 -26.1234 123.726
2.2070401 -25.9646 123.632
2.2576399 -25.968 123.639
2.3482201 -25.8305 123.607
2.21135 -25.794399 123.565
2.2670801 -25.7736 123.562
2.31408 -25.673201 123.545
2.15167 -25.702801 123.531
2.20138 -25.667299 123.522
2.1812999 -25.4965 123.49
2.2244599 -25.556801 123.504
2.41172 -25.0709 123.682
2.37395 -25.1164 123.623
2.3571401 -25.214399 123.579
2.44364 -25.0256 123.753
2.51402 -24.937799 123.992
2.49172 -25.0152 123.86
3.04758 -24.402399 123.78
2.95312 -24.515301 123.987
2.6942999 -24.716801 123.98
2.4612601 -24.926399 123.613
2.5029199 -24.888 123.663
2.6531 -24.730301 123.415
2.6175201 -24.771099 123.597
2.41505 -24.968399 123.562
2.10711 -25.261299 123.377
2.2300999 -25.149 123.424
2.4221499 -24.9774 123.261
2.3879199 -25.0072 123.408
2.5820999 -25.1681 124.99
2.4567201 -25.4583 125.081
2.5109401 -25.316 125.045
2.5374601 -25.2043 124.909
2.74494 -24.898199 124.8
2.6626699 -25.0257 124.91
2.6776299 -25.091 125.169
2.63029 -25.1299 125.075
2.6291499 -24.874599 124.44
2.63533 -24.9622 124.665
2.5978899 -24.9737 124.617
2.6321199 -24.792601 124.179
3.2342999 -24.4536 124.74
3.1686101 -24.493601 124.634
2.88923 -24.7971 124.976
2.9719801 -24.6931 124.839
3.4798901 -24.203199 124.345
3.34817 -24.3398 124.561
3.3899801 -24.3664 125.006
3.3141401 -24.4062 124.874
3.7133801 -24.0777 124.69
3.55512 -24.225 124.873
3.49809 -24.292601 125.329
3.45786 -24.334499 125.173
3.03791 -24.6812 125.222
3.2075 -24.5159 125.066
3.9144199 -23.9855 124.967
3.83617 -24.018999 124.851
4.3369699 -23.613501 124.785
4.1150098 -23.818501 124.888
3.9614 -23.962099 125.217
3.9437101 -23.978701 125.085
4.0596499 -23.735001 124.31
4.2099099 -23.667801 124.56
4.7282 -23.193899 124.517
4.5557199 -23.395201 124.671
4.48142 -23.563801 125.174
4.4345198 -23.578899 124.993
4.38234 -23.3519 123.951
4.56112 -23.269899 124.232
4.9993901 -22.789101 124.184
4.875 -22.9963 124.347
4.9719 -23.0919 124.912
4.8743801 -23.124201 124.746
5.0040498 -23.1598 125.207
5.0058899 -23.1136 125.053
5.36483 -22.671801 124.838
5.1697001 -22.897499 124.875
5.1953201 -22.7134 124.512
5.6056399 -22.296801 124.767
5.52425 -22.451599 124.818
5.5776501 -22.616899 125.332
5.4921899 -22.6378 125.11
5.9889798 -21.669701 125.05
5.6307502 -21.9897 124.48
5.83568 -21.7969 124.77
6.1009898 -21.2337 125.033
6.01932 -21.5352 125.024
5.9475598 -21.9772 125.279
5.9709601 -21.8162 125.152
6.1597099 -21.692301 125.691
6.0147901 -22.070999 125.968
6.0957599 -21.8955 125.822
6.0723701 -21.816 125.504
6.2585602 -21.2286 125.522
6.20926 -21.4732 125.584
6.2691998 -21.528299 125.971
6.22299 -21.599501 125.845
6.5218801 -19.742901 125.774
6.44664 -20.5758 125.797
6.48175 -20.1999 125.756
6.3358698 -19.8022 125.186
6.4358602 -19.7805 125.495
6.5500202 -18.753 125.871
6.5447202 -19.2668 125.805
6.6196599 -19.7542 126.148
6.5841298 -19.746401 126.003
5.6429601 -21.784 124.316
5.6219501 -22.169201 124.642
5.1511302 -22.3606 123.845
5.3927398 -22.195101 124.18
4.6164398 -22.9811 123.607
4.8067298 -22.8815 123.879
5.09621 -22.5737 124.024
4.5146499 -23.1621 123.777
4.2294502 -23.233801 123.168
4.4224 -23.099001 123.366
4.7567902 -22.620501 123.281
4.6918001 -22.803499 123.439
4.0381198 -23.535601 123.499
4.14924 -23.374399 123.329
3.8936701 -23.48 122.837
4.04391 -23.365601 122.996
4.2449002 -23.0896 122.882
4.2623 -23.1329 123.017
3.59077 -24.1436 124.508
3.88467 -23.9149 124.498
3.76846 -23.877501 123.891
3.90763 -23.803801 124.084
4.2299099 -23.5438 124.135
4.20538 -23.439699 123.706
3.2957399 -24.3013 124.094
3.3816199 -24.256599 124.209
3.62361 -24.046101 124.116
3.5380599 -24.011801 123.616
3.6457801 -23.9478 123.738
3.90696 -23.706499 123.682
3.7397499 -23.729601 123.188
3.8804801 -23.6348 123.33
3.1847899 -24.427601 124.315
3.15959 -24.359501 123.912
3.2227099 -24.334101 123.995
3.4187801 -24.159201 123.855
3.3514199 -24.1159 123.435
3.43782 -24.0688 123.516
3.6407001 -23.8701 123.391
1.75486 -20.1401 118.057
2.1433401 -19.5504 118.344
1.94934 -19.8557 118.185
2.1715801 -20.5222 118.131
1.9662 -20.317801 118.083
1.38978 -20.636499 117.837
1.56234 -20.405199 117.937
1.3991801 -19.829599 118.026
1.56025 -19.9774 118.037
1.09237 -21.0051 117.716
1.23559 -20.8342 117.77
1.59663 -21.405001 117.757
1.34987 -21.198299 117.728
0.86509597 -21.3267 117.635
0.95244598 -21.162901 117.671
0.64949399 -20.635099 117.692
0.83894998 -20.821501 117.705
2.5439 -19.8873 118.429
2.3497901 -20.218201 118.272
2.54877 -20.9324 118.322
2.37221 -20.736799 118.205
1.84574 -21.0562 117.904
1.99711 -20.8169 118.002
2.04459 -21.833 117.968
1.81973 -21.627199 117.833
1.41168 -21.629601 117.685
1.47744 -21.5417 117.71
1.71758 -21.246201 117.824
2.9112301 -20.2274 118.61
2.72802 -20.5853 118.452
2.80775 -21.2801 118.612
2.6909101 -21.1136 118.461
2.2644899 -21.478201 118.116
2.39188 -21.237 118.209
2.3342199 -22.1684 118.292
2.2155299 -22.012199 118.123
1.84851 -22.1639 117.847
1.9347399 -21.990601 117.899
2.1493001 -21.667601 118.039
6.1133299 -19.8118 124.578
6.2328401 -19.8095 124.893
5.99508 -20.5438 124.432
6.06217 -20.203199 124.512
5.84407 -19.769899 123.899
5.9869599 -19.800501 124.252
6.1572599 -18.914 124.672
6.1459098 -19.3762 124.625
5.7053499 -20.420601 123.696
5.7808199 -20.1171 123.799
5.9085102 -18.9918 124.032
5.8881998 -19.388901 123.978
5.6182499 -20.6973 123.586
4.47082 -22.033199 121.928
4.6436801 -21.8556 122.119
4.7302799 -20.948299 121.715
4.5202198 -22.3561 122.323
4.5065999 -22.239901 122.183
4.16713 -22.3915 121.667
4.3056598 -22.2085 121.77
4.3481898 -21.4608 121.244
4.4004698 -21.7656 121.577
6.1908798 -21.2474 125.311
6.3474302 -20.672001 125.483
6.30585 -20.957399 125.493
6.3607798 -21.1651 125.891
6.3140898 -21.193399 125.708
5.9752598 -21.2013 124.668
5.91887 -20.840799 124.359
4.8063598 -22.425301 123.105
4.55864 -22.527 122.609
4.6775899 -22.3757 122.705
4.5422702 -22.4247 122.445
4.3096199 -22.6017 122.189
4.4222798 -22.474501 122.265
2.94508 -24.4554 123.673
2.99155 -24.4263 123.72
3.20454 -24.197599 123.305
3.13199 -24.2957 123.549
3.10309 -24.381201 123.842
0.95631701 -23.106899 117.514
0.185001 -22.7988 117.464
0.439827 -22.880501 117.46
0.89877301 -22.5942 117.501
0.81658101 -22.7971 117.485
1.08227 -22.209299 117.556
1.64512 -22.5221 117.747
1.38746 -22.3557 117.637
0.98438901 -22.4034 117.526
0.499028 -21.9879 117.509
0.78104901 -22.087299 117.522
1.2812999 -21.863199 117.634
1.18634 -22.026699 117.594
1.35467 -21.716299 117.664
1.14327 -21.4727 117.652
0.327297 -21.162901 117.594
0.58864999 -21.2087 117.62
0.68433303 -21.6336 117.574
0.77308702 -21.475401 117.604
-0.23829401 -21.8501 117.545
0.107276 -21.880301 117.531
-0.023739001 -21.862101 117.541
-0.21018299 -22.2896 117.507
-0.208561 -22.0613 117.53
-0.75443798 -21.8248 117.579
-0.481334 -21.8304 117.559
-0.23999 -21.4429 117.564
-0.24710301 -21.6432 117.556
-0.69260299 -22.270599 117.564
-0.72638899 -22.042999 117.57
-0.80697298 -21.4161 117.592
-0.78043997 -21.615299 117.587
0.00422 -23.3496 117.483
-0.354377 -23.258801 117.506
-0.17199799 -23.271999 117.489
0.104054 -22.99 117.466
-0.16566101 -23.7999 117.534
-0.062286999 -23.6716 117.509
-0.31737399 -23.531 117.521
-0.40093699 -23.809 117.56
-0.53088999 -22.7255 117.524
-0.40666601 -22.9748 117.504
-0.62256497 -23.2852 117.54
-0.50438201 -23.269199 117.524
-0.638708 -22.504801 117.545
-0.18470301 -22.730101 117.484
-0.322611 -22.7188 117.499
-0.72441298 -22.7707 117.548
-0.038398001 -22.7474 117.474
-0.204338 -22.509501 117.495
0.319718 -22.377899 117.474
0.2563 -22.591101 117.466
0.39290601 -22.167601 117.489
0.251257 -21.909 117.523
0.59572297 -21.808599 117.541
1.7527601 -22.3391 117.794
1.9468499 -22.843 118.095
1.83131 -22.691 117.91
1.45795 -22.866199 117.686
1.54267 -22.704599 117.712
6.9212999 -21.975901 130.12199
6.6751599 -22.7153 130.539
6.8188901 -22.3351 130.332
6.8262 -22.1437 129.742
6.8784099 -22.041901 129.939
7.0090199 -21.4832 129.78101
6.9807 -21.6786 129.936
7.0053201 -21.843201 130.455
6.9609399 -21.913799 130.293
6.7304702 -22.3794 129.27499
6.4973402 -23.0133 129.67599
6.6289301 -22.685101 129.46001
6.6458902 -22.6553 128.758
6.6910901 -22.5089 129.015
6.8790202 -21.658199 128.85899
6.8005099 -22.1084 129.12399
6.7743101 -22.2589 129.51601
6.16993 -23.6642 130.07001
5.71838 -24.241501 130.35899
5.9572501 -23.9632 130.22701
6.0777702 -23.8426 129.52299
6.1244402 -23.744101 129.808
6.34902 -23.344299 129.89101
6.2487602 -23.5413 130.51199
6.2108102 -23.598499 130.31
5.9844098 -23.944201 131.53
5.8856201 -24.048901 131.12199
5.9326601 -23.999701 131.31599
6.3938398 -23.344801 131.278
6.1968298 -23.6621 131.41299
6.0893998 -23.8151 132.01601
6.0370102 -23.884501 131.76801
5.4814301 -24.450399 131.75999
5.74615 -24.2054 131.649
5.1538501 -24.7372 130.586
5.4468198 -24.500099 130.476
5.6095901 -24.3925 129.869
5.6660299 -24.309099 130.12601
5.8074698 -24.135599 130.74899
5.7640901 -24.185499 130.56799
4.5041099 -25.129999 130.76401
4.8373199 -24.9452 130.683
5.03929 -24.874001 130.097
5.0950098 -24.802099 130.351
5.2645798 -24.637501 130.98399
5.21102 -24.684 130.802
6.7660899 -22.006901 128.466
6.82901 -21.8244 128.67101
6.8814602 -21.2572 128.44099
6.8921399 -21.4471 128.675
6.9682298 -21.336201 129.162
6.9254899 -21.4946 129.024
7.0420299 -21.0348 129.34599
7.0058098 -21.181299 129.26199
7.0320101 -20.566099 128.78101
7.04528 -20.7985 129.07899
7.1137199 -20.7236 129.52699
7.0787101 -20.883301 129.429
7.0292902 -21.2623 129.575
6.7507901 -21.7031 128.205
6.8171601 -21.4841 128.32201
6.7913899 -20.9807 127.849
6.8445201 -21.101 128.15401
6.9748702 -20.8447 128.638
6.9326701 -21.0455 128.543
7.0085902 -20.6819 128.733
7.0789399 -20.1863 128.88499
7.0532699 -20.434 128.81799
6.6430302 -21.4354 127.695
6.7172098 -21.2257 127.768
6.6816902 -20.859301 127.318
6.7294402 -20.9095 127.558
6.90203 -20.479601 127.989
6.8519502 -20.737101 127.921
6.98277 -19.7792 128.13901
6.9481502 -20.170099 128.06599
6.8650398 -19.636499 127.41
6.92555 -19.6698 127.757
6.9978499 -18.845301 128.345
6.9939198 -19.3288 128.233
7.0359402 -19.955999 128.528
6.5262699 -21.317499 127.233
6.6094799 -21.0991 127.28
6.6197801 -20.8375 127.001
6.64538 -20.836399 127.132
6.7876301 -20.346001 127.364
6.7385502 -20.613701 127.341
6.8312898 -20.026899 127.389
6.7978301 -19.7015 127.037
6.8208499 -19.669001 127.157
6.8498602 -18.6891 127.493
6.868 -19.177999 127.422
6.57973 -20.880699 126.805
6.4210901 -21.3717 126.837
6.5086098 -21.126499 126.816
6.5158501 -20.9765 126.542
6.5522099 -20.922701 126.686
6.6879501 -20.359699 126.82
6.6374602 -20.630899 126.805
6.6005001 -20.852699 126.902
6.7762599 -19.709101 126.907
6.7353501 -20.0483 126.854
6.7131701 -19.6584 126.559
6.7571602 -19.6831 126.793
6.7876902 -19.710899 126.97
7.1041098 -21.2285 130.024
7.0573001 -21.350201 129.888
3.58571 -24.098101 125.908
3.55144 -24.194 125.616
3.5711999 -24.1427 125.759
4.0127702 -23.8622 125.827
3.7983999 -23.983801 125.858
3.5915899 -24.01 126.184
3.59185 -24.054199 126.052
3.1949 -24.3113 126.055
3.38047 -24.2075 125.973
4.0193701 -23.8916 125.528
4.03053 -23.8654 125.684
4.3267002 -23.6721 125.813
4.1983199 -23.7505 125.819
3.97825 -23.8421 126.08
3.9936399 -23.855801 125.958
4.3193002 -23.652399 126.032
4.32547 -23.6593 125.921
4.61026 -23.475901 125.803
4.4467301 -23.5931 125.804
4.9683499 -23.200701 125.846
5.2722802 -22.9454 125.929
5.12745 -23.071301 125.885
4.9128799 -23.2288 126.061
4.9405298 -23.2082 125.963
4.7939501 -23.3379 125.816
5.0002298 -23.2024 125.548
4.9899101 -23.2015 125.708
2.8247199 -24.7684 125.973
3.1579499 -24.465401 125.787
2.9783499 -24.614201 125.881
2.7713201 -24.6117 126.318
2.8069401 -24.6856 126.146
2.58548 -25.037901 126.174
2.6937201 -24.9093 126.07
2.81409 -24.9055 125.666
2.82464 -24.8416 125.815
5.5320501 -22.6922 126.024
5.4068098 -22.819599 125.977
5.1881599 -22.9988 126.145
5.2291799 -22.9673 126.047
5.3367901 -22.9203 125.622
5.31178 -22.9305 125.789
5.7108002 -22.496099 126.099
5.84375 -22.3356 125.814
5.7792702 -22.4221 125.974
5.81112 -22.3606 126.219
5.7578702 -22.435101 126.15
5.64078 -22.5758 126.06
5.9387298 -22.1971 125.877
5.60392 -22.6378 125.702
5.73176 -22.4837 125.756
5.8866 -22.221399 125.51
5.8852701 -22.260099 125.64
5.9264102 -22.1989 126.372
5.8691001 -22.279301 126.296
6.1381402 -21.8487 126.161
6.0337901 -22.038799 126.271
6.0318899 -22.0513 126.53
5.9810801 -22.1222 126.45
5.7400699 -22.433399 126.56
5.8263898 -22.3272 126.47
6.1298499 -21.9216 126.712
6.0809202 -21.9846 126.618
6.3427501 -21.4888 126.609
6.2375102 -21.7208 126.658
6.2221799 -21.8162 126.903
6.17803 -21.864599 126.81
5.9326701 -22.221399 126.827
6.0278201 -22.086599 126.773
6.0296502 -22.146799 126.969
6.1238198 -21.997299 126.94
6.32342 -21.605801 126.867
6.2999401 -21.749201 127.066
6.2624002 -21.7791 126.988
6.42205 -21.7808 127.402
6.2505398 -22.116501 127.306
6.3369298 -21.962601 127.355
6.3797202 -21.745899 127.287
6.3989201 -21.7637 127.343
6.5737 -21.4011 127.471
6.5047698 -21.584299 127.442
6.4776402 -21.8381 127.553
6.4486599 -21.804399 127.47
6.5901299 -22.1022 127.939
6.5350499 -21.9401 127.735
6.5615501 -22.012199 127.83
6.6754599 -21.9142 128.071
6.6061301 -22.3505 128.119
6.61093 -22.211 128.039
6.4064298 -22.4053 127.716
6.5000801 -22.2668 127.825
5.9167099 -22.226101 126.105
6.0785799 -21.9601 126.069
6.3847399 -21.4247 126.729
6.4759798 -21.3102 127.021
6.4507298 -21.333599 126.931
6.5500498 -21.382 127.388
6.5612602 -21.3895 127.424
6.6006598 -21.4034 127.544
6.7013502 -21.559999 127.949
6.7239499 -21.6047 128.054
6.76752 -21.8395 128.34801
6.6891499 -22.215 128.291
6.5637999 -22.528799 128.10201
6.7498498 -22.1924 128.565
6.6561599 -22.4149 128.29401
6.6064401 -22.489 128.188
6.4616299 -22.9853 128.16299
6.5204601 -22.745501 128.127
6.3987498 -22.6903 127.868
6.4893999 -22.599001 127.984
4.95541 -25.0186 129.62801
5.5258999 -24.534401 129.513
5.2520399 -24.781601 129.569
4.9889002 -24.9522 129.84599
4.3747902 -25.412201 129.75101
4.6579099 -25.2346 129.69
4.9188099 -25.1049 129.261
4.9341402 -25.0697 129.437
6.7137899 -22.4 128.659
6.6981301 -22.334 128.384
6.4135399 -23.247601 129.08501
6.54317 -22.949699 128.89101
6.4552002 -23.123501 129.379
6.2579598 -23.5534 129.306
6.37112 -23.398001 128.726
6.3812799 -23.363701 128.84
5.85675 -24.131399 129.705
6.0213599 -23.975901 129.14999
6.0426202 -23.936399 129.26801
5.33529 -24.6423 129.995
5.5571599 -24.4865 129.64
4.4214802 -25.2635 130.257
4.72998 -25.084299 130.189
2.5120001 -25.407 125.265
2.58552 -25.2523 125.225
2.78387 -24.934099 125.091
2.7614 -25.006901 125.393
2.7218599 -25.049801 125.274
2.81411 -24.851801 124.884
2.96754 -24.7341 125.082
5.1994801 -22.130301 123.662
2.0678401 -25.6164 123.503
2.1078 -25.659401 123.516
2.1886799 -25.745001 123.546
2.0827401 -25.7528 123.567
2.11566 -25.7297 123.547
2.2179599 -25.859301 123.59
2.13515 -25.8174 123.594
2.1712301 -25.807899 123.577
2.85549 -24.522499 123.573
2.9891801 -24.3699 123.136
2.9258101 -24.4412 123.37
2.9006701 -24.4877 123.625
2.7744401 -24.6199 123.769
2.78491 -24.5884 123.481
2.8197899 -24.5525 123.524
5.5220199 -24.575001 129.246
5.79321 -24.2729 129.229
6.00772 -23.997999 128.911
6.0200901 -23.9832 129.043
5.5247698 -24.554001 129.396
3.3199201 -25.393 128.33099
3.29568 -25.1959 128.22
3.3076501 -25.2995 128.27299
3.6730001 -25.3929 128.40601
3.48557 -25.403 128.371
3.3381701 -25.549801 128.472
3.3296101 -25.476 128.397
3.03826 -25.323 128.23599
3.17172 -25.364599 128.286
4.8411899 -15.3835 123.435
4.9895802 -15.3223 123.629
4.9189801 -15.3491 123.559
5.0237002 -15.7326 123.492
4.9227099 -15.5444 123.456
4.5779901 -15.5103 122.901
4.73208 -15.4372 123.227
4.7221899 -15.0641 123.436
4.7744198 -15.229 123.43
4.6708002 -14.8798 123.429
4.9229999 -15.0557 123.621
4.8204899 -15.0434 123.542
4.4347501 -15.192 122.945
4.6099701 -15.112 123.262
5.1728501 -15.5805 123.78
5.1188402 -15.6587 123.694
5.2171602 -16.219999 123.504
5.1303201 -15.9595 123.528
4.76612 -15.897 122.865
4.9044499 -15.8152 123.212
3.7322299 -16.2087 120.848
3.5550201 -15.9092 120.885
3.6382999 -16.072001 120.863
4.1259899 -15.7717 121.786
3.9170001 -15.9703 121.268
3.96173 -16.539 120.839
3.8387001 -16.3547 120.837
3.4270699 -16.7012 120.124
3.5799799 -16.4608 120.457
4.2634301 -16.9949 120.971
4.1048498 -16.7528 120.877
3.68747 -16.954 120.168
3.8129499 -16.747101 120.466
4.3401198 -16.1628 121.761
4.14007 -16.34 121.262
4.6038399 -16.6761 121.838
4.4683399 -16.4212 121.782
4.2239699 -15.9437 121.765
4.5740099 -16.0145 122.339
4.8429198 -17.180099 122
4.73138 -16.933599 121.915
4.4263701 -16.8449 121.377
4.9686799 -16.410999 122.818
4.8018198 -16.5305 122.338
3.1045899 -17.280899 119.579
2.7149601 -17.9524 119.088
2.9198101 -17.608601 119.328
2.9181499 -17.1682 119.522
2.9791601 -17.2188 119.54
3.2505701 -16.985701 119.826
3.4010301 -17.496799 119.638
3.2399099 -17.3799 119.603
2.2743001 -18.643299 118.671
2.4941399 -18.3029 118.87
2.52161 -17.7801 119.052
2.6106601 -17.8636 119.074
3.01951 -18.1828 119.143
2.8510699 -18.0578 119.112
1.8357 -19.265499 118.316
2.0529201 -18.962999 118.486
2.0675299 -18.436399 118.641
2.1633 -18.5371 118.657
2.57635 -18.9002 118.713
2.40838 -18.7651 118.686
1.61782 -19.5555 118.163
1.62532 -19.0275 118.307
1.72296 -19.144899 118.312
1.97913 -19.4013 118.328
0.99620301 -20.297199 117.819
1.18835 -20.078501 117.908
1.1607 -19.556801 118.009
1.2729501 -19.6947 118.021
3.18291 -16.424999 120.112
3.30215 -16.5874 120.113
3.55216 -16.810499 120.141
0.82120001 -20.4813 117.754
0.39708799 -20.8857 117.62
0.463586 -20.775101 117.638
0.43141401 -20.4375 117.648
3.36976 -16.165701 120.466
2.78 -16.9452 119.481
2.98049 -16.6831 119.778
3.0992601 -16.2101 120.058
4.0185599 -17.2987 120.348
3.84409 -17.1152 120.234
3.5574 -17.2041 119.903
6.2792602 -17.179199 125.605
6.31881 -17.922701 125.367
6.2903299 -17.542601 125.457
6.07408 -17.1959 124.984
6.1770401 -17.2022 125.279
6.2722702 -16.4193 125.95
6.2732301 -16.821699 125.769
6.3695002 -17.1271 125.935
2.86238 -17.098101 119.506
2.3294499 -17.5826 118.961
2.5646999 -17.2547 119.211
2.6777501 -16.7152 119.396
2.4284201 -17.6905 119.017
1.86584 -18.2083 118.557
2.0947599 -17.9037 118.743
2.1977999 -17.408701 118.858
1.97181 -18.3319 118.613
1.413 -18.7411 118.234
1.64074 -18.4858 118.393
1.7107199 -18.016199 118.458
1.53095 -18.901899 118.286
1.04342 -19.3981 117.973
3.78144 -17.755501 119.798
3.5853801 -17.621201 119.704
3.2215199 -17.833099 119.384
3.4101 -18.4503 119.259
3.2093899 -18.3151 119.189
2.8011401 -18.5476 118.92
2.9687901 -19.201799 118.808
2.7701199 -19.0487 118.75
2.35496 -19.2325 118.521
2.3390501 -19.7145 118.377
4.3487 -17.677601 120.651
4.1942 -17.490999 120.494
3.9175701 -17.486099 120.098
4.1224298 -17.143801 120.611
4.14188 -18.0711 120.1
3.9670899 -17.9069 119.931
3.6059 -18.0886 119.516
3.7921 -18.7318 119.471
3.60443 -18.590799 119.355
3.1930799 -18.834299 119.022
3.3397601 -19.5016 119.005
3.16345 -19.353701 118.891
2.75156 -19.5473 118.615
2.7388599 -20.060801 118.509
4.5991502 -18.056999 120.98
4.8007002 -18.532499 121.353
4.7085199 -18.278799 121.157
4.4271998 -18.4142 120.472
4.5287499 -18.194599 120.765
4.4828401 -17.863501 120.814
4.7639298 -17.834101 121.489
4.6621299 -17.9499 121.181
4.6704798 -18.8694 120.956
4.5542998 -18.621401 120.685
4.0962601 -19.046801 119.818
4.2813101 -18.7096 120.134
4.2951102 -18.240299 120.283
3.98227 -18.372999 119.767
3.95276 -18.882299 119.627
3.56566 -19.1213 119.225
3.6300199 -19.800699 119.288
3.4960699 -19.655399 119.134
3.1201501 -19.867201 118.797
3.1840601 -20.539101 118.885
3.0616701 -20.388 118.736
6.3590798 -18.8491 125.236
6.3385601 -18.391199 125.272
6.4573002 -18.7992 125.545
6.3631401 -19.322001 125.219
6.2600002 -18.888901 124.943
5.1874299 -19.9223 122.393
5.0137401 -20.4254 122.114
4.8924298 -20.684999 121.945
4.81178 -19.8748 121.448
4.91397 -20.148899 121.784
5.1078801 -20.184401 122.257
4.5450602 -21.211901 121.468
4.5658398 -20.233101 121
4.6552901 -20.594 121.37
4.0408101 -21.8092 120.908
4.1651301 -21.659901 121.034
4.1749902 -20.876801 120.517
4.2726102 -21.1556 120.881
5.8885002 -18.207199 124.087
6.1132302 -18.064301 124.714
6.01085 -18.1022 124.435
5.9082699 -18.582701 124.08
5.8541899 -17.6341 124.167
5.87008 -17.8484 124.142
5.1315598 -18.102301 122.355
4.7276001 -20.0098 121.281
4.9478598 -19.444201 121.712
4.8729901 -19.7075 121.553
4.3641 -20.544901 120.718
4.35145 -19.5121 120.294
4.46668 -19.866199 120.632
4.0127802 -20.5063 120.032
4.06917 -20.6539 120.2
3.6131301 -21.169701 119.694
3.80142 -20.829901 119.833
3.86516 -20.1542 119.667
3.9542899 -20.371901 119.884
5.8400602 -17.2054 124.34
5.84518 -17.4468 124.224
6.0738101 -17.598101 124.777
5.9702301 -17.6047 124.487
5.5824699 -17.709999 123.529
5.7217498 -17.671101 123.844
5.3523302 -17.8906 122.929
5.2442899 -17.9886 122.653
5.2783098 -17.407 122.891
5.3187499 -17.6413 122.913
5.4609299 -17.7843 123.224
4.9300699 -18.3396 121.753
5.0223799 -18.222 122.041
5.0106001 -17.6175 122.188
5.0788798 -17.8423 122.279
4.7557402 -18.6315 121.21
4.8428602 -18.4594 121.482
4.2308402 -19.248899 120.034
3.8725801 -19.4223 119.526
3.75383 -19.9599 119.461
3.3960299 -20.1703 119.073
5.1458602 -17.5084 122.542
4.8896599 -17.7215 121.839
4.9389801 -17.399099 122.1
-0.225265 -21.0889 117.561
0.059937999 -21.123899 117.573
-0.232988 -21.257999 117.564
-0.85988402 -21.0585 117.589
-0.53306198 -21.063101 117.568
-0.23325901 -20.742201 117.564
-0.224987 -20.9195 117.565
-0.83368999 -21.2334 117.595
-0.92629302 -20.707199 117.582
-0.88850802 -20.8874 117.59
7.4604998 -19.943899 133.17101
7.4561801 -20.188 132.939
7.17414 -20.942499 133.625
7.3391299 -20.547701 133.30299
7.4274101 -20.628201 132.489
7.44277 -20.4184 132.714
7.5487299 -19.5998 132.242
7.5211601 -19.872801 132.56799
7.2003498 -20.6562 133.84599
6.8052301 -21.6768 134.147
6.9924798 -21.3318 133.91499
7.14887 -21.4133 133.127
7.1588898 -21.1868 133.371
6.7990899 -21.4471 134.433
6.4347701 -22.2477 134.508
6.6312099 -21.9639 134.33299
6.7747998 -22.148899 133.644
6.7943301 -21.9182 133.888
6.4759798 -21.9326 134.77
5.9651699 -22.7782 134.81799
6.2134199 -22.518499 134.66901
6.3905902 -22.730499 133.996
6.4120698 -22.5086 134.242
5.9743199 -22.492001 135.12399
5.3691502 -23.255301 135.07401
5.6828399 -23.0212 134.951
5.9189601 -23.243601 134.28999
5.9414001 -23.0336 134.541
5.4193201 -22.9384 135.381
4.5806999 -23.697599 135.321
5.0069799 -23.480101 135.194
5.3077002 -23.728201 134.524
5.3362799 -23.5151 134.789
7.2381902 -19.9652 129.974
7.1815 -20.3776 129.739
7.2087798 -20.1845 129.854
7.1459899 -19.2785 129.198
7.19735 -19.624001 129.61
7.2824402 -19.5441 130.205
7.2597899 -19.740101 130.099
7.2592802 -20.2712 130.269
7.3145399 -19.1269 130.409
7.2968798 -19.389099 130.284
7.1469698 -18.431999 129.522
7.2403598 -18.746 129.992
7.3470702 -18.677299 130.7
7.3305202 -18.879299 130.545
7.3801198 -19.5056 130.80299
7.11795 -19.800501 129.037
7.1213498 -19.6299 129.093
7.0776901 -19.0322 128.76401
7.1585798 -18.8622 129.377
6.96351 -18.0506 128.55499
7.0515299 -18.2006 129.02
7.1506801 -18.0347 129.71899
6.9123602 -18.746201 127.906
6.98137 -18.431499 128.444
6.8029399 -17.869101 127.67
6.8780999 -17.937099 128.11099
6.9558101 -17.6703 128.69701
6.7143602 -18.678101 126.648
6.7860398 -18.6728 127.081
6.8179798 -18.266199 127.577
6.6557298 -17.811501 126.834
6.7274799 -17.816999 127.244
6.7859998 -17.421499 127.778
6.72227 -19.2068 126.592
6.6298599 -18.733601 126.23
6.6770601 -18.2302 126.713
6.49967 -17.873301 126.034
6.5851102 -17.8316 126.431
6.6387801 -17.3659 127.004
7.5564198 -19.467199 132.44099
7.51438 -19.9175 131.864
7.5355902 -19.747999 132.06799
7.5379601 -19.277201 131.85201
7.4396 -20.2514 131.457
7.3744102 -20.9895 132.026
7.4295802 -20.608801 131.733
7.3558602 -20.551001 131.088
7.3989601 -20.404499 131.267
7.4226699 -19.888599 131.15601
7.4761701 -20.086201 131.658
7.2711701 -20.8326 130.73399
7.3131399 -20.694099 130.911
7.1916499 -21.491699 131.183
7.2486901 -21.132999 130.944
7.1915898 -21.0644 130.38499
7.22931 -20.961599 130.55901
5.55867 -17.230499 123.646
5.7165999 -17.181801 124.028
5.8306799 -16.610399 124.677
5.8346 -16.9282 124.496
5.95894 -17.2036 124.662
6.2133598 -17.987801 125.028
6.4089098 -17.9128 125.675
5.4123702 -17.2995 123.263
5.1462498 -16.9305 122.817
5.22644 -17.1555 122.871
5.57131 -17.4655 123.583
5.54953 -16.6847 123.946
5.5474901 -16.965401 123.765
4.5492702 -17.427 121.226
4.41749 -17.219299 121.095
4.8471999 -18.070601 121.61
4.6623998 -17.625799 121.357
4.9955001 -18.662701 121.884
3.9739001 -15.4655 121.86
4.0437398 -15.6242 121.817
4.3773298 -15.6135 122.373
6.04074 -15.9423 125.552
6.1669502 -15.8526 125.902
6.1239901 -15.885 125.784
6.0760298 -16.5413 125.347
6.0636001 -16.226101 125.48
5.7947402 -16.0403 124.918
5.9277301 -15.9881 125.256
6.0053701 -15.5924 125.591
6.0135498 -15.7357 125.579
6.2533898 -15.8016 126.157
6.2023902 -15.8291 126
6.23597 -15.3764 126.216
6.2420702 -15.5601 126.205
6.3317599 -15.7069 126.432
6.30019 -15.7557 126.321
6.2564301 -16.1134 126.057
3.5109999 -15.6799 120.928
3.7508399 -15.6781 121.311
3.90944 -15.2404 121.907
4.2351499 -15.3032 122.442
5.7135901 -15.7149 124.849
5.7511501 -15.841 124.91
5.82546 -16.2731 124.853
5.5016599 -16.1075 124.202
5.6575098 -16.08 124.576
5.54247 -16.357401 124.122
5.3452301 -16.131001 123.838
5.4517102 -15.7337 124.228
5.45473 -15.8749 124.222
6.1386499 -15.4939 125.932
6.1516199 -15.6501 125.938
5.3371401 -16.7542 123.394
5.2863102 -16.4967 123.452
5.1006498 -16.312 123.179
4.3418498 -25.501301 129.29401
4.62081 -25.322599 129.274
4.8740201 -25.125601 128.95599
4.9006901 -25.1243 129.099
5.2247701 -24.855 129.248
5.4916701 -24.609501 128.96899
5.5114999 -24.595501 129.099
6.56001 -22.868099 128.38901
6.5995202 -22.784201 128.548
6.5163698 -22.9314 128.26801
6.244 -23.523001 128.30299
6.37291 -23.249201 128.218
6.3061399 -23.0898 127.971
6.3914199 -23.0364 128.063
4.6200399 -23.450199 126.028
4.6251101 -23.453501 125.922
4.5425701 -23.536699 125.508
4.5760298 -23.509701 125.668
2.95363 -24.450899 126.205
3.0464301 -24.393499 126.141
2.93519 -24.2691 126.485
2.9421599 -24.3692 126.34
2.8747499 -24.5137 126.255
3.0303299 -25.481001 128.36501
3.0406599 -25.4051 128.297
2.9249201 -25.2805 128.183
3.02472 -25.126499 128.125
3.02811 -25.229799 128.17799
2.35536 -25.0648 127.032
2.42923 -24.991501 126.735
2.38381 -25.0492 126.87
2.43362 -24.769501 127.116
2.3904901 -24.9123 127.081
2.3554399 -25.056999 127.349
2.3457501 -25.062401 127.194
2.2887399 -25.395901 126.981
2.3243699 -25.2306 126.988
2.4202399 -24.8069 127.357
2.38325 -24.9312 127.353
2.41693 -25.047001 127.634
2.3789899 -25.050301 127.496
2.3122499 -25.2967 127.358
2.3332701 -25.179899 127.349
2.4734299 -24.847601 127.596
2.4412799 -24.947201 127.615
2.55633 -25.0868 127.868
2.4776399 -25.058201 127.758
2.37626 -25.2328 127.681
2.39692 -25.142401 127.655
2.60009 -24.9186 127.81
2.5771101 -25.006201 127.839
2.747 -25.1824 128.05499
2.64799 -25.129101 127.966
2.5150001 -25.2356 127.931
2.5360701 -25.1625 127.898
2.7897999 -25.020901 127.986
2.7725999 -25.110399 128.024
2.84796 -25.2404 128.132
2.6939299 -25.310301 128.131
2.72174 -25.2479 128.089
1.25032 -25.996599 123.271
1.21917 -26.0553 123.363
1.23831 -26.023899 123.322
1.09225 -26.035999 123.256
1.18422 -26.011499 123.259
1.268 -25.9562 123.116
1.25978 -25.9732 123.206
1.3892 -25.936501 123.32
1.31355 -25.9769 123.291
2.2729299 -23.6488 119.845
2.2402101 -23.480101 119.501
2.26054 -23.556999 119.675
2.4960699 -23.443701 119.988
2.3911099 -23.5333 119.912
2.27792 -23.8575 120.139
2.2764599 -23.753401 119.999
1.974 -23.9918 119.761
2.13533 -23.800699 119.793
1.6638 -24.480801 119.937
1.66426 -24.412901 119.828
1.8049901 -24.197701 119.748
1.98075 -24.1464 120.012
1.98171 -24.0625 119.889
1.95094 -23.943399 119.618
2.6900101 -23.344 120.178
2.8238001 -23.0158 119.972
2.75109 -23.1742 120.061
2.8794799 -23.3262 120.41
2.78105 -23.330099 120.288
2.6008601 -23.645399 120.386
2.6450801 -23.503201 120.29
2.5974 -23.3757 120.074
3.06705 -23.365299 120.707
3.2279301 -23.181801 120.735
3.1624601 -23.258801 120.724
3.2384501 -23.4191 121.01
3.15395 -23.393299 120.861
2.90029 -23.5826 120.732
2.9770701 -23.4802 120.711
2.9805801 -23.336201 120.556
1.0846 -26.085199 123.344
1.09112 -26.059601 123.303
1.0876499 -25.997101 123.113
1.08987 -26.0156 123.198
3.5151501 -23.889299 122.97
3.6196101 -23.8139 123.069
3.8254499 -23.5979 123.001
3.7934101 -22.8661 121.374
3.9514401 -22.674601 121.496
3.86713 -22.7773 121.428
3.96804 -22.989901 121.911
3.90608 -22.934299 121.679
3.63327 -23.051701 121.247
3.7197299 -22.9603 121.324
3.46699 -22.7703 120.679
3.63535 -22.8106 121.021
3.8784101 -23.106899 121.864
3.76594 -23.247999 121.794
3.83161 -23.162001 121.83
3.9152901 -23.056601 121.882
3.8870699 -23.2292 122.119
3.89044 -23.163 121.997
2.9914701 -20.914301 118.737
3.00283 -21.595301 118.95
2.9102199 -21.440901 118.774
2.5222001 -21.834499 118.419
2.6479499 -21.5965 118.506
2.06513 -23.097099 118.507
2.0111401 -22.9769 118.286
1.79087 -23.089399 118.012
1.8451 -22.9998 118.04
2.15095 -22.4916 118.195
2.0522101 -22.6672 118.149
1.70096 -23.534401 118.237
1.48806 -23.384001 117.801
1.73039 -23.2017 117.995
1.82388 -23.752001 118.753
2.16714 -23.282499 118.96
2.02529 -23.521999 118.976
1.89109 -23.8727 119.24
2.2262101 -23.360001 119.262
2.2042501 -23.3312 119.149
2.11867 -23.2003 118.733
2.4139099 -22.918501 119.002
2.29494 -23.0879 118.975
2.5780001 -22.677299 119.031
2.51087 -22.773199 119.018
2.4744401 -22.437099 118.645
2.5349901 -22.5632 118.84
2.75299 -22.502199 119.169
2.64922 -22.6038 119.082
2.9523201 -22.2372 119.277
2.8682101 -22.373199 119.258
3.1404901 -21.802601 119.256
3.0327001 -22.0576 119.261
3.0989201 -22.374399 119.686
3.0104401 -22.3253 119.475
3.0778401 -21.7458 119.126
3.3168099 -21.849899 119.613
3.21504 -21.8169 119.404
3.4442 -21.525999 119.612
3.5417199 -22.0019 120.131
3.4255199 -21.918699 119.86
3.20103 -22.135401 119.647
3.0850201 -24.2792 123.21
3.13867 -24.237 123.253
3.3465199 -24.0133 122.832
3.2769699 -24.1031 123.064
3.2753501 -24.1574 123.366
3.21346 -24.127199 122.737
3.2767 -24.0672 122.782
3.4552 -23.8612 122.453
3.4080501 -23.931101 122.625
3.42384 -23.955999 122.894
3.7163301 -23.5259 122.266
3.54145 -23.692499 122.103
3.61868 -23.622 122.179
3.7558501 -23.3869 122.02
3.73227 -23.4618 122.133
3.89501 -23.3239 122.362
3.8118501 -23.4214 122.332
3.64624 -23.6882 122.58
3.6868999 -23.6014 122.415
3.6015799 -23.435499 121.694
3.6879001 -23.3465 121.751
3.7413099 -23.157801 121.592
3.75631 -23.193399 121.683
3.7653899 -23.316299 121.909
3.7139499 -23.111601 121.474
3.43169 -23.236 121.104
3.5362 -23.148001 121.174
3.3399 -22.9935 120.7
3.49966 -23.009001 120.967
