# .PCD v.7 - Point Cloud Data file format
VERSION .7
FIELDS x y z
SIZE 4 4 4
TYPE F F F
COUNT 1 1 1
WIDTH 1682
HEIGHT 1
VIEWPOINT 0 0 0 1 0 0 0
POINTS 1682
DATA ascii
66.547302 -1.45267 130.78101
66.026299 -1.45337 130.92999
66.039101 -1.32056 130.868
65.535797 -1.30922 131.008
65.552002 -1.16915 130.944
71.033798 -2.7299299 129.991
71.068497 -3.0111001 130.105
65.295998 -2.3750701 131.192
65.271797 -2.5211999 131.187
65.8032 -2.63761 131.138
65.774002 -2.77968 131.134
66.304001 -2.90553 131.08501
66.270203 -3.03089 131.08701
67.156303 -3.3835399 130.998
67.112503 -3.5332501 130.976
68.177902 -3.89887 130.875
68.134804 -4.0537601 130.847
69.177101 -4.3691702 130.786
69.132202 -4.5476298 130.748
70.2174 -4.8062701 130.74001
70.169701 -4.9719501 130.728
70.808701 -5.0217199 130.73399
70.789597 -5.2121601 130.72099
71.263901 -5.0405798 130.662
71.180397 -5.4587598 130.65401
66.449898 -5.39533 130.42101
67.595703 -5.8628898 130.48801
67.562103 -6.03929 130.422
68.568001 -6.5332999 130.429
68.5271 -6.68715 130.36099
69.4673 -7.0703201 130.39
69.406998 -7.1907101 130.33701
70.0364 -7.3571501 130.455
69.969002 -7.4872799 130.418
64.292503 -6.5934501 127.769
63.572701 -5.4572902 128.222
63.799198 -5.8375902 128.13499
64.0616 -6.2045698 128.21001
64.394897 -6.6385102 128.27299
63.555599 -5.3262801 127.887
63.762299 -5.7492099 127.836
63.983299 -6.1486201 127.799
64.308197 -6.6249599 127.927
63.8297 -5.3316002 129.33701
64.1278 -5.70682 129.218
64.914299 -6.44138 129.213
64.511597 -5.9971199 129.299
66.123299 -0.81868398 130.58701
65.605003 -0.83264101 130.742
68.536301 -1.0158 129.787
67.649002 -0.89479297 130.078
65.642197 -0.65892297 130.634
67.667801 -0.74792099 129.98199
66.686699 -0.66033298 130.30701
66.713898 -0.51254898 130.198
66.186501 -0.493361 130.353
65.711899 -0.356262 130.403
66.217796 -0.36497399 130.24001
69.194298 -2.80252 130.43201
68.347504 -2.5194099 130.595
67.441299 -2.2373199 130.77
70.645897 -0.83800799 129.021
70.184601 -0.697797 129.047
69.499496 -0.53060198 129.123
66.615501 -1.0529799 130.56799
66.090797 -1.00588 130.69901
65.965599 -1.80917 131.036
65.455902 -1.70889 131.11501
68.003502 -4.4730101 130.748
66.996002 -3.9331901 130.903
66.125198 -3.45134 131.033
65.652298 -3.1730101 131.086
65.1493 -2.9286599 131.13699
69.770203 -7.7511902 130.233
66.6884 -4.9714499 130.672
65.799004 -4.2433701 130.841
65.365997 -3.8761799 130.91299
64.926697 -3.5253201 131.006
65.724899 -4.4084001 130.77299
64.8452 -3.69487 130.942
65.286903 -4.0399499 130.84599
66.536903 -5.2846098 130.51401
65.657097 -4.5566301 130.707
65.203499 -4.21946 130.77
64.736 -3.9242201 130.841
68.439697 -7.0036001 130.16701
67.502403 -6.3899398 130.22301
68.686203 -6.1347899 130.50999
67.705902 -5.4468999 130.58299
66.763702 -4.7414799 130.741
65.888 -4.0476198 130.914
64.441704 -5.3786402 129.826
64.092796 -5.0001702 129.97301
65.180199 -6.3042998 129.463
64.965302 -5.5625501 129.901
64.596397 -5.1954899 130.047
64.671097 -5.8584499 129.545
64.0327 -5.0782199 129.86
65.0364 -6.3804498 129.334
64.294601 -5.5444498 129.57001
64.584801 -5.9349399 129.416
63.917801 -5.22684 129.58501
64.2295 -5.6104999 129.44299
64.827103 -6.4787102 129.106
64.396698 -6.0831199 129.084
64.699997 -6.53651 128.95
66.413696 -2.2199299 131.017
65.913101 -2.06884 131.088
63.908901 -5.85849 128.612
64.165604 -6.1962199 128.536
64.4524 -6.6235099 128.43401
63.651001 -5.4942098 128.685
64.109398 -6.20156 128.35699
63.865398 -5.86022 128.439
63.616402 -5.4925299 128.506
63.8302 -5.8572402 128.295
63.594101 -5.4825702 128.37
64.0215 -6.1923599 128.048
72.414497 -6.9763198 128.961
70.894402 -0.60504198 128.519
70.949501 -0.45474899 127.844
70.899498 -0.492616 128.2
70.4832 -0.491496 128.548
70.659203 -0.54727697 128.55299
70.948898 -0.84254497 128.95799
70.917099 -0.732279 128.776
71.378304 -0.70385098 128.451
71.150597 -0.64976001 128.47099
72.887802 -2.4254601 128.358
68.974197 -3.0108099 127.245
69.019501 -3.48561 127.342
68.979698 -3.1666701 127.275
68.249496 -3.0434201 127.087
68.630798 -3.01285 127.181
69.055397 -2.57235 127.07
68.990997 -2.8629601 127.185
71.274902 -5.6903 130.56799
71.397598 -5.3245802 130.617
71.340698 -5.5194101 130.60201
71.028198 -5.5402198 130.658
71.146797 -5.6153302 130.623
70.945297 -5.96346 130.47701
71.157501 -5.83603 130.52299
72.408501 -4.8769798 127.68
72.777298 -4.91012 127.858
72.6269 -4.8938498 127.765
72.463097 -5.1216998 127.748
72.451797 -5.02669 127.716
71.767403 -4.8481598 127.649
72.153397 -4.8626299 127.63
72.346298 -4.3511 127.597
72.381302 -4.6630201 127.645
71.721802 -5.4023399 127.724
71.781303 -5.0272999 127.676
71.698303 -4.36694 127.597
71.759102 -4.6859298 127.631
72.8685 -5.22822 128.006
72.692802 -5.17801 127.863
72.377403 -5.57829 127.836
72.447998 -5.2537498 127.777
70.877098 -3.61603 127.596
71.626801 -3.5919199 127.444
71.237701 -3.61502 127.52
70.926598 -4.3425798 127.707
70.888397 -3.9505301 127.66
70.518303 -3.59797 127.637
70.627899 -3.6048701 127.634
70.895798 -2.9847901 127.39
70.884201 -3.3011899 127.509
71.199799 -6.1679001 130.306
72.2258 -7.2164698 128.742
72.273499 -7.0700798 128.823
72.249199 -7.1419702 128.782
71.850998 -7.07757 129.28999
72.051003 -7.13941 129.03101
72.243202 -7.3537102 128.784
72.219902 -7.2895298 128.73399
72.271599 -7.18681 128.23
72.318398 -7.2576299 128.46001
72.513702 -6.89925 128.39799
72.619797 -6.4545298 128.21001
72.540802 -6.7438302 128.30499
72.662003 -6.89643 128.545
72.598297 -6.90031 128.481
72.362 -7.0395999 128.34
72.428497 -6.9723601 128.381
71.985901 -6.79074 129.47301
71.558296 -6.5758901 129.83701
71.755699 -6.6933899 129.649
71.905502 -6.85395 129.373
72.224998 -6.8870401 129.25101
71.738297 -7.2967501 127.773
72.0606 -7.4598799 128.048
71.918404 -7.3696299 127.889
71.626999 -7.5047402 127.719
71.487 -7.21031 127.676
71.577103 -7.23066 127.703
71.8881 -7.04636 127.883
71.8554 -7.1290898 127.847
71.078102 -7.17382 127.619
71.392998 -7.19911 127.66
71.550003 -6.7595 127.786
71.5214 -6.9914398 127.719
71.0233 -6.7733102 127.678
71.068604 -7.0299802 127.638
71.019096 -7.61235 127.64
71.077003 -7.3408298 127.615
70.619202 -6.7540398 127.608
70.727303 -6.7804298 127.614
71.017799 -6.0883899 127.769
71.0149 -6.4484601 127.728
71.348701 -6.7471499 127.743
70.629898 -6.0531802 127.705
70.742798 -6.0622501 127.713
71.0056 -5.26018 127.768
71.0214 -5.69104 127.778
71.638298 -6.1821799 127.854
71.353302 -6.12675 127.82
67.529701 -4.7477999 126.445
67.862999 -4.8907099 126.589
68.253403 -4.8955102 126.837
70.633102 -5.19489 127.758
70.739502 -5.2137799 127.768
70.946503 -4.78335 127.745
70.960098 -4.9130998 127.752
71.355499 -5.3275099 127.747
69.474701 -5.6445198 127.518
70.6847 -8.7039499 128.27699
70.6157 -8.8257399 128.51801
69.991302 -8.6767797 128.795
70.278297 -8.7755203 128.72099
68.426697 -8.1330605 128.57401
68.184998 -8.0893602 129.052
68.287598 -8.1223698 128.823
68.231903 -8.1318598 128.524
68.301903 -8.1200705 128.528
68.682404 -8.1780005 128.049
68.569199 -8.1446104 128.31599
68.760902 -8.2218704 128.649
68.593399 -8.1715298 128.61099
68.060204 -7.9724998 129.32001
68.095398 -8.02596 129.248
68.583397 -8.18326 129.063
68.382896 -8.1301498 129.06
69.474098 -7.2642398 127.457
69.478798 -6.7929702 127.375
69.454102 -8.0946503 127.776
69.457298 -7.7352099 127.592
69.192001 -7.2065802 127.256
69.329498 -7.2269101 127.358
69.626198 -7.3066201 127.586
69.584503 -7.2980399 127.542
66.123398 0.44298199 127.223
65.782898 0.39980799 127.141
65.899902 0.46073601 127.237
66.150101 0.68887901 127.949
66.113899 0.613675 127.559
66.682098 0.38132799 127.173
66.393303 0.407653 127.193
66.141403 0.18155 126.964
72.8647 -4.9046502 128.75
72.897003 -2.5643401 128.41701
72.5569 -2.5150499 128.80901
72.777496 -2.5443101 128.63901
72.928001 -2.6445701 127.905
72.938103 -2.5919099 128.16499
72.897499 -2.4939401 128.386
72.819702 -6.4341502 128.347
72.742897 -6.69908 128.44901
72.560402 -6.9999099 128.696
72.179802 -7.6099601 128.207
73.060402 -5.2758598 128.242
72.976303 -5.7909598 128.233
73.035599 -5.49053 128.228
73.003197 -5.26404 128.147
73.066399 -5.0307102 128.231
73.069603 -5.1304102 128.254
72.8759 -4.7923999 128.67599
73.036201 -4.86127 128.14101
73.0289 -4.8700199 128.353
72.446899 -4.5304699 129.23
72.654297 -4.6622901 129.00301
72.869003 -4.84728 128.713
72.860603 -4.7839899 127.894
72.958397 -4.8179102 127.997
73.021599 -4.7423902 128.041
73.027199 -4.7869301 128.092
73.051201 -4.95016 128.186
72.065697 -2.4638901 129.101
72.2985 -2.48119 128.95399
72.632004 -2.3728499 128.69
72.576401 -2.42981 128.754
72.927696 -2.7260201 127.927
72.808899 -2.9361501 127.647
72.887398 -2.8113401 127.732
72.924202 -2.6954 127.909
72.0438 -0.75958598 127.763
71.974602 -1.03089 127.248
72.005997 -0.83210802 127.498
71.802299 -0.68532801 127.813
71.925201 -0.72747499 127.794
71.821198 -0.94202298 127.269
71.811699 -0.74319601 127.54
71.498199 -0.58337098 127.83
71.666496 -0.63568097 127.825
71.765404 -0.76248503 128.25999
71.767899 -0.705015 128.089
71.360497 -6.9656601 129.729
71.634399 -7.0243702 129.511
72.007797 -7.2918601 129.22099
71.887703 -7.1665502 129.261
71.841499 -6.9514999 129.33701
71.838799 -7.00207 129.33099
72.047203 -4.4582801 129.683
72.103104 -4.5116 129.632
72.428497 -4.6907601 129.32401
72.262604 -4.6029301 129.48199
72.634903 -4.7925301 129.095
72.433899 -4.6143098 129.278
70.905296 -1.61127 129.45799
70.7631 -1.56301 129.461
70.971497 -1.18232 129.254
71.253998 -1.23269 129.216
71.107597 -1.20629 129.23801
70.970299 -0.98244798 129.106
70.839699 -1.16036 129.256
70.950699 -1.39419 129.375
71.232697 -1.6574301 129.382
71.2397 -1.4452 129.326
71.3041 -0.903467 128.907
71.275398 -1.03528 129.06799
71.339104 -0.80865401 128.714
71.123901 -0.86224699 128.92101
70.808197 -0.832892 128.993
71.559402 -0.74894899 128.41299
71.880302 -2.4548199 129.235
69.306999 -7.8634701 129.976
69.454498 -7.89749 130.02
69.805199 -8.1248398 129.929
69.553902 -7.9918799 129.974
69.478401 -7.7124 130.14799
69.439796 -7.8122702 130.077
69.778801 -8.2965803 129.681
71.508904 -4.9102898 130.526
71.452599 -5.10361 130.59801
71.039597 -5.2304201 130.69901
71.240196 -5.2834702 130.66299
71.123199 -4.7730699 130.64999
71.056801 -4.4021001 130.507
71.1315 -4.59411 130.582
70.675201 -4.5594301 130.664
70.916702 -4.6947298 130.677
71.0756 -4.92205 130.69901
71.317497 -4.83745 130.59801
71.525597 -4.5209098 130.323
71.543602 -4.7248702 130.424
70.843399 -4.4291101 130.58299
70.425201 -4.39535 130.62
70.562897 -4.72609 130.72701
71.187897 -2.8649099 130.019
71.060303 -2.58043 129.88
71.148003 -2.71646 129.94901
71.065598 -2.86097 130.047
71.235802 -3.1110101 130.10201
71.207603 -3.00541 130.073
71.422096 -2.8993499 129.933
71.299797 -2.8740101 129.981
71.0839 -3.2190499 130.144
71.178596 -3.1622801 130.123
71.469902 -3.18961 130.03799
71.3377 -3.1553299 130.08299
70.954803 -3.35186 130.186
71.000099 -3.2981701 130.166
71.416801 -3.4217801 130.092
71.250198 -3.35747 130.136
70.9422 -3.0677299 130.133
71.454597 -3.3122799 130.075
71.417801 -3.71017 130.103
71.391403 -3.5448699 130.101
70.944702 -3.5771599 130.242
70.944 -3.44806 130.211
70.721901 -3.2035201 130.19701
70.889 -2.1479101 129.66299
70.959198 -2.4052701 129.793
70.942398 -2.6265299 129.95
71.349602 -2.59112 129.743
71.198502 -2.5587201 129.804
71.375702 -2.74524 129.85899
71.277603 -2.1570301 129.506
71.322098 -2.4049201 129.612
71.083603 -2.1331401 129.582
70.869598 -1.85961 129.53999
70.682701 -2.1204 129.72
71.677399 -2.3768001 129.358
71.840202 -4.3050699 129.89101
71.477203 -4.0992198 130.162
71.687698 -4.1933699 130.024
71.832001 -4.6374002 130.106
71.844704 -4.4561501 129.959
71.956596 -4.3984299 129.772
71.8508 -4.0997701 129.81599
71.845497 -4.1775098 129.843
70.949303 -3.9520099 130.342
71.227997 -4.0300899 130.274
70.951103 -3.78929 130.29201
70.656303 -3.8387699 130.37399
70.972397 -4.19595 130.429
71.286697 -4.4411702 130.427
71.728203 -4.5890899 130.19299
71.494202 -4.3086801 130.23199
70.836899 -5.6909299 130.608
70.344902 -5.5380502 130.62
70.615501 -5.63028 130.616
70.829803 -5.8285699 130.552
70.919998 -5.5872402 130.646
70.999298 -5.4461899 130.67999
70.030998 -5.4402499 130.617
70.1082 -6.00565 130.47501
70.238998 -5.7609601 130.547
70.443802 -5.3067398 130.69901
70.994102 -6.4410701 130.161
70.577103 -6.2287202 130.37
70.778099 -6.3464799 130.27699
70.844101 -6.6917801 130.112
70.906601 -6.56007 130.125
71.198997 -6.5240698 130.024
71.091904 -6.3234801 130.218
70.362701 -6.10883 130.436
70.413597 -6.5606799 130.317
70.482002 -6.3839102 130.328
70.724602 -6.09023 130.425
69.844002 -5.91959 130.50101
69.914398 -6.4536901 130.40601
70.0224 -6.17626 130.433
71.343002 -6.80863 129.771
71.351997 -6.90487 129.743
70.634598 -6.6236 130.231
70.754303 -6.91084 130.161
70.789902 -6.8161402 130.13
71.072899 -6.7572198 129.959
70.170502 -6.5104299 130.375
70.4048 -6.9258099 130.351
70.3834 -6.74476 130.327
69.661499 -6.4061699 130.42799
69.804604 -6.7571001 130.39799
69.831299 -6.6457801 130.396
70.031898 -7.0165 130.435
70.219498 -6.95263 130.40199
70.470901 -7.1897802 130.38699
70.444397 -7.0802598 130.37399
70.574303 -6.9177799 130.27901
69.876198 -7.09618 130.44701
70.356697 -7.31285 130.438
70.220398 -7.18432 130.44901
69.850197 -6.8621998 130.41299
70.414902 -7.2399502 130.41299
70.293098 -7.37641 130.45799
70.068703 -7.80409 130.30901
70.107803 -7.7206802 130.369
69.836601 -7.6702299 130.304
69.9384 -7.9772201 130.14999
70.005402 -7.8915901 130.233
72.793999 -2.4064801 127.263
72.1119 -1.74527 126.981
71.999802 -1.34246 127.066
71.885101 -0.973153 127.26
72.121101 -1.08755 127.252
72.063698 -1.07735 127.241
72.981201 -2.4818001 127.771
71.596001 -0.88786 127.232
71.7425 -0.919985 127.256
72.899803 -3.05441 127.677
70.105598 -0.14635099 127.787
70.550003 -0.31924 127.83
70.405899 -0.25763601 127.81
70.191299 -0.37576899 127.151
70.154198 -0.19871099 127.42
69.290703 0.109317 127.775
69.709297 -0.023497 127.775
69.988297 -0.296211 128.52699
70.047798 -0.18660299 128.17599
69.3134 0.044061001 127.39
68.379799 0.372967 127.79
68.848099 0.245506 127.782
69.290802 -0.069729 128.558
69.295799 0.054303002 128.187
68.381302 0.060213 127.09
68.396896 0.27859199 127.39
67.441299 0.58774298 127.817
67.9011 0.49311399 127.804
68.420898 0.189328 128.61501
68.394897 0.32631001 128.218
69.619598 -0.177737 128.539
69.927803 -0.42739201 128.85699
70.287399 -0.40384701 128.52699
68.767197 0.086044997 128.595
69.354301 -0.253777 128.91
67.463699 0.46296799 128.655
67.858002 0.36303601 128.647
68.482101 0.001087 129.011
66.685402 0.57589501 128.702
66.991096 0.54261899 128.67101
67.538902 0.299485 129.084
67.436897 0.56931603 128.235
65.851799 0.70622301 128.01401
66.200897 0.62454498 128.783
66.191101 0.68484497 128.36501
66.707199 0.66772699 127.86
66.433296 0.67501497 127.899
67.422699 0.278732 127.117
67.448898 0.49047101 127.431
67.029099 0.65521902 127.83
69.237503 -8.4019804 128.97301
69.651398 -8.5491304 128.881
70.041901 -8.5425501 128.343
70.010902 -8.6498299 128.58701
69.894096 -8.5359802 129.269
69.958199 -8.6339598 129.009
69.1091 -8.22509 129.41701
69.177498 -8.34132 129.19099
68.847801 -8.26758 129.041
69.2742 -8.4136696 128.772
69.330704 -8.4229002 128.565
68.9702 -8.2963305 128.67999
68.482697 -8.1912498 127.987
68.571098 -8.1643295 127.988
68.748299 -8.2521801 127.426
68.744003 -8.2229204 127.76
68.930901 -8.2688599 128.23199
68.8041 -8.2234201 128.13901
68.608299 -8.2650604 127.286
68.654999 -8.2512197 127.303
68.680298 -7.98874 126.922
68.721298 -8.1906605 127.124
68.901299 -8.29179 127.637
68.846397 -8.2677298 127.56
69.428001 -8.3724203 128.054
69.417702 -8.38204 128.15199
69.719704 -8.4533997 128.36301
69.662003 -8.4471998 128.35201
69.375603 -8.4271002 128.371
69.114403 -8.3326902 128.32899
69.816299 -8.4807196 128.37
70.081802 -8.0987701 127.911
70.068298 -8.3516703 128.105
70.347397 -8.6171703 128.29401
70.865601 -8.2371502 127.837
70.761002 -8.4989595 128.02299
71.094498 -8.7935801 128.207
70.9618 -8.7757196 128.255
69.825104 -8.4129601 129.515
69.516403 -8.3861303 129.362
69.038597 -8.0715103 129.642
68.450302 -7.9678102 129.467
68.702301 -8.06007 129.448
67.947899 -7.74261 129.522
68.025703 -7.89044 129.39999
72.798698 -5.7315402 128.077
72.8508 -5.4215798 128.037
72.912697 -5.0377002 128.00301
72.879898 -5.1128101 127.994
72.725197 -4.3481898 127.692
72.7901 -4.6357899 127.803
72.817902 -4.8378401 127.878
72.686699 -3.53684 127.583
72.685898 -3.9626 127.607
72.912903 -4.3362002 127.736
72.852402 -4.3431301 127.722
72.552002 -4.3509402 127.649
72.290901 -3.50862 127.472
72.512497 -3.4937401 127.547
72.726402 -3.16275 127.6
72.860802 -3.61659 127.601
72.805901 -3.5931599 127.595
72.870598 -3.02104 127.664
72.7192 -2.79688 127.57
72.745598 -2.85745 127.612
72.278099 -3.0035999 127.387
72.5401 -2.8795099 127.487
72.704102 -2.6905401 127.468
72.709297 -2.7451 127.521
72.853203 -2.7138901 127.695
72.680199 -2.5328901 127.311
72.226303 -2.4593899 127.058
72.487297 -2.49893 127.169
72.7314 -2.4623201 127.279
72.694901 -2.6247499 127.397
68.154503 -5.8794999 126.522
68.119499 -6.1399398 126.463
66.811996 -4.5500498 126.153
67.199898 -4.6368799 126.308
67.503601 -4.5286198 126.534
67.5056 -4.6053801 126.502
67.5877 -5.12815 126.335
67.562798 -4.92942 126.384
66.040604 -4.44139 125.972
66.408699 -4.4853201 126.025
66.776703 -4.2416 126.254
66.781998 -4.3435102 126.22
66.886703 -5.0689001 126.017
66.8517 -4.80863 126.078
65.2649 -4.53339 125.994
65.6717 -4.4434099 125.975
66.005898 -4.0136199 126.091
66.013397 -4.1523199 126.049
66.121803 -5.1610799 125.806
66.079803 -4.8038101 125.877
64.4627 -4.98841 126.33
64.8508 -4.71034 126.1
65.221298 -4.0498099 126.096
65.2295 -4.19489 126.065
65.379501 -5.3573899 125.863
65.3153 -4.9498401 125.923
64.6297 -5.7119198 126.258
64.528099 -5.3433199 126.281
63.974201 -5.52356 126.997
64.159798 -5.2873001 126.651
64.399902 -4.5889602 126.413
64.412201 -4.6911998 126.393
63.8307 -5.67975 127.37
63.816399 -4.9263601 127.174
63.9128 -5.2715402 127.056
64.197502 -6.0545802 126.959
64.074699 -5.8029499 126.974
72.920303 -5.7739 128.174
72.716698 -6.0956602 128.13
72.614998 -5.6647601 127.958
72.1772 -6.3565302 128
72.289803 -5.98383 127.917
72.078796 -5.4839201 127.747
71.6828 -5.82938 127.792
72.423897 -6.4390302 128.11099
72.752701 -6.44064 128.29201
71.9076 -6.2565098 127.905
72.025398 -6.74301 128.02901
72.098503 -6.6497598 128.049
71.593002 -6.4853001 127.845
69.082901 -5.3671699 127.252
68.606102 -6.20857 126.768
68.464104 -6.4135499 126.647
68.384903 -6.0205202 126.647
68.746101 -5.9991698 126.884
68.853401 -6.5474901 126.904
68.792503 -6.3910799 126.873
71.929497 -6.88691 127.956
71.728996 -6.8120198 127.852
70.513397 -6.7470498 127.572
70.115097 -7.39815 127.62
70.124199 -7.0033598 127.538
71.898598 -6.9812398 127.91
71.981003 -6.7990999 127.995
72.130699 -7.0900898 128.052
72.312401 -7.1082001 128.284
72.199501 -7.2904701 128.161
71.709702 -7.9147801 127.853
71.886002 -7.6761098 127.934
72.145103 -7.5578299 128.17101
71.852898 -8.0209904 127.955
71.806801 -7.9859099 127.934
71.345703 -8.4340601 127.907
71.5289 -8.1665297 127.835
71.605301 -7.8160501 127.761
71.364304 -7.6941199 127.676
70.965897 -7.9349599 127.709
70.579597 -7.4976201 127.625
70.097198 -7.7856302 127.751
69.753304 -7.32724 127.614
68.887901 -7.1922402 127.014
68.926804 -7.9995899 127.284
68.907402 -7.6514301 127.139
68.482697 -7.2168002 126.651
68.708 -7.1950698 126.853
68.884903 -6.7597098 126.939
69.047997 -7.1976099 127.143
71.444 -8.5207701 127.967
71.413803 -8.49436 127.953
71.194504 -8.6621103 128.03999
71.185303 -8.3425903 127.861
70.465797 -8.14849 127.853
69.671303 -8.0898705 127.933
69.789803 -8.0879402 127.944
69.605202 -8.0939198 127.88
69.440399 -8.3193703 127.953
69.145599 -8.0597296 127.529
69.276901 -8.0829 127.65
69.033798 -8.0296497 127.406
68.9282 -8.2200899 127.444
68.817902 -7.9843702 127.133
71.296303 -4.3693099 127.653
71.663597 -3.9693 127.523
72.073898 -4.3536 127.569
71.574303 -2.9646001 127.233
71.5961 -3.2467 127.348
72.001198 -3.55038 127.416
71.614197 -2.3621399 126.988
71.5784 -2.6861401 127.118
72.225403 -2.8740201 127.288
71.944 -2.9254501 127.214
71.2313 -2.9822299 127.315
70.983597 -2.2063601 127.083
71.300697 -2.28881 127.033
71.659103 -1.587 126.9
71.648201 -1.99845 126.891
71.928299 -2.4222901 126.988
71.069298 -1.36812 126.943
71.385002 -1.48057 126.917
71.635399 -1.20675 127.024
71.900497 -1.6765 126.92
72.314301 -3.9583399 127.533
72.297501 -3.1415901 127.424
72.251999 -2.95034 127.335
72.2136 -2.16433 126.979
72.227997 -2.7314401 127.225
72.232201 -2.6540501 127.166
72.373703 -1.79388 127.049
72.279404 -1.79047 127.036
70.654602 -2.1105101 127.087
70.737999 -2.13692 127.101
71.044701 -1.77926 126.956
70.9263 -2.6289999 127.247
70.133598 -1.95561 126.957
70.526001 -2.0767701 127.044
69.997902 -2.8276601 127.276
70.053001 -2.4405401 127.11
69.669998 -1.7639 126.879
70.2267 -1.05071 126.862
70.204597 -1.4792 126.857
70.718597 -1.22295 126.931
70.812202 -1.26784 126.951
71.047501 -0.71908098 127.233
71.066002 -1.00913 127.038
70.216103 -0.66679299 126.963
70.593597 -1.17935 126.904
69.4254 -0.81559598 126.83
69.773399 -0.900213 126.835
70.656898 -0.56339097 127.209
70.772301 -0.620718 127.232
71.009201 -0.52738702 127.51
71.365601 -0.80975002 127.226
70.525002 -0.50346702 127.184
69.733002 -0.23801699 127.137
70.557503 -4.29424 127.746
70.654701 -4.3085899 127.741
70.936302 -4.66295 127.734
70.550301 -2.96277 127.435
70.637299 -2.97084 127.434
69.092102 -1.67537 126.829
69.090599 -2.16749 126.935
69.403603 -2.65466 127.154
69.3004 -2.6316299 127.127
68.210098 -2.4542999 126.887
68.683899 -2.5065899 126.986
68.261703 -1.51784 126.685
68.747803 -1.60147 126.773
68.993797 -0.78002101 126.794
69.063599 -1.20702 126.771
69.387802 -1.7411799 126.874
69.301697 -1.72498 126.863
69.468201 -1.74291 126.873
69.533699 -1.2674201 126.806
68.3181 -0.59049302 126.714
68.815598 -0.73610401 126.771
69.116898 -0.770827 126.808
69.077301 -0.80084598 126.798
69.204597 -0.77817398 126.816
69.345703 -0.426424 126.932
68.327797 -3.43364 127.173
68.286598 -3.65011 127.172
68.329597 -3.5828199 127.187
68.2995 -3.25841 127.129
68.701103 -3.4911499 127.279
68.3517 -0.238276 126.868
67.881401 0.17764901 127.098
68.890099 -0.078335002 127.09
67.352303 -0.41313601 126.679
67.796898 -0.485156 126.672
68.287697 -1.01398 126.645
67.371399 -1.39784 126.597
67.756699 -1.44932 126.618
68.235901 -2.0251501 126.779
67.530098 -2.3599701 126.756
67.7696 -2.38642 126.795
68.206902 -2.7966299 126.998
67.802597 -3.0964501 126.97
67.5896 -3.1598899 126.898
67.190002 -2.6680501 126.708
67.444603 -2.97838 126.826
67.776199 -3.1196599 126.97
67.657303 -3.2867701 126.936
67.370598 -2.3900001 126.748
67.4151 -2.3441701 126.743
67.422897 -1.88585 126.656
66.970299 -3.0207701 126.654
67.0625 -2.8308499 126.673
66.4608 -2.1092999 126.556
66.858398 -2.33743 126.598
67.3116 -2.4707401 126.737
65.588097 -1.66749 126.629
66.027603 -1.92598 126.567
66.528801 -1.77896 126.591
66.235603 -2.7032299 126.481
66.336899 -2.4264901 126.523
67.346901 -0.87791502 126.584
66.973099 -0.369838 126.707
67.383797 -0.026975 126.866
66.651398 0.064689003 126.917
65.364304 -1.8000001e-05 126.908
65.731903 0.19328 126.966
67.018204 0.35401699 127.144
66.704803 0.58239299 127.487
65.571899 0.51130903 127.315
65.485298 -1.94752 126.612
65.635002 -1.44902 126.652
67.058098 -1.31295 126.601
72.936501 -2.553 127.851
72.9328 -2.5975499 127.879
72.322601 -7.0122399 128.879
71.260002 -0.52887499 127.835
70.682404 -0.373 127.846
65.9618 0.64845401 128.82899
66.195602 0.54325402 129.209
66.440804 0.61112702 128.74001
64.520103 -3.2077601 126.629
64.715401 -3.56829 126.383
65.284203 -3.5002601 126.267
64.917 -3.5668199 126.302
64.237099 -4.1718798 126.614
64.508301 -3.79039 126.464
71.458397 -3.9000399 130.11501
71.196602 -3.66028 130.188
70.689003 -3.46329 130.267
71.457802 -2.2010601 129.422
71.242302 -1.89039 129.42799
71.070801 -1.636 129.42799
70.498398 -0.36007601 128.20799
70.457901 -0.629076 128.856
71.1334 -8.8312798 128.244
71.101601 -8.8345699 128.272
72.021797 -7.7975001 128.06
72.896698 -6.1241798 128.267
72.593803 -2.1942699 127.089
72.188904 -1.3975199 127.092
72.870399 -3.98172 127.622
72.971901 -4.6089902 127.897
72.873802 -3.30673 127.626
72.930603 -2.48773 127.489
72.947403 -2.5154901 127.797
71.435204 -0.61196601 128.15199
71.551498 -0.66944402 127.519
69.032204 -4.1595001 127.389
68.6605 -3.9084301 127.286
68.270302 -4.2751002 127.009
68.277802 -3.8578899 127.118
67.935501 -3.3950601 127.057
69.4403 -4.4164901 127.512
69.3209 -4.3456202 127.468
69.052299 -4.7572198 127.322
69.029099 -4.32581 127.367
69.054497 -3.9995601 127.399
69.043701 -4.09165 127.396
69.280296 -1.22633 126.806
70.027397 -4.57728 127.636
70.017799 -4.22365 127.602
70.034599 -4.47332 127.625
70.599998 -4.7290502 127.768
70.441498 -4.68717 127.736
70.026604 -5.1159201 127.638
70.016296 -4.7288699 127.642
69.6064 -4.46386 127.549
70.692703 -4.7470198 127.765
67.061501 -1.89606 126.655
70.410896 -2.9327099 127.388
69.975197 -3.52474 127.501
69.971199 -3.1693799 127.411
69.569702 -2.7018001 127.179
69.387299 -3.4570701 127.41
69.280502 -3.4660599 127.384
69.063797 -3.8330801 127.391
69.439003 -4.1491799 127.501
69.325897 -4.1106801 127.47
69.447502 -5.0220599 127.521
69.340698 -4.9459801 127.456
69.0765 -5.1903501 127.276
68.667198 -4.5128498 127.159
70.035301 -5.85394 127.601
70.0411 -5.5559101 127.626
70.491699 -6.0074801 127.666
69.6203 -5.70924 127.555
70.464302 -5.1721802 127.725
69.596901 -5.0554099 127.568
69.603302 -4.1725702 127.526
69.993698 -3.88341 127.563
70.417397 -4.2736802 127.709
69.551697 -3.4720199 127.432
70.364899 -3.5791399 127.589
68.263 -4.7206202 126.888
67.573402 -3.9291799 126.737
67.898201 -4.0710201 126.868
67.525299 -4.3550901 126.595
66.848 -3.70471 126.449
67.241203 -3.81604 126.6
67.634804 -3.36432 126.922
66.797401 -4.0817499 126.313
66.075203 -3.5106699 126.268
66.443398 -3.6017001 126.323
66.912903 -3.20962 126.626
66.025597 -3.8596399 126.143
65.700897 -3.47752 126.254
66.139297 -3.05408 126.43
65.363503 -3.0127101 126.433
65.232597 -3.86727 126.143
69.467499 -5.46139 127.522
69.367599 -5.56388 127.44
69.430801 -2.2404201 126.999
69.367599 -3.0352099 127.302
70.647102 -5.6259699 127.747
70.609596 -6.4277902 127.647
68.682999 -5.12147 127.029
67.8452 -4.6961002 126.671
67.168297 -4.3812199 126.401
66.375504 -4.11833 126.135
65.635902 -3.98402 126.08
64.809502 -4.2093101 126.186
70.524101 -3.9263799 127.707
70.526497 -3.2825401 127.548
70.590797 -4.6010199 127.764
70.608101 -4.8642902 127.765
69.434196 -4.5847602 127.516
69.420403 -3.85728 127.476
69.4468 -4.33286 127.508
70.587196 -2.58464 127.277
65.397903 -2.5787599 126.534
65.381798 -2.85829 126.478
64.363701 -4.4767399 126.46
70.692596 -0.85556501 127.029
70.712196 -1.64134 126.944
70.611397 -0.37671 127.476
69.373802 -8.1032495 129.78101
69.766602 -8.1971397 129.80099
69.8713 -8.0574503 130.05099
71.082397 -6.0861702 130.386
69.559196 -6.7678199 130.414
68.194603 -5.6222501 126.584
67.894096 -5.2459698 126.48
67.659302 -5.69876 126.251
67.618103 -5.3754501 126.294
67.271103 -5.0654202 126.189
67.015198 -5.7010002 125.91
66.935799 -5.3579202 125.966
66.486504 -5.10886 125.871
66.2901 -5.8523798 125.729
66.186501 -5.5093598 125.763
65.763298 -5.2385602 125.812
65.563103 -6.1170998 125.832
65.459396 -5.7445202 125.834
64.992401 -5.5144601 125.999
64.882896 -6.4840102 126.264
64.752403 -6.0911698 126.259
64.363998 -5.9120798 126.608
64.494797 -6.6533799 126.94
64.359001 -6.3944502 126.947
64.063904 -6.16435 127.316
63.987202 -4.5924602 126.854
64.077003 -3.84198 126.839
63.666801 -5.18543 127.482
63.695 -4.68367 127.318
69.047501 -8.3502598 127.865
68.959801 -8.3195 127.735
68.991699 -8.3136101 128.034
68.8545 -8.2343502 128.44299
68.666901 -8.2111301 128.856
68.499901 -8.1106005 129.269
68.43 -7.7873902 129.65401
68.173401 -7.8610201 129.494
66.672798 0.470045 129.14999
66.697403 0.66139799 128.269
72.153397 -7.3213201 128.998
66.930603 -3.1249599 126.645
66.577003 -2.83688 126.525
66.146698 -2.9632101 126.452
65.845901 -2.6096201 126.491
64.896698 -2.54989 126.625
65.417503 -2.2618201 126.593
67.835297 -7.52108 129.65401
69.202904 -6.7368999 127.177
69.167099 -7.6823301 127.378
69.104401 -8.2934399 127.699
69.208199 -8.37533 127.979
69.047798 -6.4359102 127.045
67.913902 -5.7764602 126.391
68.437103 -6.7238598 126.608
72.2425 -6.9283299 128.173
72.390503 -7.1027198 128.554
72.090302 -6.9952698 129.08501
71.851799 -6.9152899 129.336
71.598396 -6.85989 129.577
71.359497 -6.70433 129.802
73.036003 -4.99788 128.42
73.008301 -5.02948 128.10899
72.843002 -4.9912601 127.93
72.1092 -4.3043098 129.561
72.263603 -4.41045 129.403
71.981003 -4.2123399 129.69299
72.090202 -4.3937302 129.606
72.218498 -2.7933099 127.249
72.506302 -2.7309899 127.359
72.857201 -2.6261301 127.619
72.940498 -2.4862299 128.117
72.781601 -2.38783 128.55499
71.461998 -3.05058 129.99001
71.259102 -8.7217798 128.091
71.656403 -8.2731705 127.908
68.363297 -8.1564503 128.256
68.577904 -8.2346296 127.663
68.604301 -7.65978 126.779
64.6408 -6.5980601 126.597
65.195099 -6.2988801 125.993
64.3787 -6.6657901 127.293
65.940903 -5.9610801 125.752
66.639198 -5.7713399 125.775
67.367104 -5.6677098 126.094
69.623299 -6.8524098 127.502
69.631302 -7.7599802 127.731
69.714401 -8.3086395 128.142
69.633003 -7.4654298 130.317
69.526398 -7.6145802 130.209
70.601402 -1.09587 129.21201
70.512398 -4.92239 130.746
70.492699 -5.0945702 130.735
71.051903 -5.0681801 130.709
71.010399 -5.3324399 130.69299
69.764099 -7.2213802 130.42599
69.696503 -7.3387098 130.381
70.238701 -7.4629202 130.452
70.158897 -7.6324301 130.409
69.703598 -7.8437901 130.157
65.216797 -0.92487901 126.708
65.946198 0.26041499 127.031
70.422997 -0.77667397 129.035
70.397797 -0.86612397 129.125
70.389198 -1.9850301 129.72301
70.418701 -2.41412 129.953
70.454803 -2.97509 130.186
70.429398 -3.2595899 130.265
70.406097 -3.6691201 130.368
70.370399 -1.80759 129.63
70.359001 -1.32539 129.395
70.377296 -1.00029 129.20799
70.361702 -1.14145 129.29201
70.438301 -2.7909999 130.127
70.430702 -2.6215601 130.056
69.838799 -0.60641301 129.08501
69.802399 -0.71684998 129.19501
69.697403 -1.68178 129.769
69.694702 -2.20349 130.05299
69.648697 -3.41043 130.451
69.673302 -3.9651401 130.618
69.725502 -4.3930202 130.73199
68.839996 -7.4702201 130.048
68.925201 -7.7793899 129.85899
69.596298 -4.9451098 130.688
69.500397 -5.3435502 130.606
69.3209 -5.83675 130.52299
69.1474 -6.3761902 130.467
69.674599 -2.6828401 130.27699
69.652397 -2.95609 130.34801
69.738503 -1.18653 129.49001
68.866302 -7.2614899 130.17101
69.775398 -0.84735399 129.283
69.757202 -1.00866 129.383
69.701698 -2.5273199 130.215
69.690804 -2.3622701 130.146
69.692398 -4.5924802 130.752
69.647499 -4.7688298 130.72701
69.086304 -6.66714 130.44501
69.018997 -6.8169198 130.405
68.9758 -6.9597402 130.342
68.929199 -7.0907698 130.267
66.175797 -0.70498699 126.676
66.262703 -0.67846799 126.677
66.0075 -0.0087900003 126.854
66.170403 -0.117851 126.807
66.087402 -0.266846 126.767
66.623398 -0.34380099 126.743
66.350197 -0.222969 126.788
66.648804 -0.78213203 126.652
66.043297 -0.274638 126.763
66.121201 -1.25251 126.629
66.667801 -1.35656 126.638
66.5998 -1.39197 126.628
66.710999 -1.29153 126.633
65.719803 -0.13674299 126.808
65.711899 -0.50133002 126.717
65.679703 -1.12219 126.678
65.694504 -0.79969102 126.692
70.187401 -7.5736399 130.425
70.908699 -2.9466901 130.09599
70.8927 -2.72855 130.007
69.5252 -6.2112598 127.443
69.6782 -6.2857699 127.506
68.655296 -5.4467502 126.9
69.259399 -5.9938002 127.254
69.042801 -5.55551 127.168
68.677597 -5.3014698 126.962
69.446198 -5.8959799 127.437
69.540199 -6.00455 127.502
69.503799 -5.9717999 127.477
69.438103 -6.1265402 127.378
69.312302 -5.7756801 127.342
68.983498 -5.69559 127.088
69.614098 -6.04002 127.522
69.561302 -6.2599201 127.476
70.100197 -6.6651101 127.521
68.263802 -5.07654 126.765
68.238403 -5.4084702 126.648
68.268097 -5.23034 126.709
68.251099 -4.9614601 126.81
68.582001 -5.60707 126.823
70.055702 -6.3800998 127.54
70.025703 -6.0739698 127.571
69.572098 -5.8239498 127.529
68.678398 -5.1876998 127.006
69.355301 -5.6450801 127.411
69.4589 -6.4208598 127.351
69.467102 -5.7343302 127.494
69.596901 -6.5137601 127.47
69.558899 -6.4868698 127.429
69.185097 -6.3794999 127.149
69.324501 -6.3650298 127.251
68.878502 -5.83639 126.991
69.071404 -5.4405398 127.224
69.726898 -6.55723 127.496
70.026703 -6.20928 127.555
69.091103 -6.0922399 127.113
71.324501 -4.69522 127.69
71.3433 -4.9464698 127.717
68.9748 -0.094563998 127.094
69.326698 -0.16275699 127.122
68.188904 -3.40575 127.131
68.0261 -3.0690899 127.028
68.142502 -3.29796 127.096
67.933998 -2.8484399 126.945
64.924896 -3.3569701 126.38
67.900299 -3.68857 126.97
67.607399 -3.6077001 126.841
67.275703 -3.5346601 126.698
66.880898 -3.44524 126.543
66.475304 -3.36099 126.411
66.106796 -3.28339 126.35
65.748703 -3.24701 126.333
65.325798 -3.28318 126.345
68.224602 -6.4060602 126.493
68.113297 -6.40413 126.418
71.499199 -7.7613201 127.721
71.4608 -6.64505 129.8
70.027199 -4.5012002 130.71201
69.7481 -5.0170002 130.688
69.932297 -4.6921902 130.743
69.843498 -4.84869 130.72501
63.293301 -5.0501699 128.78799
65.249397 -0.324139 130.623
65.504501 0.66996503 129.377
65.434196 0.81309301 128.511
65.275002 0.70571601 127.795
65.051399 0.38072801 127.295
64.8367 -0.285283 126.999
64.595001 -1.12242 126.94
64.305702 -1.90815 126.942
64.461502 -1.4919 126.94
64.767197 -0.650222 126.924
64.197098 -2.2209201 126.927
64.083603 -2.50717 126.938
65.452797 0.36295399 129.989
65.336304 0.033186998 130.311
65.0158 -0.681521 130.97301
65.154198 -0.53339201 130.806
64.945801 0.124207 127.14
65.166801 0.58337098 127.541
65.408203 0.77606797 128.24001
65.474297 0.74577498 129.005
64.034401 -3.7350199 130.858
63.720299 -4.4885101 130.33501
63.535301 -4.7954001 129.847
63.3414 -5.0309701 129.05299
63.556499 -3.7883201 127.283
63.396999 -4.4162102 127.657
63.9482 -2.7871699 126.958
63.821602 -3.07478 127.03
63.6861 -3.4091401 127.124
63.914902 -4.0251002 130.668
63.272499 -4.9295402 128.345
63.299198 -4.7562599 128.054
63.434101 -4.9362602 129.465
63.6381 -4.6213498 130.13699
63.599098 -4.6880102 130.03
63.504002 -4.8420501 129.739
63.274502 -5.0202298 128.61
63.268902 -4.9818802 128.47701
64.628502 -1.48698 131.224
64.419998 -2.2350099 131.252
64.533798 -1.79898 131.244
64.749901 -0.83060002 131.158
64.502899 -1.91919 131.24699
64.4468 -2.1347401 131.25101
64.672401 -1.23159 131.19501
64.349403 -2.5592301 131.196
64.244904 -3.0194499 131.11501
64.190804 -3.1812999 131.061
67.561798 -7.0541501 129.825
66.639702 -6.77144 129.69
66.903503 -7.2608199 129.52299
67.648003 -7.4488802 129.63699
67.825203 -8.1368399 128.78101
68.103699 -8.1077204 128.793
67.893204 -7.9932399 129.23199
67.361801 -7.9569802 129.132
68.084396 -6.73563 126.359
68.588898 -8.2185602 126.871
68.318298 -8.4732904 126.509
68.311996 -8.3133001 126.378
68.558098 -8.3177004 126.954
68.530098 -8.4399099 127.04
68.517601 -8.2743797 127.691
68.413498 -8.3732796 127.744
68.275299 -8.19524 128.298
65.848999 -8.6825399 127.197
65.726601 -8.4498701 127.905
65.5186 -8.3384705 127.196
65.863701 -8.4043703 126.574
66.221199 -8.7430096 126.646
66.4291 -8.4154501 126.079
66.682503 -8.6844301 126.187
67.177597 -8.3213797 125.877
67.459099 -8.6637897 125.973
67.7724 -8.2044802 125.942
67.895599 -8.4247303 126.043
67.918503 -8.6055698 126.152
65.441002 -7.6363602 128.63901
66.282204 -7.2415199 129.353
64.951698 -6.9205799 128.849
68.242104 -8.1412201 126.247
67.632202 -8.2551003 128.776
67.448097 -7.70789 125.812
66.822601 -7.80334 125.78
66.461899 -9.3744097 127.788
66.524696 -9.4838104 127.442
64.675201 -7.1033902 128.17799
64.631599 -7.0971498 127.266
64.821701 -7.0074601 126.589
65.3302 -6.6861701 126.006
66.376198 -7.0545201 125.743
67.013603 -6.8719802 125.731
67.617798 -6.8053098 126.001
65.2248 -7.90031 128.028
65.230301 -8.0245199 127.214
65.533302 -8.0878897 126.519
66.076302 -7.99545 125.981
67.997101 -7.66925 126.097
68.4104 -7.6717601 126.549
66.747803 -8.0252304 129.024
65.979301 -8.20753 128.554
67.260101 -8.8084898 128.7
67.077202 -8.8588495 128.658
66.930603 -8.5317202 128.765
67.310501 -8.5006504 128.80299
66.298103 -9.2052603 127.244
66.238998 -9.1345997 127.791
66.364197 -8.8633404 128.351
66.590202 -9.1758099 128.259
65.186798 -7.2792902 128.75101
64.950401 -7.5131798 128.09599
64.946503 -7.61239 127.237
65.190498 -7.6400199 126.55
65.684303 -7.41886 126
66.012703 -6.81704 129.479
65.456299 -8.1682301 127.968
65.657097 -7.9429102 128.532
66.515503 -7.6170201 129.207
67.128403 -7.6041799 129.34801
67.787804 -7.7856102 129.422
66.067299 -6.3110499 125.746
66.752502 -6.1286201 125.739
67.434898 -6.0437398 126.05
67.933502 -6.0968299 126.351
65.802902 -6.4025898 129.619
64.625999 -7.1114802 127.802
64.932198 -7.56598 127.709
65.205299 -7.9699898 127.664
65.468903 -8.2506304 127.603
65.747398 -8.5448599 127.562
66.2752 -9.19277 127.5
64.724098 -7.0686998 128.34
64.998901 -7.4629202 128.258
65.265503 -7.8464899 128.19299
65.497902 -8.1184797 128.12601
65.761597 -8.4043102 128.05701
66.252899 -9.0590601 127.941
64.651703 -7.1234899 128
64.936699 -7.5409799 127.916
65.207001 -7.9408002 127.844
65.454803 -8.2140102 127.787
65.730202 -8.5016804 127.731
66.258598 -9.1739101 127.644
65.270302 -6.74509 129.21201
65.487602 -7.0503702 129.121
65.738602 -7.4219298 129.015
65.978996 -7.7670498 128.899
66.2145 -8.1052799 128.77299
66.580399 -8.7102699 128.569
65.146797 -6.8179798 129.093
65.3657 -7.1415701 128.989
65.622398 -7.4992199 128.884
65.854797 -7.8268399 128.77901
66.083702 -8.1704102 128.65199
66.467102 -8.7799997 128.476
65.429703 -6.65205 129.34599
65.634499 -6.9572601 129.256
65.866402 -7.35286 129.14
66.115898 -7.70892 129.013
66.355499 -8.0672102 128.875
66.7192 -8.6375303 128.657
66.493698 -9.4438801 127.599
66.473297 -9.4089403 127.686
66.4888 -9.3323698 127.911
66.679298 -9.1187696 128.37
66.790604 -9.05445 128.46201
66.937798 -8.9411602 128.578
65.057404 -6.8640199 129.002
65.2855 -7.2016501 128.89301
65.536697 -7.5591798 128.782
65.7547 -7.8745899 128.67599
64.830704 -6.99756 128.612
65.092201 -7.3653202 128.52901
65.355598 -7.7319798 128.442
65.592903 -8.00945 128.38699
65.8321 -8.2808504 128.325
66.295403 -8.9481897 128.161
66.539299 -9.2474604 128.119
67.792702 -8.0487804 129.01199
67.987701 -8.0656404 129.039
67.5467 -7.81216 129.31799
67.827202 -7.88379 129.339
66.934097 -7.7856202 129.19099
67.237701 -7.7782698 129.255
67.6492 -7.9555202 129.194
67.3601 -7.4928498 129.49001
67.465897 -7.6551199 129.412
67.762497 -6.41118 126.176
67.983704 -6.4032698 126.334
67.563904 -8.0860205 128.946
67.648804 -8.0590296 128.968
68.065697 -8.18013 128.57401
67.944199 -8.1167202 128.795
67.7239 -7.6281099 129.526
67.207397 -7.32307 129.57401
66.699097 -7.41675 129.36099
67.0196 -7.43119 129.43201
66.477997 -9.2203197 126.868
67.414299 -8.2060299 128.94099
67.497803 -8.1375504 128.94299
67.085503 -8.2547302 128.944
67.285698 -8.2378302 128.96001
67.609703 -8.5195999 128.688
67.482498 -8.3809204 128.79601
67.8368 -8.3297195 128.601
67.757103 -8.4034004 128.644
67.396896 -8.7817497 128.69901
67.475098 -8.6574602 128.70599
67.261902 -8.9597502 128.64799
67.336502 -8.8853998 128.67799
67.1381 -8.6786699 128.73199
67.268997 -8.6929703 128.737
67.009598 -8.7089596 128.702
67.177597 -8.8240995 128.688
67.116997 -8.4994097 128.80701
67.8937 -8.2381802 128.59399
67.728996 -8.18048 128.77499
66.976097 -9.1853905 128.44501
66.713402 -9.3016195 128.218
66.7705 -9.2701998 128.286
66.650002 -9.4288702 127.973
66.603302 -9.4548798 127.851
66.572403 -9.4755297 127.762
66.612999 -9.5572004 127.55
66.557899 -9.4978104 127.281
66.600304 -9.5585098 127.428
66.4646 -9.4146004 127.361
66.514999 -9.3782997 127.098
66.125 -8.8928404 127.014
66.290703 -9.0368404 126.937
66.599403 -8.9274797 126.423
66.497597 -9.0717297 126.638
65.830704 -8.5190697 126.896
65.983498 -8.6866503 126.935
66.081497 -8.9487305 127.207
66.463898 -8.7279396 126.393
66.480103 -8.7803297 126.417
68.261597 -8.3596897 128.063
67.027702 -7.9858699 129.092
66.8526 -8.2829304 128.896
67.176201 -9.0003595 128.616
68.165298 -8.1552896 128.54401
67.9618 -8.2059898 128.593
67.857498 -8.2775002 128.592
68.334 -8.28304 128.03101
68.405098 -8.2356501 128.01601
68.534897 -8.35783 127.36
68.573196 -8.3051701 127.323
68.457397 -8.2529697 126.577
68.569 -8.2711496 126.905
68.124901 -8.4502001 126.251
68.461899 -8.3845997 126.7
68.316597 -8.3990402 126.452
68.1362 -8.5771503 126.331
68.130402 -8.5341396 126.31
67.7174 -8.5966501 126.02
67.923103 -8.5186596 126.107
68.088203 -8.2695799 126.117
68.114403 -8.35215 126.178
67.705597 -8.7041197 126.053
66.817497 -7.5974102 129.278
66.662201 -7.86549 129.099
68.3414 -7.9740601 126.416
68.518303 -7.9910302 126.677
67.904602 -7.9721899 125.997
68.142899 -7.95857 126.176
68.030602 -7.2470298 126.224
68.214699 -7.66992 126.315
68.423103 -8.1630802 126.508
68.024597 -8.1583796 126.06
67.342598 -8.04002 125.826
67.633499 -8.0053797 125.881
67.527199 -7.27245 125.862
67.737198 -7.6834602 125.922
66.637199 -8.1596899 125.882
65.947098 -8.2553301 126.248
66.260902 -8.22334 126.018
66.231697 -7.5820298 125.832
66.446198 -7.8972101 125.84
67.016701 -8.0897503 125.825
66.943199 -8.5577202 125.999
66.802696 -8.3773499 125.94
65.520203 -8.2291002 126.861
65.699402 -8.2552605 126.539
65.589302 -7.83499 126.224
65.772003 -8.06182 126.218
66.269699 -8.5674696 126.353
66.115501 -8.4213104 126.3
65.413696 -8.2316799 127.201
65.209099 -7.8740902 126.867
65.365303 -8.0673199 126.857
65.676201 -8.3736897 126.878
68.246201 -7.2375798 126.435
67.803703 -7.2544298 126.026
67.857002 -6.7942901 126.173
66.9188 -7.3586502 125.726
67.223396 -7.3045201 125.757
67.199997 -6.4379301 125.846
67.3283 -6.82798 125.841
66.594398 -7.4453001 125.753
66.541496 -6.5584402 125.699
66.7015 -6.9417701 125.702
67.148598 -7.7445202 125.769
65.881104 -7.7283502 125.983
65.8451 -6.8587699 125.841
66.0224 -7.2291398 125.837
65.365402 -7.8854699 126.528
65.214798 -7.23385 126.263
65.403603 -7.5604 126.246
65.073799 -7.80864 127.227
64.895103 -7.40097 126.902
65.050697 -7.6453099 126.886
67.508003 -6.4125099 126.012
67.709198 -6.0581899 126.211
66.866402 -6.48698 125.727
67.107101 -6.0724502 125.87
66.206902 -6.6746202 125.744
66.4133 -6.2000599 125.707
65.497597 -7.0636401 126.008
65.692001 -6.4853902 125.838
65.034103 -6.8702102 126.27
64.703697 -7.0697899 126.922
66.596603 -9.5269403 127.637
66.511299 -9.4705496 127.529
68.507797 -8.4600096 127.414
67.603104 -8.4225397 125.928
67.683998 -8.5318899 125.974
67.7127 -8.6606398 126.041
68.507698 -8.4129801 127.393
68.410599 -8.4201002 127.747
68.468102 -8.4959698 126.771
68.539398 -8.4897499 127.062
67.092598 -8.7394304 126.068
66.745903 -8.7371397 126.196
66.4039 -8.67624 126.379
67.043999 -8.6833096 126.045
67.447998 -8.73071 126.007
67.495399 -8.2606201 125.88
68.293198 -8.2431698 126.312
67.8517 -8.33113 125.991
68.283203 -8.32899 128.048
68.465401 -8.3109903 126.638
67.920898 -8.6530104 126.171
67.309898 -8.50947 125.928
66.573502 -8.5724897 126.141
66.026299 -8.5486002 126.612
65.6455 -8.4698601 127.193
68.185501 -8.2353201 128.328
68.455902 -8.3229704 127.723
68.540703 -8.3803997 127.002
68.459099 -8.4521503 126.748
64.844002 -7.4480801 127.245
65.006104 -7.34378 126.573
66.515602 -7.2365599 129.42799
66.431 -7.4830098 129.26401
68.326103 -8.5126801 126.531
66.396301 -9.3432703 127.539
66.348198 -9.2625303 127.792
66.368301 -9.2026596 127.937
66.4105 -9.1057796 128.138
66.365402 -9.30021 127.665
66.572403 -8.9526396 128.43201
66.687302 -8.8785896 128.53101
66.473602 -9.0279398 128.30499
66.820602 -8.79107 128.62
66.680702 -9.3706903 128.11
66.578003 -9.4979496 127.7
67.076897 -9.07899 128.545
66.859703 -9.2453699 128.35699
66.033401 -8.90028 127.514
66.018997 -8.7320404 127.992
65.991798 -8.7922096 127.841
66.069298 -8.6110601 128.24001
66.007797 -8.8541403 127.681
66.399002 -8.4184198 128.67
66.279999 -8.4855499 128.562
66.177902 -8.5436497 128.452
66.537102 -8.3626003 128.765
66.351997 -8.9013395 126.645
68.087097 -8.2948704 128.36501
67.454102 -8.7936497 126.018
67.944 -8.7480202 126.157
69.214104 -9.2886896 126.687
68.880699 -8.92167 126.881
69.062698 -9.1045504 127.311
69.414398 -9.4000101 127.114
68.692398 -9.1675596 127.79
69.018303 -9.4013004 127.563
68.7761 -8.8339396 127.511
67.375999 -9.0480099 126.097
66.790199 -8.8370705 126.222
67.730301 -9.1893101 126.091
68.430801 -8.5095901 127.795
67.912003 -8.5257597 128.51801
68.612396 -8.5834503 127.088
67.841599 -9.1614599 128.40601
67.617203 -8.8044796 128.62
67.4338 -8.9977303 128.632
67.575302 -9.19489 128.511
66.726196 -9.5999002 127.71
66.698402 -9.6440496 127.395
67.2509 -9.1774101 128.539
67.476799 -9.4219904 128.37801
68.073402 -9.3072796 128.19099
67.802002 -9.5907202 128.15601
68.255501 -8.88344 128.18401
68.468102 -9.5440502 127.863
69.377899 -9.6410503 127.36
67.613602 -9.7905798 126.302
67.235497 -9.4586201 126.303
67.121696 -9.6894903 126.647
66.695 -9.2726202 126.612
66.661003 -9.51544 127.04
67.653099 -10.1637 126.667
67.0215 -9.8141699 127.055
66.877098 -9.7694197 127.374
67.010597 -9.8061895 127.615
66.911201 -9.4859695 128.15401
67.228897 -9.7245102 128.011
68.5868 -10.7907 126.78
68.2304 -10.5349 126.899
68.048798 -10.4229 126.5
68.421402 -10.6793 126.346
67.9786 -10.0901 126.17
68.357903 -10.4282 126.008
68.082703 -9.5579596 125.971
68.457497 -9.98279 125.785
68.316803 -9.1429701 126.058
68.694901 -9.6013498 125.89
68.636703 -8.9074001 126.403
68.963203 -9.3259001 126.228
67.832703 -10.3 127.08
68.459 -10.393 127.312
68.046402 -10.182 127.521
68.632301 -10.108 127.547
68.235802 -9.8851404 127.798
68.824203 -9.7681503 127.626
68.372398 -8.5789003 126.523
67.345703 -10.0136 127.384
69.7061 -10.2918 127.221
69.483704 -10.6228 127.207
69.938499 -9.9772501 127.147
69.201599 -9.9973402 127.398
69.014702 -10.3365 127.347
70.031998 -9.7917805 126.831
70.055901 -9.90306 126.276
69.872002 -9.76474 126.374
68.972397 -10.5431 125.508
68.821503 -10.9129 125.771
69.132797 -10.7194 125.436
68.876297 -11.1144 126.163
69.034798 -11.161 126.652
69.571701 -9.8811398 125.95
69.724197 -10.0285 125.873
69.290398 -10.1453 125.6
69.438698 -10.2891 125.533
67.595497 -9.9396095 127.792
68.813202 -10.6298 127.181
69.260902 -10.9603 127.044
67.3685 -9.97297 126.756
67.382103 -9.80124 126.468
67.370499 -9.9043903 126.642
67.462898 -10.1035 127.037
67.383202 -10.0277 126.861
66.854797 -9.5817099 126.831
67.068497 -9.7576599 126.831
66.670502 -9.4103403 126.828
66.943497 -9.3361998 126.433
66.902397 -9.4818201 126.626
66.789803 -9.6969004 127.222
66.813004 -9.6491404 127.035
67.915001 -8.8343 128.453
67.764503 -8.6670799 128.58099
68.027496 -8.9941301 128.339
68.179001 -8.5271702 128.23199
68.077003 -8.6798096 128.356
67.610603 -9.0457802 128.562
67.743599 -8.9657803 128.521
67.512299 -8.9098902 128.638
67.666199 -9.3430099 128.39101
67.448303 -9.1976404 128.54401
67.541603 -9.2858896 128.47301
67.5168 -9.6910295 128.108
67.6129 -9.5121098 128.27499
67.795097 -9.3715 128.31599
67.669701 -9.1896696 128.478
67.223099 -9.4812002 128.29401
67.0952 -9.3506403 128.369
66.957497 -9.6757002 127.871
67.072502 -9.6105804 128.08701
67.361801 -9.5906897 128.213
67.363098 -9.3195 128.45799
66.801201 -9.5546703 127.926
66.824203 -9.7223797 127.524
66.875099 -9.7054701 127.677
67.282898 -9.8917904 127.706
67.112297 -9.7872801 127.802
66.716904 -9.6388102 127.543
66.794998 -9.7209702 127.384
67.035301 -9.8596001 127.367
66.927803 -9.8001003 127.475
66.672203 -9.5985298 127.229
66.9123 -9.7839499 127.263
67.174797 -9.6032696 126.464
67.494003 -9.3828096 126.188
67.419403 -9.6296997 126.315
67.818199 -10.1505 126.402
67.624702 -10.0001 126.46
66.730499 -9.0892496 126.419
67.064697 -9.0473204 126.187
67.138901 -8.8356705 126.098
67.116302 -8.9372997 126.132
67.303497 -9.2323999 126.177
66.991501 -9.2287598 126.317
67.591103 -9.0084801 126.05
67.5522 -9.1231003 126.092
67.832001 -9.6595402 126.122
67.653198 -9.5086603 126.18
68.851402 -8.8443699 127.2
68.625504 -8.7110701 126.716
68.741402 -8.7515402 126.966
68.622101 -8.6150398 127.462
