# .PCD v.7 - Point Cloud Data file format
VERSION .7
FIELDS x y z
SIZE 4 4 4
TYPE F F F
COUNT 1 1 1
WIDTH 1712
HEIGHT 1
VIEWPOINT 0 0 0 1 0 0 0
POINTS 1712
DATA ascii
-20.4231 -14.7728 107.738
-21.086399 -14.8298 107.91
-22.4473 -14.882 108.353
-23.918501 -14.7779 108.866
-18.764601 -14.637 108.293
-22.319599 -13.5824 115.368
-22.888599 -13.2388 116.112
-22.326099 -13.3597 116.396
-21.7852 -13.6682 115.704
-21.313299 -13.542 116.176
-22.362101 -12.9847 117.238
-22.844999 -13.0342 117.073
-30.536699 -7.5030298 105.495
-30.7831 -7.2457299 104.296
-24.0256 -12.6894 117.309
-23.5401 -12.664 117.801
-23.104799 -12.5983 118.078
-24.778299 -13.8465 100.004
-24.942699 -13.8686 100.192
-24.552099 -14.0354 100.695
-24.220301 -13.9951 100.38
-25.1343 -13.8705 100.347
-24.9149 -14.0337 100.95
-25.348801 -13.8332 100.46
-25.302099 -13.9813 101.145
-25.5669 -13.781 100.526
-25.7017 -13.8741 101.246
-22.436899 -14.4529 102.632
-22.875601 -14.3676 102.054
-23.2607 -14.2693 101.556
-23.5947 -14.1695 101.102
-23.9041 -14.0682 100.685
-24.333 -14.1159 101.045
-24.086 -14.2163 101.493
-23.816601 -14.3265 101.983
-23.4986 -14.4289 102.528
-23.1215 -14.5191 103.139
-24.7845 -14.1143 101.344
-24.6112 -14.2119 101.827
-24.3999 -14.3085 102.339
-24.1521 -14.4107 102.913
-23.865499 -14.5172 103.567
-25.253 -14.0446 101.567
-25.1698 -14.1361 102.105
-25.0196 -14.249 102.644
-24.850599 -14.3589 103.255
-24.6838 -14.4821 103.959
-25.758499 -13.9165 101.709
-25.829901 -14.0047 102.351
-25.659901 -14.1525 102.891
-25.6103 -14.2538 103.531
-25.575399 -14.3599 104.322
-26.1227 -13.9991 102.999
-26.2939 -14.0373 103.74
-26.5895 -14.053 104.711
-25.787901 -13.7007 100.535
-26.0972 -13.7218 101.248
-26.2635 -13.7086 101.709
-26.4799 -13.7226 102.346
-26.7407 -13.7151 103.048
-27.097099 -13.656 103.926
-27.5205 -13.4965 105.015
-25.989201 -13.6113 100.471
-26.454901 -13.5322 101.161
-26.739799 -13.4424 101.628
-27.0474 -13.3717 102.302
-27.314501 -13.2733 103.071
-27.7822 -13.0854 104.07
-28.2964 -12.823 105.254
-26.1567 -13.5149 100.352
-26.742901 -13.3184 100.971
-27.1 -13.0992 101.373
-27.460501 -12.9343 102.062
-27.832199 -12.7551 102.941
-28.3647 -12.4116 104.004
-28.895201 -11.9882 105.38
-28.6245 -11.9185 103.645
-28.044901 -12.4676 102.741
-27.6458 -12.6823 101.752
-28.173201 -12.1817 102.261
-28.636101 -11.5575 102.769
-29.112801 -10.7983 103.357
-29.224199 -11.1383 104.879
-29.513399 -10.3871 104.993
-29.509701 -10.0302 103.9
-29.7006 -9.8424397 105.07
-30.1357 -8.5180502 104.806
-26.2731 -13.4134 100.191
-26.8944 -13.1479 100.693
-27.257299 -12.8644 100.948
-27.707399 -12.505 101.304
-28.200001 -11.9874 101.69
-28.612101 -11.3904 102.049
-28.927999 -10.7924 102.395
-29.2293 -10.1664 102.73
-30.083799 -8.5206003 103.626
-30.4491 -7.8737302 103.927
-26.332899 -13.3253 100.014
-26.9482 -12.994 100.392
-27.287901 -12.7244 100.583
-27.7104 -12.3567 100.814
-28.131001 -11.8838 101.086
-28.491199 -11.36 101.37
-28.8134 -10.7659 101.667
-29.067301 -10.2342 101.859
-30.0058 -8.5172501 102.449
-30.0179 -8.48419 101.498
-29.347601 -9.43925 101.244
-29.2194 -9.4573298 100.527
-26.2283 -13.1044 99.456001
-26.7675 -12.6474 99.4123
-26.931801 -12.7039 99.776199
-26.305201 -13.1675 99.622398
-26.9519 -12.855 100.095
-26.3368 -13.2392 99.819801
-27.2693 -12.6083 100.257
-27.219101 -12.5117 99.960098
-27.0128 -12.4333 99.465797
-27.142401 -12.4652 99.739197
-26.883101 -12.4281 99.257896
-25.2481 -13.19 98.810204
-24.833 -12.836 98.067902
-25.211201 -12.7545 98.149696
-25.4291 -13.1232 98.8256
-25.5578 -12.7162 98.316498
-25.6014 -13.0798 98.8778
-25.851601 -12.6951 98.5019
-25.769501 -13.0495 98.964401
-26.104 -12.6862 98.702698
-25.8986 -13.0447 99.067101
-26.324699 -12.6859 98.910103
-26.0263 -13.0451 99.175301
-26.532301 -12.6814 99.137703
-26.135 -13.0689 99.304298
-24.728701 -12.5722 97.659698
-25.132401 -12.5158 97.790703
-25.539499 -12.4796 97.993599
-25.8969 -12.4601 98.230202
-26.2017 -12.4529 98.482101
-26.459101 -12.4493 98.737198
-26.6854 -12.4415 98.996399
-23.415701 -13.1504 98.229797
-22.917999 -12.9541 97.906097
-23.3113 -12.7345 97.5681
-23.7565 -12.9425 97.934601
-23.728201 -12.5659 97.362099
-24.1017 -12.7769 97.737801
-24.148199 -12.4394 97.2855
-24.438299 -12.6447 97.6427
-24.562901 -12.3466 97.321098
-27.268999 -12.1483 99.473801
-27.4263 -12.1627 99.783501
-27.5499 -12.2004 100.093
-27.646 -12.2645 100.434
-22.418501 -12.7372 97.609901
-22.861401 -12.4935 97.2229
-23.354401 -12.3261 97.002296
-23.871201 -12.2111 96.938103
-27.712799 -11.8084 99.834801
-27.871799 -11.8143 100.204
-28.0163 -11.8391 100.616
-21.9072 -12.5039 97.344597
-22.4419 -12.2415 96.905098
-23.0182 -12.0706 96.674202
-23.5868 -11.965 96.609802
-28.202 -11.2945 100.307
-28.3773 -11.2791 100.812
-21.4251 -12.2704 97.115799
-22.0935 -11.9917 96.624496
-22.7384 -11.8221 96.385498
-28.474501 -10.7917 100.396
-28.650801 -10.7629 100.984
-28.718201 -10.3133 100.467
-28.8764 -10.3017 101.117
-21.0842 -12.5962 97.724297
-20.8484 -12.9504 98.428101
-21.5791 -12.806 97.886398
-21.3741 -13.1151 98.474297
-22.0865 -13.0131 98.072098
-21.937099 -13.2466 98.529701
-22.611 -13.1844 98.292801
-22.500299 -13.3374 98.594803
-23.1574 -13.3777 98.640297
-20.8146 -13.3515 99.268204
-20.9039 -13.7087 100.041
-21.108 -13.9903 100.769
-21.4188 -14.1955 101.424
-21.368799 -13.4472 99.186897
-21.478001 -13.7366 99.850502
-21.678301 -13.9714 100.471
-21.9716 -14.1605 101.033
-21.940901 -13.5146 99.1213
-22.066299 -13.7614 99.747597
-22.220501 -13.932 100.203
-22.4727 -14.0964 100.683
-22.503799 -13.5491 99.077698
-22.6278 -13.774 99.653198
-22.7376 -13.8923 99.9785
-22.940599 -14.0272 100.396
-23.0874 -13.5795 99.082001
-23.162399 -13.7675 99.582802
-23.2344 -13.8521 99.824898
-23.4807 -13.992 100.271
-23.649401 -13.7879 99.609901
-23.907101 -13.9057 100.018
-24.646601 -13.7998 99.7882
-24.6057 -13.7614 99.658798
-23.646099 -13.6334 99.186401
-24.5823 -13.6789 99.426804
-23.7108 -13.4725 98.834198
-24.632601 -13.5848 99.230698
-23.9179 -13.2868 98.516197
-24.749201 -13.4877 99.063797
-24.187099 -13.1147 98.272697
-24.910299 -13.3782 98.944298
-24.4846 -12.9614 98.108101
-25.088301 -13.2772 98.860001
-27.3062 -11.8437 99.127899
-27.051201 -11.8746 98.778297
-27.2626 -11.5231 98.660698
-27.5525 -11.4657 99.066704
-27.816401 -11.3733 99.466499
-27.5277 -11.8182 99.480103
-27.083599 -12.1534 99.179298
-26.862301 -12.1706 98.880402
-25.0369 -12.2774 97.4627
-25.520399 -12.2294 97.689003
-25.9412 -12.2014 97.9683
-26.3018 -12.188 98.270699
-26.6038 -12.1807 98.576797
-24.3883 -12.1181 96.996696
-24.9419 -12.0451 97.1604
-25.4988 -11.9904 97.416
-25.989201 -11.9522 97.731796
-26.407301 -11.9238 98.078201
-26.754601 -11.9006 98.428802
-24.1999 -11.8789 96.685303
-24.8386 -11.8086 96.869301
-25.4664 -11.7472 97.149696
-26.0277 -11.698 97.500603
-26.508101 -11.635 97.869102
-26.916599 -11.57 98.253502
-28.020901 -11.3288 99.871902
-23.322001 -11.7183 96.316498
-24.0193 -11.634 96.398804
-24.7376 -11.5625 96.597397
-25.447399 -11.4516 96.871101
-26.0811 -11.3891 97.254303
-26.5949 -11.307 97.645401
-27.078501 -11.1902 98.069
-27.481701 -11.1049 98.528397
-27.8158 -11.0037 98.985397
-28.063299 -10.9388 99.439903
-28.2952 -10.8389 99.894699
-21.978399 -5.2480798 122.777
-20.8246 -4.88411 122.588
-22.8104 0.087632999 119.277
-23.7302 -0.31769201 119.729
-22.410999 -0.52575397 119.928
-23.316099 -0.98258698 120.422
-22.0457 -1.23789 120.585
-22.9228 -1.65745 121.055
-21.667999 -2.02231 121.162
-22.5756 -2.37292 121.61
-21.149599 -2.84389 121.665
-22.3281 -3.1953101 122.068
-21.051001 -3.81164 122.204
-22.1063 -4.0908499 122.439
-20.5291 -2.4875901 121.25
-21.1604 -1.72894 120.835
-21.6374 -1.09421 120.362
-20.902901 -1.41784 120.516
-20.267599 -2.0506001 120.837
-20.2253 -1.60903 120.499
-19.6539 -1.8136899 120.51
-19.699301 -2.5834899 121.108
-19.9536 -3.1603601 121.564
-19.388201 -3.89644 121.966
-19.121401 -3.1324301 121.431
-19.091499 -2.3665299 120.881
-19.2439 -1.7911299 120.432
-19.615499 -0.87526703 119.653
-22.2841 0.30846301 118.975
-21.865101 -0.221926 119.535
-21.716999 -0.63669401 119.956
-21.8267 0.47279501 118.716
-21.3064 -0.12046 119.347
-21.0389 -0.775271 119.978
-21.446699 0.51429403 118.521
-20.8013 -0.079410002 119.145
-20.3941 -0.86232299 119.858
-21.1304 0.51702499 118.358
-20.529699 -0.022849999 118.907
-20.014799 -0.89372802 119.744
-19.942801 -4.3938398 122.345
-20.4951 -3.56198 121.951
-20.6042 0.55984998 118.193
-20.083 -0.011845 118.816
-21.228701 -14.7875 111.33
-15.7588 -14.0009 108.474
-16.943501 -14.3781 108.973
-18.2486 -14.5842 109.449
-17.623199 -14.6458 110.925
-16.6619 -14.4753 110.273
-17.7841 -14.6399 110.544
-19.124599 -14.7164 110.772
-18.694599 -14.7077 111.614
-18.280199 -14.7809 112.663
-17.2045 -14.7542 111.94
-16.207199 -14.6008 111.363
-15.951 -14.6581 111.91
-16.962 -14.7573 112.494
-18.0931 -14.728 113.166
-19.9965 -14.4131 113.997
-20.4053 -14.4515 113.027
-21.430401 -14.0115 114.21
-20.601 -14.6155 112.137
-20.7129 -14.7896 111.174
-15.3658 -14.4688 111.515
-15.6473 -14.4431 110.991
-16.1287 -14.355 110.058
-14.8469 -14.0679 110.339
-15.218 -14.0788 109.711
-17.927999 -14.575 113.631
-19.597401 -14.2602 114.697
-16.958401 -14.6532 113.019
-16.5952 -14.6584 112.801
-15.758 -14.5435 112.287
-15.1646 -14.4281 111.911
-24.738899 -13.7931 99.701103
-24.719101 -13.7117 99.453697
-24.7582 -13.6302 99.2855
-24.8612 -13.5444 99.131599
-25.003799 -13.4478 99.023804
-25.1597 -13.3563 98.946999
-25.317301 -13.2749 98.910301
-25.460501 -13.2126 98.914703
-25.614 -13.1677 98.953201
-25.762501 -13.1362 99.017998
-25.879499 -13.1333 99.103302
-25.997299 -13.1351 99.2015
-26.0952 -13.1566 99.312599
-26.1759 -13.1893 99.448898
-26.2421 -13.2505 99.603203
-26.2785 -13.3207 99.784599
-26.266399 -13.3907 99.952202
-26.211201 -13.4712 100.114
-26.0926 -13.5568 100.253
-25.936501 -13.6459 100.354
-25.7554 -13.7266 100.402
-24.8668 -13.8477 99.924599
-25.0163 -13.8638 100.099
-25.1812 -13.8709 100.237
-25.368 -13.8362 100.341
-25.5602 -13.7959 100.399
-25.470699 -13.7559 99.4245
-25.5306 -13.7213 99.380699
-25.443701 -13.7838 99.4935
-25.4545 -13.7997 99.576897
-25.501801 -13.8063 99.641197
-25.577299 -13.8022 99.6819
-25.655701 -13.7844 99.690903
-25.7255 -13.7594 99.665398
-25.7686 -13.7314 99.616402
-25.788401 -13.7048 99.556503
-25.7752 -13.6797 99.493698
-25.736401 -13.6685 99.435204
-25.6733 -13.6727 99.394501
-25.6008 -13.6894 99.373802
-24.956301 -13.8169 99.860397
-25.095699 -13.8344 100.027
-25.2208 -13.8399 100.132
-25.3953 -13.8148 100.23
-25.535299 -13.7849 100.275
-25.7071 -13.7237 100.283
-25.8764 -13.6552 100.244
-26.0236 -13.5736 100.169
-26.130199 -13.5009 100.05
-26.1894 -13.4306 99.904404
-26.2027 -13.3753 99.775803
-26.1738 -13.3104 99.610199
-26.113899 -13.2545 99.460701
-26.0378 -13.2173 99.329597
-25.958099 -13.2016 99.245102
-25.8419 -13.1971 99.151604
-25.747101 -13.1983 99.086899
-25.6087 -13.2319 99.022697
-25.4779 -13.2693 98.989197
-25.362101 -13.3231 98.989899
-25.221201 -13.3972 99.028503
-25.071501 -13.4863 99.102501
-24.949699 -13.5636 99.201897
-24.856199 -13.6424 99.348396
-24.8346 -13.7079 99.482803
-24.8703 -13.7756 99.6959
-25.4126 -13.8017 99.754204
-25.456499 -13.8029 99.695999
-25.5604 -13.7969 99.754204
-25.5536 -13.7842 99.832703
-25.670401 -13.7688 99.764801
-25.6938 -13.7472 99.843803
-25.7635 -13.7286 99.728897
-25.810801 -13.6884 99.798103
-25.825701 -13.6866 99.661797
-25.878599 -13.6341 99.704399
-25.8417 -13.6428 99.576202
-25.8983 -13.5784 99.600601
-25.8241 -13.6072 99.494598
-25.870199 -13.5368 99.496597
-25.769899 -13.591 99.419502
-25.8025 -13.5116 99.4048
-25.686899 -13.595 99.361397
-25.6992 -13.514 99.329002
-25.591499 -13.6189 99.329498
-25.575199 -13.5428 99.285103
-25.4918 -13.6696 99.335503
-25.4506 -13.6053 99.295799
-25.410801 -13.7186 99.392197
-25.343901 -13.6798 99.357697
-25.371401 -13.7653 99.490997
-25.296801 -13.7442 99.484497
-25.388599 -13.7922 99.603897
-25.3216 -13.7837 99.630096
-25.837799 -13.4249 99.384003
-25.9238 -13.4601 99.487602
-25.7171 -13.419 99.287804
-25.554399 -13.4513 99.218498
-25.396601 -13.5335 99.241302
-25.2526 -13.6262 99.3162
-25.2031 -13.7159 99.4767
-25.238199 -13.7758 99.667
-25.358999 -13.7955 99.831001
-25.545799 -13.7756 99.950203
-25.728399 -13.712 99.949402
-25.882601 -13.6361 99.887802
-25.9533 -13.5667 99.7565
-25.9568 -13.5037 99.616501
-25.4762 -13.7885 100.093
-25.9163 -13.3131 99.333702
-25.254801 -13.8126 99.952301
-25.0707 -13.778 99.725601
-25.6336 -13.7428 100.109
-25.7931 -13.6839 100.088
-25.934401 -13.6107 100.031
-26.011801 -13.5564 99.950104
-26.0776 -13.48 99.799301
-26.0581 -13.4118 99.621101
-26.005899 -13.3642 99.472801
-25.763 -13.3069 99.204102
-25.5993 -13.3446 99.135101
-25.4713 -13.3812 99.101799
-25.318001 -13.4596 99.143799
-25.1842 -13.5467 99.210297
-25.0998 -13.6072 99.291397
-25.0194 -13.6952 99.464996
-20.902399 0.53007698 118.239
-29.591999 3.0181201 109.878
-30.5385 1.93255 110.737
-27.314699 5.0062499 108.34
-28.5473 4.1205802 109.085
-31.124201 1.00559 111.481
-26.069401 3.7855301 111.39
-25.4188 3.93399 111.424
-26.901501 3.4888101 111.511
-27.5494 3.17224 111.842
-28.426701 2.5957 112.494
-29.224501 2.03332 113.133
-30.780701 -1.1217099 115.911
-30.4422 -0.014373 114.994
-30.043699 1.04994 114.107
-28.1917 1.5521801 115.491
-29.5944 -1.06331 117.902
-29.0116 -0.067427002 117.188
-28.562799 0.87299103 116.272
-30.035299 -6.5866199 109.54
-30.5107 -5.58038 109.547
-30.228901 -5.3154302 111.177
-29.735001 -6.2878799 111.313
-28.226 -0.79650098 118.669
-28.748899 -0.57436502 118.186
-28.0096 -0.86418498 118.866
-29.2446 -0.45123601 117.604
-29.966999 -0.459288 116.556
-29.5156 0.54671597 115.753
-28.7623 0.382222 116.714
-30.6252 -0.53279501 115.412
-30.285101 0.470514 114.541
-31.2171 -0.88220698 114.39
-31.666401 -1.39246 113.48
-31.6336 -0.42351201 112.51
-30.8939 0.16818599 113.563
-31.883699 -2.0604401 112.74
-32.1021 -1.25423 111.704
-31.650999 -2.9807401 111.96
-32.002998 -2.3894999 110.777
-31.0252 -3.7860501 111.422
-31.611799 -3.31457 110.176
-30.6054 -4.5417199 111.263
-30.988001 -4.65519 109.674
-26.8505 1.55668 116.242
-26.190701 2.23895 115.397
-25.2498 2.9403701 114.426
-25.828899 2.56408 114.945
-27.374599 0.81564403 117.014
-28.5103 -0.670452 118.406
-28.1551 -0.30406299 118.167
-27.8403 0.170834 117.656
-28.245001 0.237598 117.371
-25.2731 -0.45847699 119.587
-24.111 0.20248599 119.135
-23.321501 0.62539798 118.64
-26.3272 -1.21245 119.982
-27.813101 -2.11638 120.315
-26.821699 -1.56099 120.13
-25.8671 -0.24954 119.162
-26.389099 0.060958002 118.551
-26.7859 0.35006899 117.943
-26.140499 3.99897 110.798
-25.9027 -6.3046498 123.042
-26.8342 -6.6493301 123.181
-28.1775 -6.9858398 123.447
-34.107101 -7.92169 121.522
-33.210098 -7.6789999 122.216
-31.952101 -7.3372698 122.876
-30.2651 -6.8649201 123.352
-29.410299 -4.6168299 122.595
-31.3859 -4.8993402 122.115
-31.6737 -3.50718 120.09
-32.611698 -3.67293 119.117
-33.474201 -3.9054999 118.097
-30.2843 -2.9667599 120.033
-31.572001 -3.28526 119.195
-32.320801 -3.57077 118.465
-26.2428 -11.3197 121.896
-27.362101 -11.4012 122.037
-28.723499 -11.7203 121.709
-29.9389 -12.0237 121.044
-31.0126 -12.2605 120.182
-25.683701 -11.4395 121.76
-25.8218 -12.2383 120.481
-26.8536 -12.4081 120.829
-28.209101 -12.6672 120.734
-29.393299 -12.8379 120.259
-30.501301 -13.0276 119.514
-25.2868 -12.2641 120.108
-26.934099 -12.7101 120.046
-28.2108 -12.9676 119.96
-29.3323 -13.0982 119.57
-30.3687 -13.2196 118.93
-30.316999 -13.34 118.758
-29.297501 -13.1929 119.351
-28.2148 -13.0682 119.696
-26.9828 -12.8314 119.712
-25.9044 -12.5993 119.353
-24.8999 -12.5223 118.601
-25.354401 -12.5583 118.957
-22.926701 -12.5616 118.194
-22.0226 -12.9248 117.355
-21.491301 -13.149 116.886
-19.306999 -14.1414 115.037
-17.619301 -14.4768 113.881
-16.689699 -14.5232 113.296
-16.194201 -14.5131 112.996
-15.4714 -14.4324 112.47
-14.8074 -14.313 112.086
-21.0331 -13.4398 116.41
-20.9534 -14.0473 114.843
-20.4993 -13.9704 115.386
-20.1745 -13.8627 115.692
-29.139601 -8.9654703 109.67
-28.9429 -9.7977104 109.642
-29.389 -8.16008 109.633
-28.762899 -10.6814 109.531
-28.518 -11.6288 109.324
-28.110001 -12.5627 109.034
-29.6796 -7.4184299 109.553
-19.705799 -14.7764 110.894
-19.6134 -14.6779 111.757
-19.5319 -14.6347 112.284
-19.1443 -14.6425 113.273
-18.714001 -14.4701 114.117
-18.4445 -14.3703 114.387
-24.0735 -14.8108 107.128
-25.6359 -14.4555 107.641
-26.8542 -13.792 108.393
-26.383499 -13.7862 110.152
-27.5315 -12.9637 110.594
-29.1752 -7.5026498 111.571
-28.9174 -8.2465801 111.673
-28.704 -9.1298304 111.635
-28.5495 -10.0615 111.459
-28.389999 -11.0466 111.174
-28.1026 -12.0333 110.922
-28.4897 -8.7373896 113.75
-28.4328 -9.1363201 113.85
-28.4196 -9.5941896 113.804
-28.444099 -10.1658 113.581
-28.656799 -9.49506 114.024
-28.6731 -9.9378595 114.045
-28.6891 -10.4577 113.993
-28.7458 -10.9386 113.928
-28.794001 -11.518 114.006
-28.5961 -9.0148296 113.884
-29.030899 -12.4702 114.971
-29.309799 -12.4348 114.897
-29.5637 -12.3292 114.604
-26.004101 -13.0294 116.195
-26.463499 -12.9964 116.541
-27.239599 -13.12 116.89
-28.0763 -13.2705 117.013
-28.793699 -13.3551 116.878
-29.457701 -13.4412 116.596
-30.1348 -13.4785 116.19
-26.250999 -12.9978 115.531
-26.961201 -12.9317 115.79
-27.8265 -12.9941 116.01
-28.589399 -13.0235 116.003
-29.158501 -12.9848 115.786
-29.6444 -12.9613 115.427
-30.075701 -12.8769 115.001
-29.391399 -7.0020399 111.463
-27.342699 -13.4228 108.635
-31.237499 -4.1718001 109.815
-31.580099 -4.0644102 108.922
-32.1222 -3.8457301 107.69
-32.5481 -3.6384599 105.986
-32.0014 -5.1854601 102.319
-31.4181 -6.3522501 101.973
-32.573101 -4.0646501 102.663
-30.9077 -7.20785 101.756
-33.0867 -3.1731501 103.219
-30.8465 -7.2322001 102.945
-30.3906 -7.9328499 102.656
-30.437901 -7.8994398 101.656
-31.9583 -5.1271 103.656
-31.380301 -6.3001699 103.214
-32.419899 -4.21591 103.994
-33.6576 -0.89295799 105.193
-33.4758 -2.28475 104.408
-32.911301 -3.3937299 104.25
-22.650801 -14.8739 106.6
-14.4421 -14.0473 111.733
-14.543 -14.0157 110.948
-14.4296 -14.0047 111.376
-21.846399 -13.2936 116.632
-14.7949 -14.1757 111.561
-14.9347 -14.202 111.178
-15.1967 -14.2065 110.562
-24.420799 -12.6583 117.357
-24.8001 -12.6652 117.516
-25.9522 -12.8626 118.352
-25.5 -12.8065 118.014
-30.228001 -13.5504 117.913
-29.2983 -13.4969 118.444
-28.212299 -13.324 118.783
-27.237101 -13.148 118.818
-26.355301 -12.9285 118.562
-25.125099 -12.729 117.742
-28.9228 -9.9175501 100.506
-29.3748 -9.5960503 102.061
-29.1245 -9.8089504 101.196
-29.552999 -9.5120697 103.081
-29.804501 -9.3273001 104.319
-29.9086 -9.1929703 105.117
-29.9855 -8.9531403 106.323
-24.3489 -14.6806 105.371
-25.721001 -14.4607 106.025
-23.2967 -14.7084 104.887
-22.3641 -14.6663 104.406
-21.5928 -14.5456 103.821
-20.8915 -14.3807 103.067
-20.349501 -14.2242 102.242
-19.992701 -13.9598 101.353
-29.621799 -9.2258797 107.422
-29.3913 -9.9920998 107.489
-29.1588 -10.7243 107.553
-28.9063 -11.4586 107.532
-28.542601 -12.2728 107.381
-27.9524 -13.0966 107.09
-27.108801 -13.8806 106.683
-30.2784 -7.0577002 107.819
-30.0114 -7.9280701 107.546
-29.8431 -8.48524 107.455
-29.570801 -8.9956598 100.56
-29.6658 -8.9674501 101.367
-24.118299 -14.7835 106.628
-20.866199 -14.5883 104.839
-21.781 -14.7173 105.487
-20.0527 -14.4192 104.019
-19.386499 -14.1377 103.046
-18.9074 -13.8036 102.005
-22.846701 -14.8224 106.023
-29.697901 -9.0102396 102.293
-29.8433 -8.9358397 103.377
-23.1824 -14.1143 100.718
-22.802799 -14.2034 101.116
-22.360399 -14.2721 101.554
-21.8566 -14.3382 102.045
-19.852301 -14.3854 114.289
-20.732599 -14.0667 115.06
-18.916599 -14.6014 113.705
-23.316 -12.643 117.967
-23.997499 -12.4095 118.716
-22.596701 -13.0353 117.164
-22.090799 -13.3426 116.521
-24.632601 -12.3545 119.455
-21.590099 -13.6384 115.916
-21.183901 -14.002 114.582
-20.166901 -14.3992 113.59
-16.378201 -14.5488 110.862
-15.8042 -14.3913 110.619
-19.3207 -14.6158 112.813
-18.487301 -14.7313 112.167
-17.4051 -14.6984 111.425
-23.766701 -12.6625 117.567
-23.1381 -12.9859 116.935
-24.269699 -12.4989 118.045
-22.5877 -13.3083 116.264
-22.0371 -13.6216 115.542
-24.4797 -12.4785 118.22
-30.1357 -4.9617901 112.681
-29.9664 -5.4488502 112.959
-29.8526 -5.8678999 112.959
-29.835899 -6.1118598 112.913
-29.885599 -6.2362599 112.843
-29.9498 -6.39711 112.704
-30.006201 -6.5448399 112.533
-34.496201 -11.8176 117.878
-35.057598 -11.833 117.075
-33.1562 -13.1468 117.449
-33.743 -13.166 116.77
-32.6348 -13.5277 116.94
-33.056999 -13.6145 116.329
-32.301601 -13.6912 116.348
-32.673302 -13.763 115.793
-31.865601 -13.6611 115.396
-32.185101 -13.7033 114.959
-31.3134 -13.2451 114.394
-31.5742 -13.3269 114.087
-30.667101 -12.6469 113.729
-30.987499 -12.8093 113.431
-30.3106 -12.0977 113.439
-30.728701 -12.4248 113.107
-30.299299 -12.4806 114.074
-30.789 -13.2455 114.946
-31.167601 -13.5672 115.947
-31.282301 -13.6139 116.266
-31.577999 -13.5926 117.252
-31.823 -13.3734 117.9
-32.1595 -13.0402 118.485
-33.507 -11.749 119.022
-34.4972 -10.6352 119.288
-29.5914 -9.0876703 111.848
-29.636 -9.5722799 112.01
-30.003799 -9.55439 111.026
-30.045401 -10.058 111.223
-30.055901 -9.0771103 110.836
-30.7027 -9.5151701 109.798
-30.528299 -10.0599 110.036
-32.000301 -10.0363 107.76
-31.7733 -10.6578 107.972
-35.919601 -13.5707 113.508
-36.363998 -13.7553 112.694
-37.245899 -12.7915 112.61
-36.868198 -12.471 113.518
-35.318298 -14.3958 112.676
-34.466301 -14.6677 112.558
-33.529598 -14.527 112.199
-32.561298 -13.9098 111.748
-30.483101 -12.564 113.905
-30.1448 -11.6097 113.151
-31.0427 -13.2456 114.692
-31.8442 -13.4406 113.774
-31.330601 -13.0192 113.19
-32.521099 -13.7639 114.483
-32.821999 -13.8553 113.962
-34.072899 -14.3857 113.28
-33.7691 -14.1472 113.923
-33.044498 -14.0257 113.457
-33.285198 -14.2364 112.864
-31.6075 -13.1634 112.933
-32.2976 -13.6693 113.013
-32.110199 -13.5603 113.45
-33.432301 -14.018 114.571
-33.088699 -13.883 115.194
-30.245899 -8.4961395 110.561
-29.8262 -7.9809799 111.402
-29.562901 -8.5646801 111.657
-30.118999 -10.5772 111.518
-29.7353 -10.1143 112.238
-32.2089 -13.5412 110.746
-31.7106 -13.0194 111.596
-31.347401 -12.4535 110.834
-31.9016 -13.0507 109.883
-31.165001 -11.9971 110.183
-31.7071 -12.5278 109.182
-31.075399 -11.5179 109.683
-31.563499 -11.9623 108.673
-31.533501 -11.3308 108.257
-30.629 -11.4576 111.134
-30.7672 -11.811 111.634
-30.908701 -12.164 112.161
-30.513 -10.5373 110.323
-30.5504 -11.0503 110.713
-31.167 -12.7821 112.93
-30.570999 -12.0239 112.795
-31.0319 -12.4862 112.582
-30.4547 -11.6429 112.485
-30.326401 -11.2799 112.151
-30.204599 -10.9453 111.805
-31.547701 -13.6354 115.782
-29.806999 -10.4143 112.427
-29.9224 -10.7605 112.685
-32.4767 -13.7959 112.446
-31.6427 -13.0743 112.379
-30.029499 -11.1426 112.906
-35.5793 -11.8827 116.274
-36.0186 -12.0286 115.459
-34.3307 -13.2167 115.995
-34.848499 -13.3188 115.258
-33.506199 -13.7451 115.643
-33.890099 -13.9108 114.945
-34.866699 -14.1728 113.428
-32.1609 -9.5288401 107.565
-36.450298 -12.2131 114.569
-35.377399 -13.4609 114.495
-34.375198 -14.0349 114.224
-30.8722 -8.9426899 109.528
-31.9667 -13.6461 116.797
-34.025501 -11.7875 118.45
-32.648102 -13.1241 117.948
-32.249901 -13.4445 117.406
-32.692299 -12.528 118.756
-33.243999 -12.5657 118.211
-33.728001 -12.5919 117.701
-34.368198 -12.5763 116.926
-34.936298 -12.6385 116.147
-35.4231 -12.7679 115.385
-35.929401 -12.9279 114.558
-36.436298 -13.0779 113.523
-36.849998 -13.3042 112.678
-31.9667 -13.2659 118.163
-32.41 -13.3479 117.687
-32.819901 -13.4187 117.211
-33.277802 -13.5092 116.575
-33.799198 -13.6027 115.866
-34.325401 -13.6925 115.106
-34.8368 -13.815 114.378
-35.3657 -13.9364 113.47
-35.8242 -14.127 112.703
-31.684099 -13.4706 117.599
-32.115101 -13.5431 117.115
-32.462601 -13.5968 116.672
-32.881199 -13.6873 116.061
-33.298901 -13.8141 115.436
-33.658199 -13.967 114.779
-34.0284 -14.1329 114.103
-34.466301 -14.3025 113.371
-34.917301 -14.537 112.624
-33.100601 -14.3045 111.982
-32.8778 -14.0447 112.644
-32.659199 -13.868 113.224
-32.452301 -13.7322 113.709
-32.202499 -13.6033 114.092
-31.8967 -13.5332 114.501
-31.5963 -13.4898 114.883
-31.3158 -13.4659 115.188
-30.9921 -13.4594 115.459
-32.2397 -13.6113 112.371
-31.9834 -13.4536 112.88
-31.8267 -13.377 113.203
-31.5583 -13.2509 113.477
-31.264299 -13.1124 113.759
-30.9807 -13.0089 114.06
-30.7672 -12.9591 114.298
-30.587 -12.9233 114.489
-31.5058 -9.2561102 108.507
-31.356501 -9.7915802 108.726
-31.1479 -10.4008 108.964
-31.027901 -10.9715 109.239
-33.959702 -14.669 112.42
-33.684502 -14.3645 113.09
-33.424999 -14.1301 113.696
-33.139099 -13.9855 114.268
-32.808201 -13.8659 114.848
-32.434399 -13.7802 115.374
-32.097099 -13.7328 115.871
-31.774401 -13.6796 116.31
-31.423901 -13.676 116.757
-32.377602 -8.9726801 107.389
-31.7311 -8.6277304 108.3
-31.1308 -8.2465496 109.274
-30.6082 -7.7996402 110.306
-30.285101 -7.3351402 111.171
-32.248001 -11.6498 107.101
-32.5075 -10.9425 106.879
-32.7794 -10.371 106.726
-32.980701 -9.91681 106.563
-33.200001 -9.3976297 106.391
-32.262299 -13.0602 108.031
-32.118698 -12.4196 107.504
-37.523602 -12.9762 112.025
-32.459301 -13.6497 108.737
-32.736 -14.1663 109.624
-33.082199 -14.5235 110.528
-33.837101 -15.0012 111.22
-33.384399 -14.7482 110.889
-35.7668 -14.6058 111.997
-35.374199 -14.7836 111.901
-37.190498 -13.4803 112.072
-36.7383 -13.9228 112.088
-36.238701 -14.3223 112.079
-34.917 -14.9537 111.779
-34.298302 -15.1046 111.583
-29.6744 -10.7348 113.351
-30.1231 -12.4125 114.231
-29.5532 -10.2776 113.198
-29.9793 -11.8206 113.702
-29.789101 -11.2653 113.511
-29.377701 -9.7493 112.989
-30.9914 -13.5374 117.826
-30.739799 -13.5723 116.323
-30.8468 -13.5848 116.789
-30.491301 -13.2279 115.239
-31.108801 -13.3519 118.293
-31.096201 -13.4099 118.12
-29.2013 -8.0577002 112.541
-29.1383 -8.6649199 112.672
-29.2052 -9.0905704 112.786
-29.4758 -7.4221802 112.279
-31.2237 -13.2626 118.523
-31.553301 -12.9225 119.094
-31.988001 -12.4449 119.389
-31.3312 -13.1718 118.801
-32.817402 -11.6801 119.691
-33.900799 -10.5211 120.013
-34.7005 -9.0209703 120.508
-30.6129 -13.4534 115.798
-30.892401 -13.616 117.308
-30.3694 -12.8821 114.72
-30.091 -6.79954 112.094
-26.1646 -12.907 99.068703
-26.3204 -12.9164 99.2407
-26.4688 -12.9355 99.447502
-26.577801 -12.9985 99.693001
-26.6259 -13.0939 99.946404
-26.6234 -13.2084 100.192
-26.563601 -13.3254 100.425
-26.429501 -13.4625 100.64
-26.2124 -13.6048 100.796
-25.9396 -13.73 100.866
-25.635799 -13.8376 100.852
-25.3311 -13.9073 100.76
-25.0399 -13.952 100.601
-24.773701 -13.9526 100.395
-24.5385 -13.9221 100.155
-24.336201 -13.8626 99.876099
-24.2057 -13.7902 99.612297
-24.1784 -13.6797 99.317001
-24.2409 -13.5534 99.044998
-24.391199 -13.4151 98.808098
-24.597 -13.2761 98.648804
-24.8351 -13.152 98.537598
-25.0807 -13.0515 98.500999
-25.3463 -12.9864 98.563004
-25.5909 -12.9379 98.651497
-25.8095 -12.9128 98.7742
-25.9949 -12.9024 98.915703
-35.5271 -4.8172998 114.206
-34.801399 -4.36906 115.256
-35.181301 -4.5715499 116.001
-35.746101 -4.9215202 115.137
-35.876598 -5.49893 117.215
-36.5359 -6.5430398 116.864
-36.2253 -6.3774199 117.659
-36.415298 -7.51372 118.088
-36.730202 -7.6886401 117.292
-36.079399 -9.43367 118.16
-36.3951 -9.5531197 117.385
-35.304001 -10.8504 118.007
-35.7243 -10.9317 117.2
-35.3307 -9.1779699 119.606
-35.682098 -7.3437099 119.527
-35.518398 -6.1935201 119.007
-34.8451 -4.5808501 117.634
-34.4627 -4.2364402 116.812
-33.618 -10.7043 105.683
-33.3074 -11.248 105.789
-35.131401 -11.2384 103.901
-34.737499 -11.7748 103.933
-37.529598 -12.2964 112.57
-37.225399 -11.8103 113.484
-38.055099 -10.8291 112.348
-37.821602 -10.1376 113.222
-38.0084 -7.5448799 111.841
-36.5681 -5.79215 114.667
-37.2924 -6.5520501 113.175
-37.122101 -5.8559499 112.017
-36.3423 -5.3232298 113.115
-36.648201 -5.6128001 111.048
-35.923901 -5.2567201 111.982
-35.006199 -5.3319702 110.772
-33.827499 -5.6602602 109.75
-37.199501 -14.1311 111.402
-36.2868 -14.9042 111.171
-35.4837 -15.3003 110.811
-34.231499 -15.5244 110.114
-33.674599 -15.1892 109.349
-34.9193 -4.4252801 116.34
-36.890999 -6.9159598 115.959
-32.0401 -5.6804199 111.184
-32.275902 -5.9218602 110.167
-31.393101 -6.7724199 110.034
-30.976801 -6.4650202 110.993
-33.2756 -14.6926 108.259
-33.0378 -14.1946 107.483
-34.156101 -14.3208 104.787
-34.415401 -15.29 105.527
-32.843498 -13.5909 106.855
-37.1908 -7.3556099 115.05
-32.807301 -6.2562299 109.158
-31.8381 -7.1047602 109.014
-33.3139 -5.3042202 110.758
-34.345699 -5.0020499 111.754
-35.111401 -4.8410101 112.96
-37.848499 -6.4402199 110.772
-37.607899 -8.1833096 114.068
-37.045799 -7.9257398 116.131
-37.319901 -8.3428001 115.189
-36.744301 -9.7383699 116.44
-37.011299 -10.1012 115.47
-36.183201 -10.9853 116.363
-36.556 -11.1634 115.498
-36.886902 -11.387 114.569
-37.5858 -9.16924 114.297
-32.903099 -5.0062699 111.755
-33.722 -4.6687899 112.674
-34.3736 -4.4514899 113.911
-36.939201 -7.3729901 106.244
-36.002102 -7.65379 105.677
-34.260201 -6.8497 107.496
-35.2421 -6.4068699 108.084
-34.7617 -8.6886301 105.301
-33.034901 -7.7894802 107.173
-37.9235 -13.0785 111.393
-32.989399 -11.9797 105.959
-32.791 -12.8268 106.309
-33.8312 -10.3053 105.571
-39.489498 -7.8165498 108.928
-38.982101 -7.3024001 108.141
-37.346901 -6.05021 109.969
-36.356998 -6.0271502 108.972
-37.9865 -7.1408 107.121
-39.649502 -8.9631901 109.906
-38.783798 -11.6922 111.109
-40.7262 -9.1248798 107.159
-40.2924 -8.5263004 106.423
-39.453201 -8.2163401 105.448
-39.551498 -14.045 108.909
-40.4645 -12.6805 108.945
-41.003399 -11.0246 108.483
-41.034199 -10.2751 108.083
-34.137501 -13.3775 104.298
-34.355598 -12.5271 104.05
-35.348202 -10.9038 103.858
-36.322399 -9.5195904 103.68
-38.5303 -8.1792698 104.673
-37.5704 -8.47892 104.082
-35.039902 -16.1926 106.362
-35.807899 -16.5809 107.1
-37.8927 -15.8468 108.478
-37.0872 -16.255199 108.063
-38.876598 -15.0333 108.798
-35.5634 -5.2947602 117.729
-35.887299 -6.27425 118.334
-36.068802 -7.4008799 118.791
-35.753201 -9.2943001 118.844
-34.9398 -10.75 118.649
-40.7206 -16.979401 98.323402
-40.832802 -17.4156 98.821198
-46.102901 -15.8281 100.193
-45.7715 -15.6671 100.648
-45.6959 -16.4571 100.738
-45.9977 -16.5919 100.338
-45.4608 -17.191401 101.068
-45.755402 -17.3444 100.683
-45.504002 -15.5605 101.017
-45.817902 -14.5905 100.318
-45.517101 -14.4828 100.642
-45.676102 -13.6949 99.819504
-45.363899 -13.5171 100.091
-45.488602 -13.2245 99.3442
-45.119801 -13.064 99.599998
-45.251499 -12.938 98.867699
-44.8619 -12.7271 99.023598
-44.738098 -12.7601 98.1408
-44.5364 -12.5978 98.517097
-44.5625 -12.559 99.2099
-44.311199 -12.4552 98.880096
-44.013199 -12.5371 98.038696
-43.82 -12.396 98.332199
-43.171001 -12.6291 97.0383
-42.867401 -12.5021 97.537399
-42.222599 -13.1749 96.469299
-41.8923 -13.0416 97.0261
-41.181702 -13.7405 96.536102
-40.904301 -13.6219 97.014603
-40.5317 -14.3457 96.806297
-40.1954 -14.326 97.4207
-40.3022 -16.3967 98.155701
-40.4072 -16.916599 98.646202
-40.105801 -16.2276 98.298599
-40.055901 -15.9511 98.105598
-40.2355 -16.064199 97.847504
-40.056301 -15.3162 97.610703
-40.276001 -15.424 97.265701
-40.165901 -14.8784 97.268997
-40.4786 -14.9214 96.634499
-40.840302 -14.4988 96.143204
-40.441799 -15.595 96.8983
-40.3997 -16.2057 97.579201
-40.5308 -16.602501 97.887398
-40.472198 -17.2351 98.954399
-45.288601 -14.3905 100.934
-45.252102 -15.4762 101.367
-45.124699 -16.153999 101.558
-45.409801 -16.329399 101.156
-41.661499 -18.1861 101.961
-42.139599 -18.469801 101.49
-42.9412 -18.2799 101.871
-42.313702 -18.0082 102.27
-43.768902 -17.7728 102.011
-44.104099 -17.9076 101.746
-38.550999 -16.172501 100.224
-38.515701 -15.3013 99.635201
-39.226501 -15.5197 99.005203
-39.340599 -16.412901 99.669098
-40.9282 -17.903299 102.739
-39.907001 -17.877501 102.1
-40.725101 -18.0527 101.355
-41.262199 -18.248501 100.827
-41.546001 -18.4214 100.616
-42.448799 -18.6614 101.262
-41.817101 -18.6511 100.462
-42.788101 -18.9238 101.079
-39.2868 -17.544001 101.513
-40.151001 -17.7782 100.834
-40.7616 -17.934999 100.296
-41.076 -18.0966 100.088
-38.794399 -16.874001 100.799
-39.636002 -17.1464 100.249
-40.3335 -17.505899 99.707298
-41.518101 -17.632401 103.098
-43.217999 -17.470699 102.49
-42.3578 -16.989799 103.446
-44.108501 -16.6612 102.528
-43.174198 -16.040001 103.691
-44.5284 -15.6985 102.433
-43.550201 -14.8878 104.076
-44.625198 -14.6711 102.132
-44.655899 -14.0639 101.852
-44.599499 -12.983 101.136
-43.272202 -18.4594 101.615
-45.103802 -17.037701 101.471
-43.377701 -18.8983 101.242
-44.7672 -16.9468 101.828
-44.400101 -12.5904 100.65
-43.515999 -11.6375 102.021
-43.973202 -12.1658 99.822403
-43.183601 -11.2651 101.109
-43.295601 -11.9514 99.137802
-42.520901 -11.0872 100.389
-42.247101 -12.095 98.434303
-41.470699 -11.3506 99.615196
-41.228901 -12.6417 97.999496
-40.4855 -12.0497 99.065498
-38.702999 -14.5449 99.239998
-39.4062 -14.8529 98.514801
-39.047001 -13.8056 98.984497
-39.778999 -14.1441 98.171204
-39.731602 -12.9039 98.824097
-40.424702 -13.3559 97.872002
-40.700901 -15.0778 96.195
-41.0993 -14.687 95.619499
-39.884602 -14.882 97.746002
-39.797798 -15.1782 97.9561
-39.782299 -15.8959 98.464699
-40.051201 -16.807301 99.096298
-44.902302 -12.9551 99.851196
-45.120499 -13.389 100.322
-44.466999 -12.8404 97.146004
-44.6012 -13.1906 96.319
-44.764301 -13.6638 95.619598
-44.189201 -12.6352 97.7276
-43.456001 -12.8609 96.3685
-42.488201 -13.2965 96.065804
-43.772499 -13.2153 95.630798
-42.8125 -13.5228 95.387299
-44.037399 -13.6518 94.970802
-42.979 -13.864 94.837898
-41.2747 -13.7912 96.330002
-41.583401 -14.0274 95.684799
-41.812099 -14.2702 95.148201
-41.373001 -18.313801 99.944702
-40.705601 -17.672701 99.509499
-41.0331 -17.896 99.395599
-46.207901 -14.7651 99.895699
-36.8699 -11.4848 102.185
-36.292999 -12.4184 102.108
-41.633701 -10.3008 105.572
-42.814602 -11.3648 103.906
-42.369999 -10.5863 103.501
-41.374802 -9.6730804 104.813
-41.903301 -10.1484 102.558
-40.771999 -9.16856 103.928
-41.1618 -10.0196 101.82
-39.858501 -9.06077 103.175
-40.115601 -10.3859 101.086
-38.681099 -9.4941301 102.504
-39.188 -11.281 100.563
-37.646301 -10.4488 102.182
-35.588799 -14.06 102.478
-35.605999 -14.9823 102.95
-37.238998 -14.8335 100.792
-37.221001 -15.7243 101.308
-35.8186 -13.2766 102.187
-37.465801 -14.0412 100.429
-37.844898 -13.2633 100.211
-38.447498 -12.265 100.327
-37.2113 -17.2314 105.068
-38.4977 -16.936501 105.964
-38.664001 -17.6467 103.366
-39.757599 -17.488001 104.139
-36.4589 -16.809299 104.361
-37.972 -17.2946 102.731
-35.877102 -15.9384 103.569
-37.433201 -16.5476 101.928
-40.406399 -17.105301 104.548
-39.218102 -16.5226 106.373
-41.3269 -16.3279 104.994
-40.204201 -15.6939 106.805
-42.1161 -15.4474 105.243
-40.9706 -14.7808 107.021
-42.715 -14.2785 105.569
-41.784 -13.5553 107.162
-42.867599 -13.0973 105.199
-41.928398 -12.0942 106.936
-41.866001 -11.4284 106.575
-39.682499 -16.5868 99.403503
-38.919998 -16.2838 99.956703
-37.963299 -16.000401 100.678
-36.435001 -15.3385 102.067
-34.8577 -14.6307 103.844
-40.002998 -14.2398 97.785896
-39.649502 -14.8344 98.128601
-39.5825 -15.0611 98.264702
-39.519402 -15.707 98.733704
-38.867298 -15.407 99.332497
-39.9869 -17.328501 99.980202
-40.468498 -17.843599 100.547
-40.999599 -18.131201 101.074
-40.382999 -18.0149 101.69
-39.7295 -17.6635 101.171
-39.2038 -16.994499 100.52
-38.174801 -16.738501 101.283
-38.642502 -17.427799 102.076
-39.302502 -17.763901 102.685
-37.941002 -17.4538 104.193
-37.205502 -17.074699 103.514
-36.6544 -16.257299 102.701
-35.130901 -15.6106 104.523
-35.733002 -16.517799 105.326
-36.525501 -16.948299 106.014
-34.814499 -13.7136 103.366
-35.072201 -12.8721 103.131
-36.420601 -14.4384 101.6
-36.655102 -13.6611 101.255
-38.152802 -14.3302 99.753304
-37.9739 -15.1237 100.113
-39.081902 -14.6956 98.886803
-39.476398 -13.992 98.549004
-38.477001 -13.5455 99.540802
-37.108299 -12.8368 101.121
-35.495602 -12.0887 103.033
-39.119202 -12.5851 99.516098
-40.0951 -13.1616 98.318497
-40.6619 -13.5108 97.486702
-37.708599 -11.8798 101.221
-35.971802 -11.4477 103.009
-36.149502 -11.1981 103.008
-36.014 -8.3365898 118.91
-35.592999 -8.2453003 119.686
-36.355099 -8.4112101 118.144
-36.987801 -8.7722902 116.335
-36.6707 -8.5063896 117.282
-35.218601 -5.1280098 118.213
-35.197701 -4.7543898 117.147
-35.516998 -4.92346 116.693
-35.945999 -5.23985 115.931
-36.933701 -6.5034299 114.933
-36.6675 -6.2090998 115.613
-36.243099 -5.78897 116.544
-44.883801 -16.7787 101.771
-37.5033 -11.1789 113.402
-37.7854 -11.6917 112.505
-38.407299 -12.3974 111.195
-39.987598 -13.4259 108.959
-41.384499 -14.2212 107.108
-42.479801 -14.9142 105.404
-43.437199 -15.5551 103.849
-44.3349 -16.2498 102.522
-37.194 -10.5505 114.399
-37.589401 -13.6699 111.419
-39.224998 -14.5671 108.88
-40.600201 -15.24 106.927
-41.763599 -15.8699 105.144
-42.8228 -16.4891 103.579
-43.731602 -17.063499 102.53
-44.316799 -17.362 101.956
-44.672001 -17.502001 101.647
-36.736401 -14.5814 111.333
-38.354698 -15.5297 108.652
-39.658501 -16.2146 106.586
-40.810699 -16.796801 104.776
-41.870602 -17.399099 103.268
-42.683701 -17.813 102.382
-43.819 -13.9917 103.577
-43.939602 -15.174 103.42
-43.922298 -15.8154 103.158
-43.655399 -16.335899 103.07
-43.296001 -16.8064 102.999
-42.806801 -17.2773 102.917
-42.285301 -17.622101 102.765
-41.936298 -17.821501 102.626
-41.335201 -18.044201 102.297
-40.895302 -12.3705 98.516998
-41.8941 -11.7606 99.0159
-42.9533 -11.5692 99.7481
-43.629799 -11.7662 100.471
-44.0079 -12.191 101.367
-43.910999 -12.3603 102.271
-43.7761 -13.3337 103.368
-43.8046 -12.7272 102.915
-42.243999 -12.4657 106.326
-42.1544 -11.7856 106.028
-42.006901 -10.6841 104.989
-41.839001 -10.1245 104.156
-41.316601 -9.6557198 103.241
-40.495602 -9.5416403 102.481
-39.430698 -9.9379702 101.789
-38.466301 -10.8736 101.358
-39.146702 -17.205299 105.038
-39.8162 -16.8029 105.445
-40.246799 -16.489401 105.667
-40.7897 -15.992 105.893
-41.208401 -15.5327 106.036
-41.568401 -15.0972 106.132
-41.955601 -14.5626 106.253
-42.266899 -13.929 106.35
-43.368801 -11.872 103.078
-43.347401 -13.5388 104.406
-43.120701 -14.5717 104.844
-42.955002 -15.224 104.637
-42.646 -15.7388 104.446
-42.292702 -16.1674 104.326
-41.833401 -16.655199 104.177
-41.3498 -17.0923 103.977
-40.9758 -17.347401 103.773
-40.348202 -17.6978 103.365
-39.886398 -11.6697 99.765999
-40.844898 -10.8449 100.343
-41.893799 -10.5296 101.111
-42.581902 -10.6863 101.834
-42.924999 -11.0914 102.81
-41.2314 -9.75352 106.302
-41.500801 -10.9403 107.24
-41.512798 -11.6438 107.643
-41.188 -13.1385 108.03
-40.747002 -13.8484 108.002
-40.3214 -14.444 107.919
-39.954498 -14.9306 107.871
-39.586601 -15.3969 107.751
-39.0606 -15.9064 107.546
-38.604801 -16.226801 107.329
-37.839199 -16.6425 106.914
-40.8634 -9.1380596 105.57
-40.140499 -8.7003899 104.668
-39.2369 -8.5972996 103.918
-38.237598 -8.8972597 103.329
-37.047798 -9.9236698 102.892
-42.739498 -12.3606 105.068
-42.358799 -10.9914 104.507
-42.496201 -12.7533 105.824
-46.190899 -14.4823 99.751404
-45.776798 -14.1475 100.139
-45.4883 -13.9768 100.398
-45.244999 -13.8477 100.643
-44.664299 -13.4438 101.504
-40.916698 -9.7003498 107.653
-43.254902 -12.2403 103.802
-42.067501 -11.2087 105.58
-41.756199 -10.8558 106.121
-42.717201 -11.7594 104.624
-41.4034 -10.3411 106.812
-42.316799 -11.4441 105.184
-46.110901 -15.3204 100.079
-45.731499 -15.1705 100.528
-45.234299 -14.9809 101.181
-45.469601 -15.0695 100.864
-44.629501 -15.1385 102.325
-43.9076 -14.5624 103.548
-42.310902 -13.1791 106.405
-41.930698 -12.8042 107.129
-42.655499 -13.4807 105.778
-43.485699 -14.1878 104.311
-41.4342 -12.3498 107.916
-43.025902 -13.8097 105.102
-42.955898 -18.616899 101.492
-42.645901 -18.405399 101.746
-41.998901 -18.1334 102.117
-41.648102 -17.936899 102.478
-41.250702 -17.767401 102.932
-40.694599 -17.5159 103.578
-40.105301 -17.280899 104.358
-39.504601 -16.984301 105.257
-37.5173 -16.019699 108.27
-38.2519 -16.4114 107.138
-35.9231 -15.091 110.991
-38.891899 -16.7043 106.181
-43.6087 -18.235201 101.709
-43.274899 -18.083799 101.945
-43.6693 -18.755501 101.285
-42.417599 -18.463499 101.636
-42.7369 -18.662901 101.406
-43.122398 -18.934799 101.198
-41.246601 -18.159401 101.723
-41.494301 -18.2675 101.455
-41.752998 -18.4072 101.227
-42.0457 -18.593 101.004
-42.334202 -18.841499 100.84
-41.544601 -12.8847 97.543198
-42.5452 -12.3492 97.967499
-43.5243 -12.1977 98.716003
-44.083199 -12.3014 99.2854
-44.272099 -12.3889 99.511299
-44.644199 -12.8042 100.212
-44.868401 -13.2266 100.662
-44.993 -13.6951 100.995
-45.0056 -14.2643 101.323
-44.965 -14.8557 101.597
-44.9687 -15.3508 101.786
-44.846401 -15.9395 101.958
-44.636398 -16.5609 102.11
-44.429699 -16.820101 102.169
-44.0168 -17.219101 102.234
-43.5051 -17.617599 102.237
-42.9869 -17.944401 102.152
-42.6259 -18.1434 102.063
-42.359402 -18.245199 101.956
-42.171799 -18.304899 101.849
-41.891201 -18.3193 101.708
-35.5634 -5.58181 109.857
-34.486198 -5.9900999 108.957
-33.484299 -6.53017 108.34
-32.384399 -7.4268298 108.071
-40.920799 -18.0749 102.061
-40.482601 -17.983299 102.486
-39.8899 -17.8351 103.081
-39.280201 -17.674601 103.817
-38.5872 -17.4387 104.67
-37.901402 -17.18 105.577
-37.220001 -16.8967 106.526
-36.477901 -16.496799 107.654
-34.841301 -15.5199 110.532
-43.2663 -12.8378 104.256
-42.3745 -12.0274 105.629
-37.454102 -7.1945801 113.665
-37.971699 -8.2035599 112.598
-38.276199 -8.74821 111.971
-39.563 -9.7557297 110.389
-40.802601 -11.8483 108.775
-37.963001 -9.1632204 113.02
-38.240601 -9.8589897 112.198
-39.244999 -10.7836 110.755
-39.6171 -8.3674297 109.434
-37.950001 -6.9221301 111.321
-37.2019 -6.14224 112.643
-36.455601 -5.4781199 113.945
-37.952801 -11.2119 112.432
-37.635502 -10.6978 113.319
-37.448399 -9.7851295 114.377
-37.230598 -9.1576204 115.373
-36.747799 -10.3385 102.91
-35.938999 -10.024 103.703
-34.379002 -9.2448502 105.346
-32.695801 -8.3358603 107.246
-32.062599 -7.9507198 108.153
-31.472099 -7.57552 109.086
-31.084299 -7.1668601 110.14
-30.780001 -6.7350101 111.051
-36.316299 -10.9517 102.96
-35.556099 -10.5579 103.792
-34.0453 -9.8482304 105.45
-37.686199 -9.2512398 103.077
-36.8997 -8.9266701 103.796
-35.295502 -8.1317196 105.395
-33.563 -7.2968502 107.26
-32.862 -6.93783 108.116
-32.260201 -6.6697898 109.027
-31.7411 -6.4221501 110.056
-31.276199 -6.2299399 110.99
-36.736301 -15.5492 109.606
-36.302799 -15.7626 109.396
-33.651199 -14.7348 106.347
-33.855499 -15.1417 106.797
-34.3013 -15.7811 107.705
-35.007801 -16.0826 108.545
-35.557701 -9.1152296 104.497
-36.0965 -8.5535698 104.592
-36.7878 -8.0937405 104.877
-37.7267 -7.8027902 105.463
-38.705101 -7.7177701 106.282
-35.1759 -9.6427498 104.535
-34.3815 -10.9433 104.777
-34.5975 -10.6014 104.707
-33.7024 -12.2299 104.964
-34.050098 -11.4933 104.832
-33.4953 -13.0843 105.285
-33.506401 -13.9796 105.776
-40.015598 -11.3283 109.75
-39.612099 -12.1603 110.008
-39.607498 -7.9588299 107.285
-40.097 -8.5009003 108.051
-38.823601 -8.3266602 110.841
-38.840801 -9.2501497 111.232
-38.789299 -7.7035999 110.346
-37.1777 -6.5869699 108.032
-38.187901 -6.6879401 109.036
-36.073601 -6.93082 107.142
-38.691799 -7.1538601 109.818
-37.728298 -12.6333 111.977
-33.8876 -8.2249002 106.21
-34.4254 -7.70158 106.303
-35.127602 -7.2441201 106.572
-38.3894 -11.218 111.723
-38.2827 -11.5254 111.78
-38.0574 -12.0426 111.867
-39.140301 -12.9106 110.08
-38.708599 -13.5792 110.095
-38.421799 -14.1304 110.096
-38.064602 -14.5912 110.056
-37.570702 -15.0522 109.96
-37.133701 -15.3722 109.78
-40.271801 -9.0559502 108.544
-35.678501 -15.9947 109.033
-40.370899 -9.6227198 108.981
-40.3088 -10.3877 109.417
-38.658798 -10.3286 111.529
-34.815201 -10.2083 104.626
-33.506901 -8.7915201 106.256
-31.685499 -5.5820799 112.045
-30.7882 -6.2672801 111.862
-32.516399 -4.8227401 112.624
-34.991501 -8.1141701 120.595
-33.049702 -4.3585901 113.371
-33.6595 -4.1242299 114.598
-34.4478 -4.41328 118.129
-34.055401 -4.0300298 115.934
-34.077301 -4.0691099 117.228
-35.031799 -6.1442599 119.826
-35.1171 -7.3102899 120.402
-34.809399 -5.0661998 118.919
-40.993198 -18.587601 98.809402
-41.060398 -18.121901 98.809502
-40.994701 -17.615601 98.211098
-40.882702 -18.0851 98.0541
-40.983501 -16.4568 95.183998
-40.7533 -17.0819 96.199203
-41.031399 -15.9686 95.3256
-40.764999 -16.719299 96.319504
-40.755402 -17.4988 97.031403
-40.8311 -17.8706 97.705704
-40.756401 -17.082899 97.128197
-40.883598 -17.369801 97.749397
-45.966599 -18.6269 100.126
-45.457001 -19.210501 100.365
-44.611099 -19.5702 100.733
-43.290401 -19.606199 100.905
-42.056702 -19.296101 100.327
-41.574299 -18.987 99.873199
-41.238701 -18.600201 99.367599
-41.1912 -19.0825 99.400703
-45.035198 -19.4618 100.545
-44.231499 -19.6145 100.857
-43.809898 -19.6241 100.948
-42.677898 -19.4979 100.682
-42.894001 -14.2775 94.433403
-41.917801 -14.7326 94.685204
-40.962502 -17.1422 98.194
-41.037899 -17.691099 98.783401
-41.3241 -15.0564 95.118698
-40.958599 -15.4197 95.648598
-40.673401 -16.055 96.471497
-40.602699 -16.5361 97.2593
-40.766499 -16.779699 97.7388
-41.193802 -18.197701 99.353401
-41.984798 -18.9312 100.37
-43.083801 -19.2173 100.992
-41.519501 -18.609301 99.8806
-43.5149 -19.2173 101.09
-42.538601 -19.1334 100.753
-44.652401 -14.3603 94.838203
-43.631599 -14.1478 94.533203
-43.886398 -19.165001 101.101
-44.206501 -19.087 101.062
-44.240299 -13.7356 102.56
-44.243599 -13.1164 102.176
-44.2327 -14.3578 102.82
-44.251301 -14.8521 102.941
-44.143501 -15.3582 103.038
-44.224499 -12.6462 101.775
-44.160999 -18.6042 101.275
-43.974998 -18.452801 101.437
-44.449299 -18.1213 101.44
-45.052898 -17.676001 101.3
-44.742401 -18.3013 101.203
-45.367199 -17.872999 100.979
-44.633999 -18.919399 101
-45.126099 -18.6429 100.861
-45.659801 -18.1728 100.615
-46.1077 -14.0003 99.4711
-45.857101 -13.3843 99.038399
-45.751202 -13.1945 98.736298
-45.607201 -13.0918 98.162498
-45.523701 -13.177 97.511703
-45.522202 -13.4745 96.861504
-45.5592 -13.7326 96.4291
-47.240398 -14.5488 98.214104
-47.004299 -14.1225 97.941101
-46.763599 -13.9003 98.242302
-46.987301 -14.372 98.552002
-46.673401 -13.7768 97.820602
-46.748199 -14.0428 97.1381
-46.637299 -14.2278 99.010101
-46.329102 -13.6124 98.663696
-46.247299 -13.4368 98.133102
-46.2132 -13.4774 97.674599
-46.136398 -13.7516 96.938202
-47.232201 -14.8133 98.502403
-47.045399 -14.9401 98.9245
-46.6408 -14.9936 99.398598
-46.077099 -17.566999 100.314
-46.565498 -16.122499 99.583397
-46.330002 -16.7904 99.891602
-46.661201 -15.6297 99.5224
-41.613998 -33.9842 87.277702
-41.396599 -34.855999 86.883797
-40.7523 -34.632301 86.842697
-40.887199 -33.801102 87.229103
-41.239101 -35.474602 86.572098
-40.644199 -35.2439 86.549004
-42.367298 -37.533901 88.956398
-42.608101 -36.8535 89.264397
-42.027401 -36.9986 89.900902
-42.792301 -36.678001 88.727203
-39.0709 -37.0532 91.407303
-38.409 -36.831902 91.254204
-40.819401 -19.120399 98.553703
-40.644798 -18.566601 97.690697
-46.574699 -18.800699 99.092598
-46.5285 -18.471399 99.354599
-46.586601 -19.3384 98.806702
-44.596699 -20.225901 100.365
-44.553902 -21.040899 99.990303
-45.340199 -20.635599 99.773804
-45.497101 -19.9004 99.961304
-46.205299 -20.0119 99.1894
-46.151798 -19.2913 99.576401
-39.993999 -34.588699 87.194199
-40.131802 -33.760799 87.558403
-39.518799 -34.558601 87.408401
-39.779999 -33.7197 87.766296
-38.984901 -34.650101 87.8153
-39.294498 -33.735401 88.2061
-38.556 -34.743599 88.361198
-38.872002 -33.823101 88.723999
-38.187 -34.8899 89.109497
-38.523602 -33.9618 89.3955
-42.7635 -36.3918 87.864799
-41.9258 -35.076302 87.136597
-41.7705 -35.721199 86.792198
-42.368198 -36.125301 87.229202
-40.344501 -32.5289 88.057098
-39.943001 -35.157299 86.891296
-39.399601 -35.1222 87.155899
-37.866299 -35.624298 88.835701
-37.751701 -35.8839 89.607101
-37.6968 -36.206699 90.214203
-37.992401 -36.588902 90.914497
-38.3302 -35.391998 88.098198
-38.822601 -35.219601 87.563904
-39.672501 -32.5499 88.614998
-39.2286 -32.653301 89.099701
-41.225899 -32.549 87.773102
-38.733101 -35.999199 91.550903
-38.327301 -35.7188 91.175797
-38.1017 -35.388699 90.547302
-38.107101 -35.101601 89.885498
-39.065899 -35.0186 91.856499
-38.683701 -34.699402 91.460999
-38.497799 -34.381699 90.844902
-38.462399 -34.1656 90.162003
