# .PCD v.7 - Point Cloud Data file format
VERSION .7
FIELDS x y z
SIZE 4 4 4
TYPE F F F
COUNT 1 1 1
WIDTH 1720
HEIGHT 1
VIEWPOINT 0 0 0 1 0 0 0
POINTS 1720
DATA ascii
-48.159 24.660101 132.37399
-46.716702 24.4827 131.192
-46.938499 24.5665 131.854
-52.481998 19.5793 132.5
-52.498501 19.5693 132.541
-52.108501 20.687099 131.946
-51.166302 21.824301 131.403
-48.902599 23.0721 130.248
-48.167999 23.4326 130.161
-50.1134 22.974701 131.159
-50.7416 22.769699 131.21899
-49.703499 23.4795 130.916
-49.1264 23.246 130.461
-49.2593 23.503099 130.49001
-47.4827 24.8139 130.772
-47.406601 24.284201 130.37601
-48.650902 20.863001 131.83501
-48.214802 20.716801 131.82001
-48.1931 20.0812 131.746
-47.9216 20.415899 131.795
-47.344101 20.434 131.758
-49.116001 21.038601 131.85699
-48.9827 20.9814 131.84399
-49.1022 20.466499 131.86301
-48.775299 20.7521 131.854
-48.542801 20.978001 131.8
-48.606499 20.914301 131.82201
-46.518002 22.5439 130.558
-49.621201 21.3944 131.793
-49.3368 21.587 131.701
-49.5453 21.457001 131.757
-50.051201 21.747101 131.808
-49.936501 21.6532 131.80701
-49.988201 21.0741 131.978
-49.714699 21.3002 131.86
-49.260502 21.1392 131.841
-50.113201 21.795799 131.784
-45.610199 20.567801 131.37399
-48.543098 22.5404 131.174
-48.7467 21.940901 131.532
-48.4641 22.112 131.37199
-47.8596 22.014 131.123
-48.333401 21.537001 131.58701
-48.273102 21.446899 131.595
-48.4203 21.0809 131.752
-48.9091 21.1936 131.78799
-48.8055 21.1262 131.791
-49.5825 20.6768 131.985
-49.448601 20.617201 131.939
-49.4189 20.2089 131.886
-48.647598 20.273899 131.78999
-50.598202 20.6038 132.01601
-50.344299 20.8125 132.043
-50.9496 20.8536 132.03
-50.195301 20.341 132.009
-50.2453 21.3678 131.981
-49.710201 20.7862 131.994
-49.033199 21.301701 131.756
-49.044701 21.762501 131.64
-49.623402 21.876499 131.702
-48.446602 21.651199 131.56599
-49.025501 22.212099 131.52699
-48.478199 19.8825 131.80901
-47.457001 19.742201 131.718
-47.785702 19.915701 131.73399
-47.6861 19.508499 131.752
-46.7962 19.2827 131.69099
-47.145 19.5401 131.702
-47.120399 20.190701 131.73801
-46.988701 19.042299 131.696
-46.192299 18.805599 131.793
-46.452599 19.012199 131.702
-46.523201 19.667299 131.69701
-46.381199 18.5506 131.79601
-45.966202 18.5781 131.924
-45.928699 19.1698 131.78999
-45.466099 18.726999 132.08701
-45.962101 17.9988 132.097
-49.907902 20.380199 131.995
-49.905102 20.231001 131.983
-47.4053 22.119801 130.90601
-47.991199 21.7302 131.396
-50.6427 21.208099 132.076
-51.3526 20.694599 132.054
-49.068901 19.9851 131.86301
-48.138599 19.5982 131.78799
-47.433601 19.207199 131.71899
-46.724899 18.6661 131.701
-46.249699 18.1933 131.92799
-45.952202 17.530701 132.37
-49.403999 22.1614 131.645
-48.886101 22.4804 131.388
-49.978298 21.817101 131.743
-50.129902 21.668301 131.866
-49.241699 20.9354 131.89999
-48.6712 21.3451 131.70599
-49.055599 21.0916 131.832
-48.393799 22.816601 130.886
-45.174599 19.0609 132.062
-45.369999 18.852501 132.08099
-45.887299 17.186001 132.82401
-47.129101 23.801001 130.19701
-47.725498 23.2897 130.32201
-46.7551 24.241301 130.492
-52.134201 19.5672 134.522
-52.462299 19.889601 134.536
-52.465599 20.238199 134.82001
-51.7019 22.415199 134.26601
-51.226601 20.9718 135.05299
-48.966599 19.417299 131.75101
-48.489399 19.363001 131.705
-48.532101 18.9841 131.591
-48.3284 19.0933 131.632
-47.881199 18.947001 131.61
-47.982601 18.4303 131.44299
-47.765301 18.5249 131.524
-47.316799 18.2465 131.57001
-47.467602 17.7673 131.48599
-47.323601 17.812201 131.597
-46.9841 17.6103 131.82201
-47.1591 17.172899 131.834
-46.971699 17.189501 131.95599
-46.726898 16.926201 132.345
-47.375702 16.482599 132.51199
-47.075802 16.528099 132.655
-46.859299 16.3815 133.187
-47.533001 16.247499 133.298
-47.2812 16.2519 133.437
-47.019001 16.2589 133.94501
-45.7658 17.018299 133.313
-45.306702 17.5492 133.076
-46.0238 16.649 134.097
-45.670799 16.934 133.82201
-51.439701 18.773001 132.07899
-51.258301 18.7649 131.912
-51.445099 18.769199 132.26601
-51.4627 18.769501 132.729
-51.470001 18.747801 133.183
-51.444199 18.784201 133.71001
-51.302101 18.980101 134.327
-51.1348 18.751101 134.033
-43.711399 22.7873 133.283
-43.5168 22.5588 132.431
-52.412201 21.1602 132.239
-46.4706 19.738001 131.688
-46.016399 19.619101 131.642
-45.8699 19.239799 131.786
-45.443802 19.295 131.864
-44.877998 18.8095 132.306
-44.954498 19.2971 132.03799
-50.7444 18.7237 134.35699
-50.5602 19.4484 131.976
-51.017101 19.0725 131.92599
-51.391399 18.8141 131.94501
-51.6567 18.8235 132.276
-50.233601 19.5119 131.92101
-48.801498 19.147301 131.657
-49.703701 19.129499 131.599
-51.321899 21.0208 132.05
-51.231701 20.936001 132.2
-51.8871 21.1654 132.334
-52.332901 21.4191 132.592
-52.620499 21.7153 133.054
-52.502102 21.965599 133.59
-50.8339 22.7307 131.64
-50.823399 22.577 131.47099
-50.901299 22.5702 131.36301
-51.044601 23.9543 132.666
-51.199299 23.8944 132.44299
-50.912102 23.997299 132.839
-51.1203 23.917601 132.726
-49.196499 23.429501 130.644
-49.192902 23.445999 130.634
-49.226601 23.452299 130.589
-49.4118 23.805 130.44299
-49.599098 24.412201 130.55701
-49.570702 24.3494 133.09399
-52.337002 19.6791 132.353
-52.074902 20.1695 132.064
-50.855202 18.599501 132.39
-50.745899 18.694 131.74001
-50.1381 18.9678 131.26801
-47.474499 16.3067 132.92599
-47.249901 16.7826 132.13499
-47.5728 16.251101 133.686
-47.245899 17.5124 131.627
-47.724602 18.066401 131.42599
-48.261902 18.7561 131.521
-50.9842 19.6684 132.16701
-51.484699 19.255301 132.36
-51.9702 19.111601 132.70599
-51.833698 20.572599 135.093
-51.877201 20.307501 134.98801
-47.4109 24.535 132.228
-50.3904 22.831499 134.526
-50.509201 22.7106 134.564
-50.8479 23.100599 134.33
-51.0238 22.9088 134.39301
-51.755699 20.866699 135.11099
-51.791401 20.7255 135.11099
-52.361801 21.0942 135.02499
-52.4268 20.9077 135.035
-52.174099 20.297701 134.933
-43.9062 20.093 131.911
-43.416302 21.4 131.70399
-47.041 24.5296 132.061
-47.0994 24.496901 132.172
-47.991501 24.072001 132.967
-48.354599 23.932199 133.26199
-48.823601 23.718901 133.586
-49.033699 23.568701 133.735
-49.3396 23.350901 133.92999
-47.837299 24.1264 132.85001
-47.444698 24.3088 132.534
-47.194698 24.437201 132.284
-47.298599 24.377399 132.39799
-48.667702 23.792999 133.49699
-48.528198 23.8592 133.397
-46.541302 24.2547 132.27901
-46.610001 24.209801 132.416
-47.3209 23.802 133.19099
-47.737999 23.607201 133.567
-48.6614 23.02 134.214
-49.1119 22.774799 134.492
-49.479099 22.602699 134.686
-51.378899 19.6103 134.897
-51.636101 19.4163 134.62601
-49.8176 22.164101 134.806
-50.056499 21.824499 134.855
-50.324299 21.379801 134.96899
-50.632301 20.9226 135.119
-48.1078 23.400499 133.884
-48.308102 23.251499 134.01801
-46.948898 24.009501 132.813
-51.241299 19.829599 135.05099
-46.698601 24.150299 132.535
-46.817402 24.0837 132.66901
-48.001598 23.4862 133.784
-47.863499 23.548599 133.688
-49.611698 22.468901 134.763
-49.716999 22.3216 134.791
-50.836399 20.6717 135.20799
-50.9408 20.4622 135.22301
-51.047901 20.265499 135.194
-51.139999 20.064501 135.14301
-44.239899 20.7798 131.49899
-44.265701 20.847601 131.46001
-43.652302 21.1996 131.578
-43.812698 21.2047 131.49699
-43.8792 21.046301 131.52299
-44.2075 21.2946 131.304
-43.978298 21.231701 131.42999
-44.542702 20.9951 131.302
-43.8629 21.014799 131.53799
-44.604698 20.3769 131.592
-44.969898 20.6332 131.396
-44.959702 20.567301 131.424
-44.946098 20.6984 131.36
-43.604698 20.9368 131.66499
-43.859798 20.6612 131.66499
-44.2794 20.2213 131.774
-44.060398 20.445999 131.71201
-52.405602 20.973301 135.03101
-49.095299 24.021299 133.34399
-48.902599 24.0907 133.211
-50.485199 19.973101 132.05901
-50.6497 20.0252 132.049
-49.254398 19.8069 131.849
-50.118999 19.91 131.98399
-49.645 20.007601 131.927
-49.180302 19.8925 131.858
-50.201401 20.104099 132.03
-50.3521 20.114 132.062
-50.300598 20.105301 132.052
-50.355202 19.957399 132.028
-50.0112 20.0728 131.99001
-49.690399 19.893999 131.918
-50.429199 20.1353 132.04601
-50.5499 19.9746 132.08
-51.149899 20.0548 132.006
-48.6996 19.714001 131.799
-48.876701 19.540701 131.76801
-48.794399 19.6415 131.78101
-48.621101 19.7647 131.817
-49.2962 19.6868 131.842
-50.965099 20.2225 131.985
-50.746899 20.425301 131.992
-50.242298 20.228901 132.01801
-49.108601 19.950399 131.86501
-49.9534 20.177999 131.991
-50.575401 19.790899 132.036
-50.1031 20.2145 132.02499
-50.750599 19.8431 132.10001
-50.700298 19.825899 132.07401
-50.3172 19.6315 131.964
-50.425301 19.7309 131.99699
-49.697102 19.7556 131.90401
-49.590099 20.088699 131.92999
-50.8638 19.8923 132.075
-50.838699 20.323299 131.983
-50.046299 19.743601 131.94901
-50.427502 22.1998 131.53799
-50.536701 22.047501 131.61301
-45.472 23.135 130.675
-45.750301 23.3456 130.588
-47.518398 20.631599 131.737
-47.149502 20.6789 131.627
-47.403801 20.6499 131.698
-46.916 20.713499 131.535
-45.457401 18.2223 132.28
-47.540001 20.196501 131.758
-47.275398 19.986799 131.724
-46.990898 19.7414 131.69701
-46.655499 19.4608 131.683
-46.322102 19.1838 131.698
-46.063301 18.978399 131.78999
-45.840599 18.774599 131.914
-45.629299 18.499399 132.092
-49.400398 19.112301 131.63901
-49.269699 19.055 131.58299
-51.839001 20.387899 132.144
-52.522499 22.0375 133.46201
-49.754101 22.7351 134.57001
-49.969398 22.2246 134.767
-49.8414 22.568701 134.679
-49.903599 22.406601 134.729
-45.765301 16.972099 135.28101
-43.353401 21.848801 135.48599
-42.847301 22.223 133.963
-42.610001 21.909901 133.12801
-42.724602 21.552999 132.539
-42.886299 21.054001 132.201
-43.256901 20.3923 132.133
-43.7132 19.674 132.342
-44.0994 18.9799 132.60899
-43.896 19.3487 132.466
-43.4772 20.0853 132.17
-44.257999 18.702499 132.698
-44.3941 18.448299 132.80701
-43.027699 22.212999 134.653
-43.1712 22.031099 135.076
-43.399799 21.553699 135.978
-43.4202 21.7048 135.741
-43.0214 20.7731 132.14101
-42.782799 21.332001 132.356
-42.676201 21.8025 132.89799
-42.712101 22.082399 133.57899
-45.064899 18.9561 136.842
-45.483501 18.113501 136.592
-45.656502 17.6486 136.22501
-45.8008 17.1217 135.505
-44.975601 17.395901 133.573
-45.316601 17.017099 134.11301
-44.5135 18.1877 132.927
-44.639301 17.943899 133.095
-44.791302 17.671801 133.3
-45.2239 18.635599 136.759
-45.622002 16.8566 134.87601
-45.499699 16.875401 134.578
-45.7533 17.3787 135.88699
-45.553501 17.9139 136.44901
-45.592098 17.8137 136.368
-45.6866 17.5662 136.134
-45.716801 16.907301 135.119
-45.6716 16.873699 134.996
-43.691399 20.84 136.511
-44.1101 20.242399 136.771
-43.858101 20.5863 136.629
-43.264301 21.2966 136.257
-43.927799 20.4921 136.66901
-44.052502 20.3221 136.739
-43.5219 21.0144 136.41
-44.3218 19.982599 136.813
-44.6194 19.6103 136.871
-44.713699 19.4582 136.871
-50.288601 18.836201 134.79601
-49.476299 18.4615 134.87601
-50.052101 18.2456 134.46899
-50.571499 18.644699 134.35001
-50.8508 18.2871 132.981
-50.9375 18.468399 133.037
-50.941299 18.4293 133.62399
-50.6614 18.073999 133.547
-49.242699 19.0117 131.396
-50.3395 18.778099 131.019
-49.671299 18.555799 130.81599
-49.530701 18.6285 130.787
-50.3974 18.7337 131.04601
-50.082199 18.715599 131.175
-50.73 18.659599 131.75101
-50.5331 18.6339 131.74001
-50.837399 18.5378 132.42599
-49.384201 16.3645 132.05099
-49.556499 16.4608 132.86501
-49.0555 16.268 132.38901
-48.943298 16.485399 131.61301
-49.287399 16.643499 131.332
-48.9217 17.016199 130.89101
-49.173199 17.0903 130.814
-48.959202 17.7017 130.618
-49.231602 17.717501 130.52901
-49.0909 18.2335 130.60201
-49.275902 18.213499 130.57899
-49.4189 18.1388 130.58701
-49.227699 16.902399 134.036
-49.624599 17.8305 134.50301
-48.4729 17.0518 134.735
-49.366798 18.659 130.76801
-50.806599 18.1208 132.94299
-48.695702 18.2971 130.702
-48.570999 17.701099 130.73801
-50.431198 16.547199 131.894
-50.335201 16.5175 131.52699
-48.286201 16.5415 134.198
-47.992401 16.246599 133.414
-47.7798 16.262899 132.70399
-47.528599 16.742201 131.983
-47.9468 17.5758 131.142
-48.1413 18.2467 130.976
-48.689201 18.715599 131.105
-49.0182 16.434601 133.483
-48.766998 16.201099 132.702
-48.6385 16.344601 131.88
-48.5294 16.867201 131.151
-49.0779 18.667601 130.86501
-49.798401 18.9056 131.024
-50.3367 17.6043 133.606
-49.875198 16.897699 133.44
-50.973801 17.4863 132.71201
-50.872299 17.3218 132.726
-50.674099 17.3908 133.004
-50.850601 17.708799 132.942
-49.894798 16.467501 131.597
-50.1684 16.4767 132.125
-50.4147 16.802099 132.69501
-50.6409 16.8428 132.354
-48.873199 16.987101 134.397
-48.6688 16.4809 133.83701
-48.423302 16.2071 133.04401
-48.2785 16.2687 132.27
-48.072201 16.750999 131.573
-49.156399 17.946699 134.901
-49.278301 16.432501 133.19501
-49.512199 16.8318 133.703
-49.986301 17.7467 134.071
-50.377399 18.152399 134.048
-50.814201 18.4993 133.935
-47.380901 17.5623 131.474
-47.8311 18.079399 131.287
-48.4916 18.6397 131.433
-48.985802 19.0187 131.603
-48.667702 18.145901 135.22
-48.153198 16.3869 133.89
-48.5495 16.3297 133.487
-48.908298 16.2999 133.14301
-49.1618 16.336901 132.82201
-49.432201 16.389 132.5
-50.036201 16.459299 131.82899
-48.333302 16.6476 134.326
-48.714199 16.594101 133.97
-49.079399 16.532 133.631
-49.343899 16.518801 133.33299
-49.625801 16.5326 133.002
-50.218399 16.542299 132.287
-48.234699 16.4597 134.045
-48.613998 16.4042 133.67599
-48.964001 16.3568 133.314
-49.213299 16.3771 133.01199
-49.493 16.4151 132.683
-50.108799 16.4625 131.97
-48.575901 17.4585 134.96899
-48.958801 17.389299 134.69
-49.362499 17.3314 134.321
-49.705101 17.2384 133.963
-50.019699 17.158701 133.578
-50.5322 17.0466 132.87399
-48.544998 17.306601 134.89799
-48.930302 17.233299 134.588
-49.313499 17.1733 134.226
-49.636799 17.092699 133.88499
-49.946499 17.0093 133.49699
-50.476601 16.9252 132.80499
-48.6143 17.6556 135.05
-49.0009 17.559401 134.786
-49.4198 17.475 134.411
-49.777302 17.3888 134.02901
-50.108799 17.293301 133.62399
-50.593102 17.1847 132.929
-50.385201 16.521999 131.69
-50.401798 16.5294 131.78799
-50.484901 16.6071 132.007
-50.7103 16.9487 132.451
-50.7719 17.062099 132.53101
-50.825699 17.224501 132.649
-48.5163 17.1971 134.843
-48.908199 17.1271 134.513
-49.276798 17.052299 134.151
-49.577801 16.972799 133.81799
-48.413101 16.8538 134.548
-48.799999 16.808001 134.205
-49.164902 16.7328 133.85899
-49.454899 16.7136 133.573
-49.731602 16.708401 133.26801
-50.311298 16.6702 132.51801
-50.579399 16.7335 132.213
-50.926701 18.306499 133.302
-50.959099 18.432899 133.356
-50.778301 18.280001 133.815
-50.872101 18.460199 133.799
-50.3246 17.917299 133.81599
-50.526901 18.1061 133.82001
-50.880901 18.265699 133.58299
-50.496101 18.3731 134.203
-50.6548 18.3246 134.01401
-48.851601 18.836201 131.39101
-49.1138 18.9785 131.51401
-50.756001 18.144199 133.231
-50.806999 18.2117 133.263
-50.905998 18.4189 132.689
-50.9319 18.3678 132.994
-50.7062 18.5604 134.121
-50.303398 18.4 134.409
-49.9939 17.999399 134.282
-50.216702 18.200199 134.258
-49.7994 16.6036 131.213
-50.7547 17.9762 133.18401
-50.750702 18.073601 133.205
-50.629902 17.68 133.26199
-50.726601 17.851801 133.22501
-50.942799 17.9515 132.726
-50.839298 17.925501 132.942
-50.873199 18.224899 132.683
-50.905899 18.1364 132.701
-51.027 17.6199 132.67101
-50.985901 17.7568 132.715
-51.036301 17.417801 132.588
-51.049198 17.514601 132.623
-50.858002 17.4512 132.842
-50.9282 17.556499 132.799
-50.820599 17.340599 132.827
-50.9314 17.4079 132.72701
-50.761002 17.551201 133.005
-50.838902 18.301901 132.716
-50.812199 18.2099 132.963
-50.907799 17.1217 132.39999
-50.734798 16.8843 132.22301
-50.775299 16.951 132.284
-50.651001 16.717899 131.955
-50.580399 16.6436 131.851
-50.5326 16.594801 131.77699
-50.484001 16.5665 131.535
-50.2616 16.530001 131.371
-50.407799 16.5453 131.437
-50.212299 16.4925 131.526
-50.0499 16.546499 131.314
-49.5196 16.4856 131.638
-49.624599 16.558901 131.411
-49.413502 16.8729 130.938
-49.5867 16.7085 131.07401
-49.136799 16.411699 131.864
-49.309502 16.4641 131.74001
-49.6301 16.422001 131.80499
-49.242699 16.882601 130.998
-49.290501 16.872601 130.987
-50.725498 18.5376 132.03
-50.4757 17.8277 133.571
-50.518501 17.496599 133.30099
-50.994499 17.3349 132.57401
-50.872799 18.4807 132.72099
-50.862999 18.3515 132.718
-50.841999 18.2642 132.7
-50.696602 18.6108 132.036
-50.8008 18.603701 132.104
-50.2798 18.7369 131.452
-50.5979 18.708799 131.38901
-49.6619 18.7864 130.92999
-50.3573 18.760201 131.022
-49.4645 18.3962 130.677
-49.790199 18.7236 130.964
-49.609501 18.59 130.806
-49.562401 18.3433 130.681
-49.532902 18.3592 130.685
-49.290501 17.971001 130.535
-49.358501 18.1873 130.586
-49.3027 18.4594 130.653
-49.379398 18.437799 130.66299
-49.350399 17.9048 130.521
-50.1619 17.9596 134.05701
-50.206902 17.6614 133.793
-49.487598 18.7819 130.94901
-50.076 18.8456 130.963
-49.055099 18.4757 130.69501
-49.2346 18.6677 130.799
-49.1255 18.8202 131.112
-49.3353 18.7883 131.00999
-49.592201 18.7901 130.924
-49.2066 18.4673 130.661
-48.838799 18.0051 130.636
-48.930099 18.244301 130.642
-48.611301 18.569201 130.862
-48.8284 18.523199 130.75101
-48.7561 17.3475 130.75101
-48.750999 16.627399 131.345
-48.733398 16.9429 131.00101
-48.2673 17.2038 131.104
-48.528198 17.278299 130.897
-48.770199 17.7334 130.664
-49.0788 17.3717 130.675
-48.917 17.386499 130.69901
-48.849098 16.290501 132.13499
-48.7934 16.4111 131.73599
-48.389198 16.4918 131.681
-48.574501 16.5541 131.49001
-49.0718 16.7794 131.13499
-48.918201 16.7064 131.23199
-48.953899 16.2377 132.49899
-48.5424 16.214899 132.46201
-48.703701 16.243601 132.287
-48.988701 16.348801 131.998
-49.492298 18.958599 131.17999
-48.871201 18.706699 130.974
-48.941799 18.8741 131.237
-48.318401 18 130.819
-48.401798 18.330799 130.783
-48.248501 18.4105 131.17999
-48.405399 18.5075 131.017
-48.268299 17.629299 130.931
-47.730099 17.909401 131.194
-47.9673 17.9562 131.01601
-48.6045 18.0453 130.69701
-48.313 16.799601 131.35201
-47.697201 17.133699 131.51801
-47.986401 17.1504 131.32401
-48.4716 16.297501 132.061
-47.923698 16.434 132.121
-48.176601 16.4524 131.899
-48.5863 16.197901 132.89
-48.160801 16.206301 132.84
-48.358299 16.2054 132.655
-48.563 18.6472 131.274
-48.752602 18.8619 131.52299
-47.9613 18.16 131.147
-48.1703 18.3659 131.332
-47.646198 17.5641 131.321
-47.577 17.834499 131.34801
-47.7971 16.7306 131.784
-47.4249 17.1439 131.69299
-47.656502 16.4417 132.33701
-47.8923 16.222099 133.064
-50.506401 16.577 131.633
-50.370998 16.5189 131.61099
-50.361801 18.672899 131.42999
-49.135399 17.9708 130.55
-49.229 17.977501 130.53101
-49.3279 17.9335 130.528
-50.316002 18.6964 131.448
-50.561001 18.6113 131.71201
-49.8811 18.6696 130.96201
-50.119099 18.696699 131.161
-49.238098 17.373301 130.647
-49.223099 17.102301 130.799
-49.187 16.8512 131.03999
-49.187698 17.3685 130.65601
-49.277901 17.672001 130.533
-49.011501 17.9818 130.586
-49.458801 18.6483 130.76801
-49.195 18.2276 130.582
-50.7071 18.563499 132.033
-49.723202 18.7642 130.94901
-49.4482 18.117001 130.58099
-49.105 17.685301 130.576
-49.066898 17.072599 130.82899
-49.091499 16.559401 131.493
-49.1805 16.3046 132.257
-50.849701 18.503099 132.373
-50.513 18.679399 131.746
-50.042999 18.7498 131.175
-49.8451 18.687401 130.96899
-48.2864 16.218201 133.166
-48.046001 16.257401 132.491
-49.776199 17.9991 134.50301
-49.8629 17.7735 134.23199
-49.699501 18.5441 130.812
-50.2313 16.482 131.735
-50.297901 16.5049 131.99699
-50.351101 16.568399 132.13499
-50.437698 16.688499 132.341
-50.258598 16.4886 131.87
-50.601002 16.930599 132.612
-50.668098 17.0557 132.698
-50.526402 16.812099 132.5
-50.733398 17.197901 132.774
-50.705299 16.799601 132.099
-50.514702 16.582701 131.71001
-50.9491 17.234301 132.509
-50.8405 17.020201 132.33099
-49.7589 16.415899 132.133
-49.9319 16.5333 132.642
-49.870602 16.463699 132.49699
-50.0312 16.679501 132.89999
-49.8209 16.429701 132.317
-50.2934 17.0816 133.229
-50.230499 16.9475 133.151
-50.165798 16.829201 133.07001
-50.365398 17.2199 133.28101
-49.425201 16.6873 131.189
-50.848999 18.4161 132.405
-49.311001 17.6437 130.517
-49.4781 18.089899 130.524
-50.401501 18.9972 130.136
-50.247898 18.868401 130.631
-50.7304 18.9641 130.72301
-50.844299 19.143 130.269
-51.0406 18.6143 131.12601
-51.085701 18.8011 130.702
-50.649601 18.832001 131.13901
-49.4398 17.4471 130.492
-49.300499 17.0744 130.785
-49.5453 17.694599 130.323
-50.671501 18.577101 131.68201
-51.0037 18.179501 132.464
-50.235901 18.686701 131.097
-51.261002 17.7988 131.955
-51.102402 17.8008 132.5
-51.141499 17.542601 132.48
-51.23 17.5382 132.14799
-50.646 16.6581 131.60001
-50.477798 16.590599 131.31599
-51.095699 17.3118 132.379
-51.237598 17.3531 131.94901
-51.281101 17.953501 131.58701
-51.3274 17.569599 131.509
-51.074799 18.3307 131.76401
-51.2817 18.221701 131.02499
-51.164799 19.0126 130.27901
-49.9837 17.3311 130.118
-49.686001 17.139999 130.476
-50.053501 16.945299 130.58299
-49.713799 16.750601 130.95799
-50.1339 16.617201 131.12399
-50.492901 17.2115 130.089
-50.4221 16.8055 130.811
-50.596699 16.6926 131.14799
-50.816898 16.796801 131.274
-50.872799 16.9359 132.008
-51.063499 17.028 131.58501
-51.403301 17.787901 129.241
-51.0709 17.565701 129.78101
-50.626999 17.4457 129.666
-50.762699 17.6609 129.263
-50.159302 17.5191 129.7
-50.339401 17.7022 129.233
-49.719601 17.8426 129.89301
-49.9305 17.980301 129.35201
-49.605701 18.2393 130.145
-49.863602 18.35 129.61099
-49.811401 18.6411 130.416
-50.009102 18.740101 129.90199
-50.949699 17.312 130.218
-51.483002 17.819799 130.024
-51.279202 17.544399 130.543
-51.456799 18.1117 130.35699
-51.373001 17.845501 130.85899
-51.313599 18.4543 130.573
-49.725101 18.553801 130.763
-50.881001 16.997601 130.81799
-51.700199 19.069799 129.40401
-51.847401 18.8396 129.006
-51.373402 19.360399 129.69701
-51.3643 18.6978 130.12399
-51.677299 18.3682 129.80499
-51.018501 19.5163 129.59599
-50.726299 19.294901 129.455
-50.692799 19.267799 129.515
-50.269901 18.0294 128.85899
-50.571602 17.891399 128.593
-50.2743 18.035101 128.815
-51.021099 18.015499 128.381
-51.439499 18.311399 128.314
-50.4021 18.8468 129.407
-50.433201 18.857599 129.347
-50.2216 18.417801 129.19701
-50.235199 18.429899 129.155
-51.191601 17.24 131.10001
-51.752602 18.0804 129.45799
-51.784302 18.6068 128.565
-50.370399 17.044001 130.375
-50.053501 17.124201 130.3
-50.243698 17.073 130.347
-50.698002 17.069901 130.45
-50.486401 17.035801 130.401
-50.059101 16.759399 130.87
-50.220299 16.872601 130.67599
-49.905998 16.6702 131.048
-49.668301 16.9356 130.72701
-49.8563 16.840599 130.787
-50.419498 16.647499 131.103
-50.251499 16.6936 130.979
-51.120899 18.0245 132.16
-51.0564 18.0049 132.485
-51.184799 18.055799 131.918
-50.870701 18.431 132.054
-51.021 18.2554 132.103
-51.185902 17.637899 132.26199
-51.172901 17.7988 132.214
-51.130199 17.6539 132.5
-51.285999 17.553801 131.916
-51.187599 17.4266 132.23399
-51.246101 17.467899 132.078
-51.237499 17.2731 131.545
-51.286598 17.432301 131.744
-51.307098 17.6597 131.776
-51.250801 17.6257 132.07899
-51.0928 17.1276 131.96899
-51.0131 17.1229 132.19901
-50.864201 16.8269 131.60201
-50.9697 16.9655 131.791
-51.177101 17.186701 131.76801
-51.167099 17.303801 132.132
-50.759602 16.772301 131.78799
-50.650002 16.6703 131.325
-50.7477 16.730301 131.446
-51.009602 16.993299 131.187
-50.949699 16.897499 131.407
-50.572102 16.6166 131.437
-50.5494 16.641199 131.22
-50.6908 16.7924 131.022
-50.698002 16.724199 131.192
-50.330601 16.5858 131.218
-50.536701 16.717899 131.034
-49.877602 17.025999 130.504
-49.624298 17.402 130.36099
-49.845501 17.229401 130.30299
-50.328499 17.356701 129.867
-50.2309 17.252399 130.075
-49.525398 16.878901 130.869
-49.434601 17.1803 130.636
-49.309299 17.356899 130.629
-49.367699 17.2824 130.62399
-49.539101 17.2967 130.487
-49.569199 17.0264 130.67799
-49.436401 17.653601 130.418
-49.494301 17.565901 130.407
-49.827499 17.578699 130.01199
-49.734402 17.488701 130.215
-50.438301 18.8862 130.90199
-49.932201 18.7288 130.758
-50.177101 18.822001 130.85201
-50.442101 18.789499 131.31
-50.410702 18.8367 131.108
-50.890598 18.837099 130.922
-50.685699 18.900299 130.92101
-50.5578 19.0002 130.474
-50.496201 18.941401 130.69099
-50.9631 18.9925 130.534
-51.2388 18.7451 130.44
-51.114601 18.892599 130.508
-51.107899 19.2992 129.97301
-51.019001 19.1068 130.297
-50.779202 19.0336 130.521
-50.925701 18.912701 130.726
-50.8391 18.6513 131.422
-50.861599 18.7519 131.145
-50.6292 18.7507 131.392
-50.840401 18.5399 131.728
-51.188099 18.2929 131.373
-51.043598 18.491501 131.416
-50.787899 18.498501 132.033
-50.930099 18.310101 132.41901
-51.337002 17.884701 131.245
-51.281101 18.081499 131.31
-51.1945 18.5399 130.849
-51.184898 18.426001 131.082
-51.201401 18.1548 131.63901
-51.324402 17.7731 131.52499
-51.183601 17.5222 132.27699
-51.1385 17.4394 132.439
-49.4035 17.7885 130.47501
-49.3787 17.8848 130.504
-49.549599 17.967899 130.246
-49.493801 17.895599 130.407
-50.4566 18.6584 131.382
-49.270699 17.378799 130.63699
-49.362099 17.558001 130.495
-51.0588 18.7146 130.897
-50.726101 19.287399 129.84
-50.629299 19.096399 130.216
-50.092999 18.810101 130.319
-50.317101 18.913099 130.412
-50.345001 17.9515 128.655
-50.4202 17.935699 128.63699
-50.3727 17.9422 128.657
-50.212799 18.214399 128.99699
-50.2658 18.039801 128.817
-50.905899 19.4744 129.446
-50.912701 19.4687 129.461
-50.9128 19.473 129.44701
-50.564602 19.0868 129.414
-50.721901 19.2999 129.453
-50.308399 18.6423 129.263
-50.427101 18.858299 129.345
-50.569599 19.080799 129.425
-50.570202 19.084299 129.41499
-50.2281 18.4298 129.155
-50.316002 18.642799 129.272
-50.316101 18.6425 129.263
-50.221401 18.210501 129.00301
-50.2197 18.2134 128.99699
-50.853901 19.440901 129.53101
-50.354198 19.006701 129.672
-50.513199 19.181999 129.742
-50.932201 19.3342 129.925
-51.368099 19.036301 129.935
-51.252602 19.194099 129.985
-51.249699 19.567499 129.493
-51.194801 19.4751 129.677
-51.701801 18.7033 129.621
-51.555801 18.854401 129.787
-51.6217 19.417801 129.23399
-51.571899 19.2139 129.57899
-51.276001 18.8675 130.214
-51.681801 18.984301 128.467
-51.727001 19.212999 128.85899
-51.728401 19.104601 128.67
-51.902302 18.442801 129.194
-51.8507 18.727301 128.77299
-51.4002 18.7052 128.138
-51.5737 18.8547 128.28
-51.824299 18.5674 129.423
-51.6171 18.0837 129.931
-51.760899 18.2232 129.625
-51.758801 18.1548 128.847
-51.878502 18.307899 128.998
-51.4254 18.3986 130.25101
-51.553299 18.235201 130.089
-51.426899 17.826799 130.453
-51.520401 17.9583 130.18401
-51.457199 17.7948 129.63901
-51.597698 17.941999 129.77499
-51.327301 17.5317 130.994
-51.108898 17.256701 130.63699
-51.248501 17.3832 130.811
-51.356098 17.685801 130.716
-51.352798 17.6998 131.14999
-51.285 17.3888 131.28799
-51.132099 17.120701 131.358
-51.637798 18.4629 128.401
-50.955799 18.3794 128.069
-51.183998 18.5387 128.05901
-51.627602 17.9282 129.32201
-51.297699 17.871 128.808
-51.553299 18.005899 128.765
-50.9062 17.589399 129.52299
-51.2197 17.667299 129.547
-51.2146 17.557699 130.127
-51.326801 17.681601 129.884
-51.060299 17.1103 130.929
-50.915901 17.1507 130.509
-51.142899 17.4156 130.36501
-50.854 16.8848 131.069
-50.673698 16.9007 130.784
-50.089298 18.189899 129.2
-50.2094 18.2054 129.03999
-50.234798 18.4286 129.16299
-50.283001 18.0317 128.81799
-50.241798 17.9209 128.918
-50.130699 18.028299 129.041
-49.729801 18.0893 129.767
-49.855202 18.163 129.463
-50.149502 18.5942 129.485
-50.101299 18.388 129.35001
-49.632801 18.400801 130.487
-49.556198 18.178301 130.362
-49.6217 18.028999 130.01601
-49.6259 17.7661 130.134
-50.293999 18.631701 129.315
-50.433102 18.8578 129.356
-49.775902 18.497499 130.041
-49.903 18.555901 129.754
-50.233002 18.802601 129.59801
-49.588799 18.3549 130.631
-49.761799 18.593201 130.62199
-49.674301 18.454599 130.27901
-50.536598 19.0641 129.476
-50.730499 19.2918 129.46201
-50.188301 18.878099 130.036
-49.932301 18.6579 130.908
-50.0117 18.770599 130.53999
-51.222698 18.161501 128.31
-50.558998 18.089199 128.26801
-50.744499 18.2276 128.134
-51.088001 17.694201 129.261
-50.666401 17.7689 128.929
-50.9762 17.779699 128.911
-50.787601 17.3752 129.897
-50.844601 17.4828 129.70399
-50.998798 17.447701 129.991
-50.737701 17.2456 130.129
-50.5704 17.3449 129.85899
-50.830502 17.896999 128.50301
-50.489899 17.969299 128.44701
-50.4641 17.5481 129.465
-50.549999 17.6565 129.23199
-50.457802 17.8106 128.908
-50.077999 17.4275 129.916
-50.398399 17.4529 129.66299
-50.407398 17.937201 128.686
-50.0051 17.734699 129.552
-50.111 17.817301 129.274
-49.914799 17.6625 129.782
-51.0769 19.5893 129.437
-51.489799 19.496799 129.405
-51.329498 18.571699 130.356
-51.210499 18.6432 130.646
-51.792702 18.950899 129.213
-51.547798 18.5249 129.968
-51.361301 18.155399 130.716
-51.380402 18.280001 130.485
-51.3456 18.0268 130.95599
-51.688301 19.3158 129.045
-51.292801 18.341999 130.78999
-51.393902 17.9844 130.61099
-51.384602 17.686399 130.28
-49.902199 18.6796 130.189
-49.719601 18.289 129.896
-49.817501 17.9074 129.651
-50.241001 17.6042 129.48599
-50.682499 17.5501 129.48
-50.705799 19.3104 129.455
-50.3428 18.044001 128.39799
-50.232101 18.046 128.827
-50.884602 18.7013 127.935
-51.305801 19.0478 128.12199
-51.491501 19.348499 128.45
-51.488602 19.5695 128.785
-51.382301 19.687401 129.133
-51.090302 19.6019 129.403
-50.4119 18.8666 129.343
-50.2061 18.434401 129.15601
-50.487202 18.3512 128.082
-49.598499 20.297701 127.863
-49.3596 20.4366 127.762
-49.413399 20.568399 127.956
-49.677898 20.442499 128.09801
-48.8442 19.823299 127.555
-49.004799 19.858999 127.553
-48.8554 19.691999 127.591
-49.2085 20.4972 127.708
-49.291599 20.5618 127.824
-49.211399 20.194799 127.595
-49.049599 20.278799 127.57
-48.876999 19.9459 127.542
-49.2826 20.5466 127.869
-49.385899 20.5812 128.01401
-49.249298 20.4554 127.789
-49.268902 20.489201 127.834
-49.094398 20.233801 127.647
-49.071499 20.2598 127.651
-48.9174 19.906401 127.612
-48.8894 19.929701 127.612
-48.8265 19.810699 127.599
-48.8232 19.6828 127.64
-48.845402 19.7195 127.648
-48.834 19.3913 127.798
-48.933399 19.3953 127.751
-49.015598 19.078199 127.968
-49.189098 19.120001 127.82
-49.270599 19.193001 127.808
-49.250801 19.1605 127.816
-49.590401 18.6749 128.03999
-49.321899 19.070499 127.83
-49.753101 18.8584 127.918
-49.485901 20.594801 128.145
-49.463799 20.5529 128.069
-49.227699 20.5548 127.852
-49.005501 20.3085 127.662
-48.811699 19.946501 127.607
-48.757599 19.691799 127.661
-49.701801 20.468 128.207
-50.3577 19.914499 128.228
-50.220699 19.919001 128.15199
-49.997898 20.311899 128.345
-49.859402 19.1828 127.907
-49.298199 19.5877 128.955
-49.123402 19.1539 128.761
-49.489399 18.8405 129.021
-49.7033 19.2542 129.24001
-48.670399 19.750099 127.802
-48.722599 19.972099 127.76
-48.898899 19.1488 128.20599
-49.134899 18.8785 128.396
-48.735802 19.439501 127.99
-49.339401 20.555799 128.41499
-49.148399 20.573601 127.972
-49.0975 20.508699 128.23
-49.581402 20.457001 128.65199
-49.692299 20.5266 128.437
-49.851501 20.3018 128.85899
-49.976799 20.367701 128.606
-50.4547 20.105499 128.54401
-50.872501 19.899599 128.66499
-50.869499 19.951599 129.006
-50.447399 20.1497 128.843
-50.791698 19.7281 128.343
-50.748299 19.7904 129.351
-50.312 20.0529 129.147
-50.475101 19.401501 129.51199
-50.003101 19.694599 129.30299
-49.5639 20.0135 128.993
-49.316002 20.225901 128.742
-49.136902 20.3923 128.479
-49.951599 18.2908 128.24699
-49.863602 18.238199 128.752
-49.444 18.572599 128.56
-50.124199 18.5837 128.006
-50.313 18.9167 127.928
-49.9137 19.094 127.907
-50.180698 18.924601 129.437
-49.055199 19.8412 128.702
-48.896801 20.076599 128.425
-48.8419 20.277399 128.089
-49.941601 18.495399 129.224
-48.8811 19.421101 128.519
-48.734699 19.681101 128.252
-48.689899 19.9431 127.967
-50.597301 19.3641 128.05499
-50.234501 19.5245 128.013
-50.1492 19.561501 127.999
-48.9007 20.336399 127.827
-49.833401 19.220501 127.898
-49.940498 20.304001 128.25
-50.1754 19.9484 128.13699
-49.950699 20.2579 128.19299
-48.973701 19.425699 127.704
-50.099201 19.5972 127.972
-49.2267 19.699499 127.618
-49.449402 20.0469 127.668
-49.564701 19.437201 127.754
-49.8246 19.797199 127.808
-49.964802 20.0917 128.028
-49.202202 20.484301 127.747
-49.039101 20.267 127.608
-48.8675 19.934799 127.58
-49.341702 19.265699 127.782
-49.565899 19.139601 127.86
-49.598099 19.0378 127.862
-49.582901 19.0963 127.867
-49.366901 18.903999 127.914
-49.229801 18.8452 128.103
-49.522598 18.9694 127.866
-49.509701 18.6019 128.19701
-48.923599 19.9298 127.539
-49.110298 20.247499 127.572
-49.253201 20.477501 127.714
-50.096199 20.1094 128.192
-50.124802 20.1399 128.255
-50.193802 20.1374 128.302
-50.105999 20.132999 128.23801
-48.844002 19.765301 127.569
-48.8195 19.7598 127.613
-48.943401 19.8853 127.631
-49.124199 20.2164 127.67
-49.286201 20.443899 127.82
-49.343498 20.5791 127.891
-49.327999 20.5741 127.943
-49.2948 20.460699 127.729
-49.1516 20.224199 127.579
-48.954498 19.903099 127.542
-49.307999 18.869499 127.978
-49.105099 19.0919 127.872
-49.0546 19.486 127.674
-50.298 17.974701 128.63699
-50.818298 19.518499 129.48801
-50.890099 19.4818 129.44901
-50.479698 19.121599 129.438
-50.548599 19.097799 129.41499
-50.204399 18.664301 129.287
-50.2892 18.648199 129.263
-50.100498 18.237301 129.028
-50.190498 18.2181 128.998
-51.091801 19.4168 128.181
-51.440201 19.204 128.27499
-50.7491 19.048599 127.947
-51.114101 18.8871 127.998
-50.3951 18.6359 127.97
-50.654598 18.5268 127.99
-50.228901 18.2913 128.14301
-50.3979 18.179399 128.20399
-51.033798 19.7915 129.245
-51.245499 19.681601 129.282
-51.108601 19.839199 128.87199
-51.455502 19.6458 128.96201
-51.160599 19.693501 128.50301
-51.507702 19.468399 128.61099
-49.480598 20.558901 128.05701
-49.619499 20.5014 128.134
-49.4832 20.4764 127.914
-49.492699 20.534 128.008
-49.375999 20.5924 127.975
-49.4072 20.588699 128.002
-48.9688 20.0811 127.6
-48.889702 19.9233 127.595
-48.8335 19.8465 127.571
-48.833099 19.842501 127.59
-48.882801 19.8069 127.624
-48.8554 19.828899 127.606
-49.150902 20.378401 127.692
-49.062599 20.250099 127.627
-48.943901 20.1071 127.561
-48.946301 20.096001 127.583
-49.014099 20.055201 127.627
-49 20.066401 127.618
-49.217999 20.4673 127.765
-49.124901 20.4063 127.647
-49.126202 20.3951 127.673
-49.198002 20.349199 127.724
-49.182301 20.3613 127.712
-49.254299 20.544399 127.808
-49.253201 20.528999 127.823
-49.3078 20.5079 127.876
-49.270199 20.5182 127.843
-49.442402 19.1628 127.834
-49.433201 19.1262 127.847
-49.435799 19.142799 127.841
-49.145802 19.3179 127.749
-49.292099 19.219101 127.796
-49.4995 19.253599 127.805
-49.459801 19.191099 127.824
-49.8596 19.4907 127.845
-50.046501 19.858801 127.973
-49.9832 19.685801 127.893
-50.012699 19.362101 127.94
-49.976799 19.3943 127.918
-49.655399 19.2428 127.836
-49.739399 19.315701 127.839
-49.5247 19.7444 127.69
-49.705898 19.611601 127.765
-50.0769 20.0548 128.10899
-50.0826 19.986099 128.06599
-50.1908 19.759399 128.06799
-50.157299 19.7803 128.045
-49.718102 20.0762 127.823
-49.898499 19.960199 127.898
-50.1465 20.037201 128.174
-50.016499 20.1504 128.147
-50.053902 20.098801 128.129
-49.814899 20.284901 128.058
-49.946301 20.205601 128.12199
-49.776699 20.1954 127.936
-49.652401 20.3799 127.99
-49.831299 20.3773 128.202
-49.8339 20.347601 128.158
-48.864799 19.943701 127.561
-48.8568 19.8442 127.548
-48.845001 19.8556 127.547
-48.825401 19.779499 127.592
-48.826599 19.805099 127.585
-49.036499 20.277901 127.586
-48.985802 20.094299 127.541
-48.955399 20.108 127.543
-49.197899 20.496401 127.727
-49.167 20.3918 127.631
-49.138 20.406401 127.629
-49.2644 20.549101 127.786
-49.317101 20.580799 127.905
-49.287498 20.564301 127.864
-48.857101 19.579399 127.654
-48.8829 19.5777 127.636
-49.0993 19.2801 127.771
-48.9515 19.4123 127.722
-48.8419 19.5891 127.673
-48.8241 19.7157 127.608
-48.8302 19.6803 127.619
-49.831902 20.388901 128.24899
-49.832802 20.384399 128.229
-50.036098 20.2083 128.245
-49.945099 20.2869 128.226
-49.7038 20.453699 128.162
-49.373501 20.2822 127.693
-49.532799 20.1866 127.753
-49.6357 19.9277 127.735
-49.1842 19.975599 127.578
-49.343102 19.870199 127.626
-49.2724 19.434401 127.709
-49.396599 19.573299 127.681
-49.114899 19.293501 127.761
-49.0065 19.437799 127.694
-49.200298 19.3654 127.732
-49.290298 20.1469 127.615
-49.263302 20.3445 127.655
-49.296001 20.3277 127.666
-49.438999 20.3911 127.799
-49.080399 19.807699 127.571
-49.075001 20.044399 127.555
-49.105701 20.026501 127.561
-49.5928 20.5182 128.161
-49.597801 20.507401 128.149
-48.914799 19.6045 127.62
-50.174301 20.0387 128.207
-50.0396 20.225 128.27499
-50.111 20.1371 128.24899
-50.214401 20.0383 128.224
-50.190102 20.041201 128.213
-50.201199 19.922001 128.147
-50.1619 20.043301 128.202
-50.231899 19.7474 128.08
-50.208698 19.755199 128.07201
-50.136398 19.567801 128
-50.0415 19.3375 127.943
-50.0252 19.351601 127.941
-49.7127 19.126301 127.889
-49.853699 19.1961 127.909
-50.104801 20.1266 128.226
-49.835701 20.439899 128.388
-49.8526 20.396799 128.291
-49.9431 20.305599 128.274
-48.839699 19.539301 127.705
-48.858501 19.5952 127.683
-48.850899 19.741301 127.634
-48.848999 19.702801 127.648
-49.3652 20.564501 127.969
-49.371799 20.5403 127.971
-49.339298 20.5383 127.937
-49.3568 20.5434 127.959
-50.845299 19.820601 128.504
-50.484402 19.6633 128.13901
-50.572601 19.8241 128.295
-48.880402 19.205799 127.989
-48.730499 19.5562 127.789
-48.782799 19.3971 127.874
-48.979099 19.2041 127.85
-48.934399 19.194201 127.903
-48.662701 19.6933 128
-48.7677 20.006599 128.19
-48.694099 19.827101 128.10699
-48.685001 19.908899 127.81
-48.658699 19.827101 127.89
-48.684898 19.6038 127.887
-48.772999 19.3855 128.25
-48.703701 19.5355 128.12399
-48.7229 19.8265 127.675
-48.689999 19.859501 127.753
-48.768799 20.152599 127.896
-48.706699 19.9932 127.853
-49.267502 19.1073 127.821
-49.292999 19.023399 127.853
-49.257599 19.085501 127.824
-49.085602 19.241301 127.792
-49.208401 19.145399 127.813
-49.439999 19.088301 127.845
-49.306499 19.109501 127.826
-49.443401 19.0581 127.841
-49.439899 19.1089 127.847
-49.728699 19.087999 127.886
-49.586601 19.076099 127.866
-49.775299 20.442301 128.647
-49.816399 20.456699 128.519
-50.213402 20.2481 128.58299
-49.993301 20.3514 128.464
-49.592999 20.569901 128.248
-49.708401 20.514 128.321
-49.5317 20.5679 128.44701
-49.5742 20.585199 128.342
-49.597099 20.5462 128.19501
-50.419899 20.018 128.394
-50.2677 20.042299 128.265
-48.9771 20.4583 128.006
-48.859501 20.323099 127.948
-48.844898 20.1446 127.68
-48.799198 20.155001 127.78
-48.754902 20.108101 128.032
-49.253502 20.5973 128.18401
-49.1133 20.549299 128.086
-49.068501 20.478399 127.801
-49.018501 20.4795 127.891
-48.9636 20.345501 128.302
-48.9575 20.4133 128.14799
-50.151901 20.246099 128.869
-50.1964 20.2617 128.724
-50.688099 20.0501 128.77499
-50.466999 20.145 128.696
-50.212101 20.2197 128.451
-50.620899 20.0123 129.11
-50.398102 19.7505 129.367
-50.534698 19.916401 129.26401
-50.8293 19.900299 129.19099
-50.667702 20.0513 128.937
-50.4002 20.128099 129.00101
-49.0588 18.9701 128.15199
-48.955502 19.092699 128.07201
-48.808498 19.280701 128.10001
-49.183601 20.575001 127.903
-49.145 20.423901 127.717
-49.115398 20.4571 127.74
-48.953098 20.3295 127.727
-50.307598 19.724501 128.09599
-50.1698 19.5515 128.007
-50.248299 19.913401 128.16299
-50.2575 19.239 127.95
-50.387001 19.4548 128.034
-50.710899 19.571199 128.189
-50.944401 19.231501 128.049
-51.153599 19.573099 128.339
-48.939701 20.1094 127.603
-48.8969 20.125999 127.617
-48.764198 19.960699 127.664
-50.103199 19.3081 127.942
-49.878601 19.161301 127.909
-50.4585 19.1493 127.965
-50.012798 18.857401 127.936
-50.1171 19.016701 127.921
-50.512001 18.831301 127.932
-48.975498 19.1266 128.48
-48.863701 19.2584 128.37
-48.8731 19.743601 128.494
-48.797001 19.5464 128.39
-49.054001 19.500999 128.754
-48.9837 19.291599 128.64301
-49.006901 19.018801 128.30499
-49.265701 18.8326 128.69299
-49.1092 18.982901 128.588
-49.373798 19.207001 129.02299
-49.2934 19.0026 128.895
-49.306702 18.705999 128.29601
-49.275902 18.726101 128.48
-49.654701 18.507 128.90601
-49.4487 18.677099 128.80299
-49.887798 18.337 129.006
-49.8009 18.8608 129.272
-49.702202 18.6658 129.13
-49.673401 18.3997 128.414
-49.645699 18.407 128.65401
-50.1194 18.4473 129.17999
-50.115898 18.0837 128.591
-50.092701 18.096201 128.849
-48.807701 19.869801 128.353
-48.852798 20.1922 128.255
-48.950699 19.624001 128.631
-49.084702 20.1558 128.60201
-48.970699 19.9582 128.567
-49.192501 19.363501 128.882
-49.2789 19.940701 128.86
-49.159199 19.7246 128.821
-50.0425 18.696699 129.358
-50.086899 19.306299 129.41701
-49.935299 19.0774 129.35699
-49.580002 19.0382 129.158
-50.3372 18.8897 129.366
-49.0084 20.2561 128.465
-49.173302 20.5142 128.35201
-49.0858 20.4541 128.339
-49.174801 20.050301 128.735
-49.358799 20.433201 128.599
-49.218899 20.314699 128.617
-49.615898 19.6493 129.149
-49.422699 19.8085 128.992
-49.573601 20.284599 128.834
-49.4203 20.1313 128.86301
-49.843201 19.475 129.293
-49.929401 20.051901 129.101
-49.7645 19.862801 129.153
-49.483101 19.4265 129.10201
-50.240101 19.538401 129.422
-50.334202 19.1563 129.505
-50.638699 19.341 129.485
-49.546501 18.847099 127.929
-49.6143 18.913401 127.89
-50.203098 18.7397 127.952
-49.8466 18.6001 128.03
-49.927601 18.724701 127.966
-49.829201 18.9685 127.901
-50.309799 18.457899 128.03799
-50.037498 18.436399 128.091
-49.7356 18.4797 128.162
-49.770401 18.5156 128.108
-49.674599 18.749901 127.972
-50.169201 18.146 128.326
-49.888199 18.2285 128.505
-49.470001 18.563801 128.358
-49.708401 18.447599 128.233
-49.2584 20.486601 128.47301
-49.215599 20.558001 128.29601
-49.4655 20.363199 128.71899
-49.462799 20.516701 128.53999
-49.716499 20.191 128.948
-49.698502 20.3899 128.755
-50.1698 19.898199 129.24899
-50.069401 20.187901 129
-50.615002 19.6206 129.457
-50.9519 19.6745 129.405
-49.9342 20.3556 128.742
-51.0742 19.8475 129.05901
-51.149601 19.780399 128.683
-50.886002 19.947701 128.83501
-50.6674 20.003401 128.608
-49.282101 20.6127 128.052
-49.347198 20.597099 127.996
-49.653801 20.508801 128.55299
-49.3992 20.603201 128.31799
-48.708302 19.7055 127.717
-48.783901 19.5432 127.725
-48.811798 19.816601 127.611
-48.767799 19.813 127.621
-50.061401 20.235001 128.29401
-50.148399 20.1332 128.26401
-48.878502 19.3983 127.763
-48.8064 19.6989 127.645
-49.474499 20.5658 128.089
-48.855499 19.9391 127.596
-48.8764 19.8123 127.627
-48.8479 19.8221 127.625
-49.043301 20.2841 127.643
-49.0023 20.070499 127.626
-48.971901 20.0917 127.615
-49.2495 20.5187 127.827
-49.198601 20.3661 127.73
-49.165501 20.392799 127.719
-49.447899 18.9182 127.896
-49.475498 18.7995 127.966
-49.176899 18.840099 128.23
-49.398899 18.752399 128.065
-49.3573 18.7302 128.15401
-49.0742 19.222601 127.797
-49.092899 19.2651 127.784
-49.018501 19.213301 127.821
-49.1632 18.9664 127.967
-49.064999 19.083099 127.907
-48.870899 19.819799 127.552
-48.8447 19.7931 127.562
-48.824902 19.7519 127.597
-48.823101 19.7904 127.605
-48.8992 19.7978 127.634
-48.929298 19.8932 127.623
-49.026901 20.050501 127.637
-49.110699 20.2211 127.658
-49.213799 20.3452 127.735
-49.267101 20.4461 127.803
-49.332802 20.5098 127.903
-49.306198 20.564899 127.911
-49.341702 20.589199 127.936
-49.3097 20.5383 127.81
-49.320202 20.5748 127.863
-48.8857 19.7708 127.564
-48.976398 19.885599 127.546
-49.035301 20.070499 127.547
-49.049599 20.057699 127.55
-49.179001 20.2124 127.587
-49.215801 20.367001 127.641
-49.234798 20.3561 127.645
-49.361401 20.529699 127.845
-49.324501 20.4508 127.745
-49.380001 20.577801 127.928
-49.399502 20.5184 127.871
-49.3312 20.5362 127.824
-48.8465 19.733299 127.58
-48.8769 19.8002 127.556
-48.901001 19.735901 127.574
-49.115398 19.558201 127.648
-49.411301 19.321501 127.767
-49.701801 19.15 127.88
-49.5746 19.23 127.826
-49.576801 19.114201 127.869
-49.717701 19.1115 127.886
-49.737301 19.052601 127.885
-49.114799 18.9613 128.03799
-49.273998 18.8563 128.02299
-49.241901 18.9848 127.896
-49.2024 18.9736 127.927
-49.423 19.0205 127.846
-49.4333 18.7752 128.007
-49.549999 18.635201 128.10699
-48.902699 19.9403 127.54
-48.863098 19.8346 127.549
-49.0816 20.2631 127.569
-49.0126 20.081499 127.544
-49.231098 20.4888 127.709
-49.1926 20.3766 127.633
-49.285099 20.5424 127.795
-50.0364 20.184099 128.211
-50.034401 20.2194 128.263
-50.0476 20.231199 128.283
-50.092201 20.2321 128.323
-48.817699 19.7202 127.626
-48.861801 19.7481 127.637
-48.919201 19.905001 127.621
-49.108002 20.235201 127.664
-49.2742 20.466801 127.818
-49.3578 20.5802 127.982
-48.942699 19.917 127.54
-49.135502 20.2363 127.577
-49.2743 20.469 127.721
-49.273201 19.002001 127.871
-49.150902 19.098801 127.844
-49.330002 18.8846 127.944
-49.260399 19.1759 127.815
-50.630501 19.9214 128.451
-49.9594 20.3146 128.293
-49.703602 20.460899 128.189
-49.709599 20.486799 128.242
-49.443001 20.6178 128.214
-48.872101 19.787701 127.623
-48.878502 19.7624 127.635
-48.936699 19.395901 127.739
-48.9053 19.3988 127.752
-48.9618 19.320801 127.777
-48.881199 19.2873 127.853
-48.837898 19.279699 127.942
-48.921101 19.305901 127.805
-49.661999 18.9646 127.881
-49.391499 18.959 127.879
-48.969898 19.663099 127.604
-53.236599 21.443501 133.54601
-53.397099 21.2658 132.957
-53.0774 21.388599 132.608
-52.8894 21.5756 133.091
-52.737202 21.2915 132.16701
-52.8433 20.023199 134.397
-52.810902 20.358601 134.713
-52.768101 20.6313 134.858
-52.9179 19.7638 134.05099
-52.133499 20.678499 131.884
-52.676399 19.503901 132.79601
-53.2099 21.2439 132.15601
-53.508999 21.1238 132.459
-52.6479 19.382099 133.491
-53.294998 19.842699 133.46201
-52.426498 21.7383 134.078
-52.730499 21.6117 134.229
-52.464901 21.368 134.823
-52.302799 21.524599 134.64301
-52.954201 21.224501 131.87
-52.595001 21.033899 131.62
-52.227402 20.5888 131.558
-53.883701 19.3195 131.12399
-53.532101 19.055799 130.713
-53.974701 19.253799 130.88
-54.383202 19.686501 130.69901
-54.180401 19.8048 131.25
-54.361801 20.1572 130.47099
-54.250702 20.343901 131.05901
-54.215199 20.565901 130.284
-54.055099 20.739599 130.85699
-53.882999 20.818501 130.16701
-53.685299 20.9009 130.66
-53.496399 20.7789 129.98199
-53.3867 20.879801 130.495
-52.9342 19.4624 132.27901
-52.844501 19.5161 132.586
-52.387199 19.637899 132.34399
-52.442501 19.595699 132.004
-53.315498 19.7612 132.966
-53.619301 20.355801 133.203
-53.501801 20.5947 133.923
-53.617199 20.9582 133.162
-53.485199 21.167299 133.698
-54.333199 19.4505 130.186
-54.077301 19.1528 130.517
-53.609798 19.081301 130.69901
-53.1483 19.427601 130.784
-54.159599 20.3286 129.791
-54.1777 19.815701 129.72099
-53.953201 20.212 129.504
-53.613701 20.5368 129.537
-53.843102 20.6807 129.786
-53.2915 20.6584 129.8
-53.145199 20.649599 130.15401
-52.9561 19.852699 130.645
-52.9953 19.866199 130.722
-53.138599 20.6036 130.056
-52.089001 20.1549 132.015
-52.927601 20.290899 130.388
-52.967602 20.3144 130.48199
-53.6731 20.174101 132.73
-53.3993 19.6621 132.577
-52.185398 20.0702 131.69901
-53.6474 19.493299 131.836
-53.926601 19.975901 131.974
-53.714401 20.775499 132.683
-53.937099 20.5219 131.881
-53.758801 20.9319 131.662
-53.230202 21.0455 131.19299
-53.504398 21.0672 131.39999
-52.832001 20.8454 130.991
-53.02 20.6642 130.32401
-52.453499 20.441299 130.89799
-52.747398 20.255699 130.21001
-52.444401 19.9083 131.007
-52.772499 19.753599 130.351
-52.699402 19.4527 131.282
-53.006001 19.2866 130.52
-53.206902 19.288099 131.59599
-54.139999 19.2922 129.884
-54.273102 19.9149 130.04401
-53.2071 20.9205 134.539
-52.974701 21.012899 134.765
-52.9123 21.2827 134.71001
-53.259998 21.299601 134.321
-52.785599 21.459499 134.56799
-53.054001 21.499399 134.183
-52.556 21.1789 134.94
-52.677502 20.8876 134.952
-52.5658 19.371099 133.119
-52.996101 19.6304 133.48
-52.698502 19.443199 133.22701
-52.677502 21.214199 131.899
-52.991901 21.315701 132.229
-52.855099 21.281099 132.058
-52.917099 21.072001 131.44099
-52.786098 21.1584 131.73
-52.306 20.8881 131.745
-52.484699 21.0898 131.785
-52.603901 21.2568 132.015
-52.5 20.7563 131.27
-52.3918 20.833401 131.563
-52.100498 20.3908 131.814
-52.166401 20.6427 131.763
-52.236801 20.9098 131.853
-53.2943 21.2847 132.577
-53.1227 21.312401 132.401
-53.2309 21.170799 131.683
