# .PCD v.7 - Point Cloud Data file format
VERSION .7
FIELDS x y z
SIZE 4 4 4
TYPE F F F
COUNT 1 1 1
WIDTH 1607
HEIGHT 1
VIEWPOINT 0 0 0 1 0 0 0
POINTS 1607
DATA ascii
-7.43222 -46.642899 105.477
-7.4158101 -46.715801 105.028
-7.3684802 -46.827999 104.489
-5.3575501 -43.801998 107.898
-5.5555501 -43.3638 107.477
-5.6145101 -43.071701 107.165
-6.1915598 -43.212799 107.456
-6.20892 -42.977001 107.023
-6.2369399 -42.704201 106.706
-6.27003 -43.342098 108.022
-5.5438499 -43.946499 108.339
-4.7943802 -44.464001 108.006
-5.0620198 -44.639301 108.352
-5.3757701 -44.7705 108.964
-4.4142399 -45.148201 107.831
-4.8020401 -45.3937 108.186
-5.2023301 -45.548599 108.788
-5.8207798 -45.333302 111.04
-5.54953 -45.500801 109.872
-5.9935899 -44.6017 111.182
-5.7049298 -44.7341 110.033
-5.1490698 -46.247898 108.66
-5.4835701 -46.115299 109.752
-5.74265 -45.8904 110.892
-5.1858702 -46.830399 108.481
-5.5050998 -46.5947 109.565
-5.7586999 -46.308899 110.661
-5.8748102 -46.652 110.271
-5.6245599 -46.976501 109.186
-5.3020601 -47.279598 108.11
-4.3666601 -47.0509 107.356
-4.3206701 -46.099899 107.648
-4.8122101 -46.988701 107.757
-4.7481999 -46.234299 108
-8.4697304 -43.0443 108.855
-9.2671099 -43.134998 108.115
-8.6795301 -43.1343 109.875
-9.5401201 -43.243599 109.086
-9.8521099 -43.252602 107.821
-7.2149601 -44.712898 115.1
-7.4604301 -44.532299 115.61
-7.7372599 -44.381302 115.834
-7.2992301 -44.6437 114.795
-7.4939299 -44.4771 115.278
-7.7037401 -44.3452 115.488
-8.02036 -44.2006 115.632
-8.3137503 -44.0219 115.09
-7.9219499 -44.197498 115.297
-8.1594 -44.049 114.79
-10.6116 -44.3825 105.356
-10.9475 -43.913601 106.973
-10.535 -44.107498 104.859
-10.9316 -43.793701 106.791
-5.0992098 -43.762699 107.726
-4.5633402 -44.319401 107.739
-4.8842402 -43.7225 107.544
-5.3759899 -43.2589 107.308
-9.4713802 -44.563202 104.126
-9.2534103 -44.373299 103.973
-9.9344597 -44.2645 105.52
-9.6123695 -44.159199 105.366
-10.0961 -43.983601 106.971
-9.5585804 -43.918999 107
-8.2167702 -45.155998 103.028
-8.1498899 -44.826099 103.144
-8.8253002 -44.8041 103.099
-8.6881905 -44.5303 103.066
-7.8081002 -45.741199 104.292
-7.4035702 -46.3106 105.674
-7.79217 -45.4062 104.434
-7.4239502 -45.987999 105.828
-6.3098502 -46.620701 106.493
-6.4305 -46.225498 106.586
-6.81321 -46.918499 105.987
-6.8067498 -46.597801 106.156
-6.8784099 -46.260101 106.313
-6.2500801 -46.423199 107.556
-6.4165301 -46.116699 108.871
-6.3612499 -45.964298 107.483
-6.5345201 -45.5481 108.693
-7.4829102 -44.4515 114.349
-7.3674598 -44.570801 114.54
-7.5805202 -44.361301 114.783
-7.5218101 -44.427399 115.009
-7.6608901 -44.299099 115.013
-7.67591 -44.315701 115.205
-7.8625002 -44.147499 114.246
-7.7459002 -44.234001 114.778
-8.02456 -44.071899 114.526
-7.8389201 -44.198002 115.019
-7.6180501 -44.331299 114.212
-9.3823299 -43.708599 101.279
-9.8214102 -43.980202 102.538
-9.6776896 -43.673199 102.393
-10.3712 -43.849998 104.54
-10.7755 -43.6632 106.638
-10.1563 -43.6105 104.368
-10.5158 -43.520599 106.506
-7.3881102 -43.9319 115.777
-5.6018801 -48.611 106.293
-5.5177598 -48.067902 106.75
-5.9899101 -48.203999 105.947
-5.8847399 -47.726601 106.361
-6.4109902 -47.701401 105.496
-6.3014302 -47.337101 105.896
-5.1943798 -48.7202 106.457
-4.6751399 -48.594101 106.546
-5.1023302 -48.021099 107.032
-4.4692898 -47.806499 107.001
-4.9240799 -47.563202 107.414
-6.8629799 -47.033298 105.56
-6.8954301 -47.245201 105.066
-9.4841805 -43.822201 108.342
-9.2240801 -43.769501 109.469
-9.9741297 -43.834599 108.251
-9.6635303 -43.768101 109.408
-10.3069 -43.795898 108.275
-10.0046 -43.720798 109.438
-8.9112301 -43.750301 110.541
-8.6249905 -43.758801 111.525
-9.3132496 -43.7286 110.524
-8.9851398 -43.720798 111.545
-9.6648197 -43.677399 110.57
-9.3312702 -43.6717 111.613
-10.5659 -43.752899 108.313
-10.2739 -43.6698 109.474
-10.7709 -43.7127 108.334
-10.4899 -43.625401 109.503
-9.9453297 -43.624901 110.615
-9.6139002 -43.620098 111.682
-10.1718 -43.578098 110.652
-9.8446999 -43.571301 111.742
-10.9133 -43.670799 108.332
-10.6527 -43.587399 109.52
-10.9335 -43.620098 108.295
-10.695 -43.548599 109.487
-10.3495 -43.537399 110.672
-10.0122 -43.526402 111.806
-10.3995 -43.498901 110.623
-10.7837 -43.5527 108.222
-10.5575 -43.500099 109.389
-10.5125 -43.465199 108.134
-10.2806 -43.4333 109.334
-10.3038 -43.4618 110.369
-10.1242 -43.424702 110.134
-6.4203601 -46.283501 110.073
-6.48 -45.927299 110.757
-6.5401101 -45.801701 109.852
-6.6177001 -45.5047 110.561
-6.66151 -45.282299 109.677
-6.75422 -45.0504 110.414
-6.56042 -45.606899 111.362
-6.6730499 -45.3713 112.004
-6.6965799 -45.267399 111.208
-6.7957501 -45.108898 111.875
-6.82967 -44.919498 111.111
-6.9138598 -44.861698 111.81
-6.1561098 -46.468102 110.671
-6.2248001 -46.0877 111.316
-6.2915602 -46.495201 110.339
-6.3452001 -46.105801 111.004
-6.3250098 -45.8153 111.907
-6.4577799 -45.6269 112.546
-6.4320102 -45.783199 111.59
-6.5563202 -45.550499 112.222
-5.93887 -46.007999 111.444
-6.0796399 -45.75 112.051
-6.0260701 -46.289398 111.072
-6.1319199 -45.9655 111.693
-6.2179198 -45.5769 112.687
-6.3598599 -45.441002 113.357
-6.2519598 -45.7505 112.306
-6.3892899 -45.596901 112.963
-6.0165801 -45.133598 111.875
-6.1757598 -44.9492 112.507
-5.9318199 -45.642502 111.697
-6.0843201 -45.424999 112.313
-6.33708 -44.8078 113.146
-6.5011401 -44.6912 113.784
-6.2332802 -45.269402 112.957
-6.3839798 -45.1399 113.621
-6.5701499 -43.8032 112.023
-6.7547302 -43.736401 112.643
-6.2093401 -44.455898 112.019
-6.3875299 -44.323299 112.656
-6.9412498 -43.678101 113.236
-7.1222 -43.6432 113.801
-6.56885 -44.2145 113.278
-6.7476401 -44.132401 113.875
-7.91892 -43.191399 111.264
-8.0311403 -43.237 111.774
-7.1499 -43.377201 111.773
-7.3044901 -43.377201 112.348
-8.1466398 -43.276001 112.258
-7.46206 -43.3755 112.896
-7.6220002 -43.3867 113.453
-9.5586004 -43.293098 109.896
-9.6191998 -43.330601 110.253
-8.7939901 -43.198898 110.562
-8.8752403 -43.2514 110.999
-9.6711597 -43.362999 110.546
-8.9615602 -43.297699 111.394
-9.9176302 -43.372601 109.905
-10.022 -43.355499 109.117
-10.1992 -43.360401 108.006
-10.2011 -43.362598 106.382
-9.9072199 -43.361599 104.261
-9.51091 -43.3311 102.335
-9.2334404 -43.240398 101.255
-9.0982304 -43.032398 100.818
-7.2793798 -43.646099 114.304
-7.4275899 -43.663399 114.739
-6.9112 -44.074799 114.401
-7.0645599 -44.028198 114.878
-6.6620002 -44.575199 114.37
-6.82547 -44.451099 114.916
-7.5212898 -43.692501 115.064
-7.2242699 -43.978699 115.331
-7.0014 -44.317902 115.434
-6.5356698 -44.993599 114.253
-6.6914101 -44.827099 114.853
-6.5039701 -45.284698 114.024
-6.6493502 -45.101101 114.677
-6.8625798 -44.649799 115.428
-6.8070102 -44.9007 115.306
-6.5338898 -45.437599 113.672
-6.6796298 -45.244999 114.393
-6.6056499 -45.467602 113.287
-6.7579999 -45.277699 114.062
-6.8340998 -45.014099 115.078
-6.9165502 -45.0224 114.783
-6.70333 -45.395199 112.97
-6.86022 -45.226501 113.754
-6.8128901 -45.2379 112.74
-6.9674101 -45.104801 113.499
-7.0222502 -44.972401 114.471
-7.12674 -44.881401 114.191
-6.9224 -45.0243 112.593
-7.0650201 -44.932899 113.312
-7.0261798 -44.827301 112.508
-7.1503901 -44.773201 113.176
-7.2122502 -44.764599 113.971
-7.2812099 -44.659302 113.745
-8.4134102 -43.792198 112.359
-8.2532301 -43.8536 113.078
-8.7082596 -43.759998 112.411
-8.4675903 -43.838001 113.179
-9.0156898 -43.725899 112.51
-8.71521 -43.818298 113.319
-8.0942202 -43.956799 113.687
-8.2407904 -43.9436 113.901
-8.4265499 -43.9244 114.099
-9.2812595 -43.68 112.627
-8.9503899 -43.778301 113.498
-9.5039797 -43.631302 112.737
-9.1559 -43.730499 113.674
-8.6254301 -43.886299 114.343
-8.8079395 -43.842201 114.584
-9.6615496 -43.586899 112.848
-9.3043499 -43.687599 113.812
-9.5924501 -43.5345 113.095
-9.2992496 -43.632999 113.952
-8.9340096 -43.800201 114.753
-8.9244204 -43.7244 114.814
-7.7645001 -43.426899 114.02
-7.87535 -43.500801 114.569
-9.0758896 -43.5625 114.112
-8.1415997 -44.919201 103.56
-8.1455202 -45.128399 104.106
-8.5582199 -44.603699 103.308
-8.4446402 -44.794102 103.718
-8.9928198 -44.395901 103.973
-8.7546101 -44.5098 104.129
-7.8719802 -45.462299 104.832
-7.56914 -45.954102 106.163
-7.9627199 -45.5937 105.293
-7.7334099 -45.958199 106.589
-6.6241598 -45.9636 106.831
-6.7963099 -45.767101 107.073
-7.0662398 -46.101898 106.628
-7.2354598 -45.9814 106.942
-6.4963102 -45.682701 107.451
-6.5761399 -45.384701 108.202
-6.6177402 -45.4991 107.45
-6.63377 -45.265999 107.938
-9.2453203 -44.134602 105.17
-8.9113998 -44.1716 105.107
-9.1413202 -43.887299 106.442
-8.7843103 -43.895302 106.202
-6.87602 -45.391499 107.162
-6.7873602 -45.223801 107.324
-6.74259 -45.086498 107.571
-7.1514902 -45.421501 107.129
-7.0588999 -45.121399 107.245
-6.9974298 -44.898701 107.421
-7.5064902 -45.412498 107.079
-7.43015 -44.990398 107.12
-7.3831301 -44.596901 107.275
-7.94733 -45.236 106.426
-8.1094398 -44.7407 106.306
-8.3344498 -44.309898 106.201
-8.0529099 -45.094601 105.586
-8.2568102 -44.7295 105.5
-8.50455 -44.431801 105.38
-8.1301603 -44.973099 104.847
-8.3148699 -44.777599 104.706
-8.5092402 -44.601299 104.727
-6.85464 -45.561501 107.155
-7.2341199 -45.737801 107.092
-7.6268802 -45.7766 107.026
-6.6816101 -45.354 107.392
-6.6557102 -45.208698 107.68
-8.1286297 -45.1082 104.536
-7.9962401 -45.436199 105.523
-7.8829598 -45.673901 106.536
-8.6050701 -44.574402 104.409
-8.6917696 -44.260101 105.205
-8.5384703 -44.026501 106.147
-8.3667297 -44.8358 104.165
-7.7831802 -45.3755 106.912
-7.8168502 -44.848999 106.835
-7.92838 -44.382999 106.825
-6.7505102 -45.1423 107.963
-6.7793102 -45.041599 107.926
-6.8471498 -44.8951 107.876
-6.70858 -45.115299 107.767
-6.7860699 -44.998001 107.699
-7.5191998 -44.384499 113.096
-7.40098 -44.522701 113.101
-7.3390002 -44.587399 113.098
-7.5042701 -44.4245 113.68
-7.3837399 -44.5462 113.632
-6.6987 -45.177502 107.972
-6.69416 -45.186501 108.334
-6.69416 -45.165501 108.91
-6.81528 -45.032101 108.887
-7.2568498 -44.651001 113.121
-7.0212302 -44.720001 111.774
-7.12323 -44.710499 112.461
-7.12779 -44.660301 111.732
-7.2292199 -44.652 112.433
-6.8896298 -44.779499 110.318
-6.9544902 -44.715599 111.052
-7.0338101 -44.655399 110.253
-7.0858898 -44.624699 111.012
-6.7953601 -44.966499 109.596
-6.9333501 -44.8283 109.518
-7.1155901 -44.455399 108.646
-6.9546299 -44.706402 108.177
-7.05795 -44.681702 108.706
-6.8961401 -44.9007 108.236
-7.0106902 -44.878799 108.748
-6.8590002 -45.055 108.274
-7.5089798 -44.340099 112.432
-7.50669 -44.256001 111.705
-7.4342899 -44.468399 112.43
-7.43961 -44.410801 111.716
-7.3420701 -44.5891 112.424
-7.3599901 -44.555199 111.703
-7.5181999 -44.136002 110.909
-7.4738202 -44.0909 110.09
-7.4488702 -44.312302 110.934
-7.40271 -44.2887 110.128
-7.3648 -44.479599 110.952
-7.32164 -44.4762 110.159
-7.3164902 -44.218201 109.307
-7.2516999 -44.439602 109.358
-7.1863799 -44.6432 109.397
-6.7926502 -45.119701 108.323
-6.9245701 -44.9743 108.803
-7.1895199 -44.581799 110.2
-7.07341 -44.753201 109.449
-7.2514601 -44.623901 111.738
-7.2343402 -44.569302 110.982
-7.1614799 -44.675098 107.497
-6.9576602 -44.826099 107.583
-7.13903 -44.627399 107.687
-6.98487 -44.736599 107.775
-7.2149801 -44.4645 107.983
-7.0756302 -44.543499 108.076
-7.3594098 -44.243801 108.46
-7.22856 -44.2943 108.549
-7.57796 -43.9692 110.033
-7.69732 -43.946499 109.982
-7.42627 -44.0741 109.227
-7.5524802 -44.042099 109.153
-7.5861101 -44.1614 111.684
-7.6789398 -44.138199 111.666
-7.6094699 -44.0299 110.874
-7.7154398 -44.009499 110.842
-7.6112499 -44.2999 113.107
-7.7073398 -44.254299 113.075
-7.5875702 -44.255501 112.421
-7.6757898 -44.2257 112.406
-7.6350398 -44.308701 113.705
-7.7715201 -44.230598 113.658
-7.6398301 -44.194801 107.3
-7.8178 -43.938702 107.456
-8.1120701 -44.023102 106.859
-8.3296204 -43.817799 106.999
-8.5873604 -43.771702 107.292
-7.9679098 -43.852901 107.755
-8.7987499 -43.7803 107.822
-8.1057997 -43.809299 108.254
-7.9767599 -44.039902 113.569
-8.0987997 -43.902401 113.084
-8.00424 -43.9897 113.098
-8.0308199 -43.9361 112.403
-8.18503 -43.841702 112.376
-8.0805702 -43.863201 111.652
-8.3104601 -43.7883 111.581
-8.1746597 -43.7644 110.796
-8.50109 -43.732899 110.663
-8.2416201 -43.705399 109.885
-8.6960201 -43.708302 109.673
-8.2109003 -43.740501 108.997
-8.8163996 -43.739498 108.691
-7.5014901 -44.2318 107.622
-7.3533401 -44.491501 107.652
-7.6019101 -44.138 107.924
-7.4331698 -44.407902 107.944
-7.7283902 -44.046799 108.408
-7.5683799 -44.275501 108.422
-7.25246 -44.588299 107.645
-7.3252201 -44.474201 107.944
-7.4657698 -44.2962 108.423
-7.8898602 -43.925098 109.118
-7.7562799 -44.1077 109.124
-8.0041504 -43.8549 109.966
-7.8983402 -44.004299 109.964
-7.6593599 -44.1068 109.123
-7.8049502 -44.002102 109.96
-8.0013399 -43.9095 110.842
-7.91149 -44.0453 110.834
-7.9516001 -44.016499 111.673
-7.86974 -44.147999 111.663
-7.8195601 -44.051201 110.829
-7.7782798 -44.165001 111.658
-7.93606 -44.086498 112.415
-7.86199 -44.211102 112.401
-7.9397998 -44.113098 113.094
-7.8798399 -44.216202 113.092
-7.77279 -44.2365 112.403
-7.8027101 -44.2435 113.088
-7.88588 -44.173599 113.568
-7.3316598 -44.495399 107.478
-0.69036001 -70.577003 92.783997
-0.82929701 -70.344704 92.7248
-1.01126 -70.049896 92.684303
-0.61680502 -70.587997 92.521698
-0.75880301 -70.401497 92.441399
-0.54249001 -70.555099 92.249496
-0.397376 -70.619003 92.127197
-0.30264199 -70.623901 92.065903
-0.53854299 -70.692398 92.507004
-0.44009501 -70.772102 92.447998
-0.34587699 -70.783798 92.389503
-0.57849097 -70.871803 92.847504
-0.50314403 -70.952797 92.810097
-0.39734 -70.984001 92.757202
-0.507038 -71.384697 93.488998
-0.65463001 -71.2966 93.524803
-0.742176 -71.142799 93.536003
-0.45273 -71.197899 93.133698
-0.57672101 -71.134697 93.180496
-0.65463197 -71.009598 93.200798
-0.69599301 -71.426102 94.690598
-0.64384699 -71.551399 94.388
-0.60070199 -71.565804 94.094704
-0.36391899 -71.459999 94.705704
-0.33965001 -71.585602 94.380501
-0.32560199 -71.603104 94.054901
-1.07526 -71.297302 94.070801
-0.85673702 -71.255203 93.812599
-0.82341099 -71.474899 94.083504
-0.73506498 -71.416298 93.819397
-0.55621099 -71.508499 93.803101
-0.98950499 -71.336403 94.639397
-1.33824 -71.171997 94.574303
-0.903054 -71.4636 94.3536
-1.19488 -71.3078 94.292397
-2.20031 -70.665604 94.335098
-2.3628399 -70.434402 93.991798
-2.3846099 -70.235397 93.558998
-1.92633 -70.8592 94.050301
-2.1122899 -70.627502 93.741096
-2.2021699 -70.3993 93.3619
-1.68862 -70.9216 93.818604
-1.89088 -70.703598 93.532204
-2.03146 -70.474403 93.214401
-2.39622 -70.382896 94.579201
-2.4858799 -70.059601 94.733101
-2.55793 -70.157204 94.2015
-2.6668999 -69.854301 94.334602
-2.56025 -69.972298 93.713097
-2.6907699 -69.701401 93.841797
-1.80151 -70.929901 94.503601
-1.58112 -71.097198 94.218102
-1.39618 -71.124702 93.993202
-2.8006201 -69.131599 93.936699
-2.7562001 -69.452003 93.865501
-2.68817 -69.218399 94.415802
-2.6893401 -69.559998 94.373596
-2.46066 -69.375397 94.822998
-2.48019 -69.730698 94.7845
-1.57004 -70.576599 95.085403
-1.64331 -70.2145 95.210503
-1.71222 -69.837997 95.294601
-2.0624599 -70.324699 94.961502
-2.0873899 -69.9711 95.045403
-2.10604 -69.599701 95.102203
-1.96954 -70.657303 94.771301
-1.4672199 -70.911598 94.858597
-0.84299099 -70.833603 95.252701
-0.91809398 -70.506104 95.419197
-0.98307002 -70.179604 95.532898
-1.1857001 -70.743599 95.184601
-1.27544 -70.393204 95.341003
-1.35764 -70.034798 95.446999
-0.76515299 -71.1642 94.995903
-1.08697 -71.078102 94.935204
-0.44292599 -70.872803 95.272202
-0.48491201 -70.567802 95.426498
-0.51994503 -70.2715 95.530403
-0.40020201 -71.196899 95.019302
-0.805794 -70.441498 93.4487
-0.76786399 -70.882599 93.502403
-0.91894299 -70.550201 93.777
-0.89613599 -70.995499 93.7864
-1.12781 -70.617996 93.966698
-1.08917 -71.048103 93.944504
-1.91596 -70.400299 93.128799
-1.8719701 -70.104202 93.231201
-1.78004 -70.615303 93.439697
-1.7761101 -70.281998 93.526001
-1.59095 -70.805496 93.728203
-1.60865 -70.437599 93.797501
-1.29369 -69.284698 94.039299
-1.53701 -69.243698 94.131699
-1.75421 -69.177696 94.124901
-1.48525 -68.871399 93.897697
-1.75063 -68.841599 94.0215
-1.70122 -68.795799 93.642403
-1.8952399 -69.083504 93.9869
-1.9521 -69.092499 93.830597
-1.88588 -68.928902 93.760399
-1.68385 -69.806503 93.991302
-1.44723 -69.911797 94.088097
-1.18859 -69.9533 94.037102
-1.37632 -70.567299 93.962303
-1.91044 -69.553398 93.546997
-1.84393 -69.680901 93.7864
-0.97674203 -69.107201 93.477997
-0.97231901 -68.977699 93.2425
-1.02055 -68.9189 93.098801
-0.85876298 -69.746498 93.491699
-0.89508498 -69.5588 93.193497
-1.01999 -69.331497 92.976196
-0.85148901 -70.181999 93.072998
-1.09495 -69.222 93.777496
-0.97274798 -69.884499 93.810898
-1.3443 -70.966003 93.9123
-0.76205099 -70.512199 93.123703
-0.68900597 -70.810204 93.165398
-0.63727802 -70.697701 92.810898
-1.14821 -68.800903 93.021301
-1.37158 -68.690697 92.950104
-1.22401 -69.231499 92.847702
-1.46501 -68.666298 93.105202
-1.5568 -68.778702 93.345398
-1.67785 -69.006203 92.974503
-1.76534 -69.136398 93.189598
-1.86008 -69.5327 92.851799
-1.89951 -69.881401 92.993301
-1.8766 -69.375397 93.343201
-1.1945601 -68.723602 93.335899
-1.31046 -68.8097 93.6036
-1.1519099 -68.6548 93.161301
-1.3884799 -68.553902 93.040604
-2.2929201 -69.946701 92.852097
-2.0959101 -69.830902 92.751099
-2.16484 -70.226402 92.985901
-2.0174 -70.148903 92.882797
-2.3655601 -70.081596 93.147797
-2.6870699 -69.532402 93.380699
-2.6522501 -69.229797 93.002296
-2.5357699 -69.802902 93.232498
-2.44101 -69.623901 92.881599
-1.84533 -68.853302 92.883102
-1.87319 -69.2089 92.815498
-2.2434299 -69.139397 92.825996
-2.1765201 -69.466103 92.759903
-1.62507 -68.758003 92.938599
-2.8090601 -69.135696 93.475098
-0.162093 -71.454597 93.4058
-0.060203999 -71.466599 93.396301
-0.127721 -71.574799 93.685303
-0.332912 -71.556503 93.761101
-0.324388 -71.432198 93.447304
-0.26624599 -70.972298 92.703102
-0.143627 -70.945 92.660202
-0.299355 -71.219597 93.084503
-0.15836699 -71.221001 93.044701
-0.113805 -70.5336 92.018898
-0.127848 -70.707703 92.311501
-0.204762 -70.5839 92.034203
-0.233523 -70.7519 92.343697
-0.059464999 -70.928398 92.637299
-0.064075999 -71.2201 93.0252
-0.048678 -70.504601 92.011597
-0.053764001 -70.6819 92.294601
-4.7175999 -56.661598 100.558
-4.5439601 -56.524101 100.731
-4.2821202 -56.391201 100.847
-4.5687099 -56.685501 100.529
-4.2744699 -56.582298 100.58
-4.3495002 -56.717701 100.404
-4.7260599 -56.260201 101.026
-4.82201 -56.455799 100.8
-4.93083 -56.6348 100.578
-5.2377801 -56.230999 100.928
-5.1251302 -56.457298 100.752
-5.1392498 -56.632099 100.564
-5.4180999 -56.637199 100.471
-5.3880801 -56.446301 100.663
-5.2372198 -56.628201 100.557
-5.8552799 -56.563801 100.129
-5.98247 -56.365101 100.228
-6.11726 -56.160999 100.338
-5.6293101 -56.604301 100.336
-5.68786 -56.390701 100.502
-5.7368698 -56.167801 100.689
-6.18291 -56.400398 99.094101
-6.2080002 -56.329498 99.098801
-6.2769299 -56.236801 99.147499
-6.2170701 -56.378502 99.121399
-6.2449098 -56.3102 99.1651
-6.2319398 -56.375599 99.156799
-6.3484702 -56.1973 99.360901
-6.3411798 -56.226299 99.602798
-6.2901702 -56.2892 99.293098
-6.2908301 -56.312599 99.403801
-6.2497602 -56.371899 99.222198
-6.25281 -56.383598 99.296303
-6.03901 -56.380699 98.759102
-6.1742001 -56.296299 98.942001
-6.0308499 -56.435101 98.891998
-6.1381402 -56.366798 99.001503
-6.04179 -56.483799 99.012901
-6.1249199 -56.430698 99.056099
-5.42837 -56.642101 98.457703
-5.58564 -56.5867 98.479698
-5.73107 -56.5285 98.529198
-5.4304399 -56.720402 98.660103
-5.6066899 -56.6548 98.692497
-5.7628899 -56.585999 98.739098
-5.4491701 -56.7906 98.838303
-5.6459699 -56.714699 98.8871
-5.8136601 -56.636002 98.9366
-5.9418898 -56.555801 98.975899
-5.9042401 -56.511398 98.804001
-5.8855901 -56.460201 98.620598
-4.20821 -56.959599 99.204102
-4.21699 -56.904701 99.050697
-4.1981201 -56.8591 98.888802
-4.4414001 -56.943199 99.025597
-4.4328198 -56.9081 98.882698
-4.4144101 -56.866199 98.722
-4.6401801 -56.944 98.904198
-4.6318402 -56.903 98.764503
-4.6206899 -56.851101 98.603798
-3.78615 -56.969601 99.574997
-3.81285 -56.871101 99.483299
-3.7913499 -56.793301 99.370399
-3.97032 -56.965599 99.382599
-3.9904699 -56.8937 99.2621
-3.9740601 -56.8335 99.113602
-3.7430699 -56.646 99.994598
-3.7045901 -56.737202 99.643303
-3.8205099 -56.746201 99.940002
-3.7529399 -56.8218 99.683998
-3.8698399 -56.850101 99.894402
-3.76682 -56.9118 99.715202
-4.83179 -56.939301 98.830299
-4.8268099 -56.881001 98.686203
-4.8252802 -56.812801 98.519897
-5.0294199 -56.914501 98.798798
-5.0259299 -56.841099 98.646004
-5.03196 -56.759602 98.4692
-5.23873 -56.8615 98.804901
-5.2319999 -56.784698 98.641098
-5.23912 -56.7006 98.451599
-6.2462502 -56.4002 99.357201
-6.2561998 -56.354801 99.501297
-6.21314 -56.421902 99.4506
-6.1862502 -56.442101 99.531799
-6.2177 -56.363098 99.677597
-6.1175299 -56.483601 99.678902
-6.0197001 -56.519901 99.8908
-6.15523 -56.3536 99.934196
-6.3031702 -56.179001 99.9739
-4.0935602 -56.776199 100.164
-4.0114102 -56.648201 100.296
-3.92907 -56.511902 100.454
-6.21492 -56.4604 99.417503
-6.2638102 -56.448002 99.398499
-6.2480102 -56.433601 99.328003
-6.3000498 -56.423401 99.2994
-6.2651 -56.418499 99.248001
-6.32026 -56.4114 99.216301
-6.2649598 -56.413101 99.180702
-6.3211098 -56.4119 99.146797
-6.2529302 -56.417 99.129501
-6.3094802 -56.420399 99.093597
-6.2360601 -56.425499 99.099197
-6.2909999 -56.432598 99.058998
-6.2034402 -56.4436 99.081001
-6.2558599 -56.453602 99.037102
-6.1465001 -56.474098 99.065399
-6.1945801 -56.490398 99.021202
-6.0701299 -56.523102 99.051201
-6.1140399 -56.544102 99.008301
-5.9787102 -56.592602 99.036102
-6.0195098 -56.614799 98.993401
-5.8540401 -56.6772 99.005402
-5.8927798 -56.703499 98.958801
-5.6803498 -56.7682 98.949997
-5.71773 -56.806702 98.894897
-5.4738698 -56.856701 98.894402
-5.5090799 -56.9076 98.837097
-5.2571702 -56.931801 98.865898
-5.28826 -56.988098 98.821297
-5.0460701 -56.980301 98.869102
-5.0721202 -57.035599 98.842697
-4.8502898 -56.9935 98.904701
-4.8714099 -57.045898 98.8908
-4.6613402 -56.9874 98.9786
-4.6772199 -57.039799 98.970497
-4.4702201 -56.983898 99.091003
-4.4812698 -57.041199 99.082199
-4.2839799 -57.003399 99.213097
-4.2976098 -57.060299 99.194603
-4.08459 -57.038799 99.323097
-4.16993 -57.0849 99.259697
-3.98752 -57.129002 99.3507
-3.69996 -57.030499 99.653801
-3.6477499 -57.083401 99.685402
-3.73787 -56.9786 99.739799
-3.6974399 -57.039501 99.770302
-3.86903 -56.926201 99.883202
-3.8418 -56.989101 99.912697
-4.1240902 -56.862 100.117
-4.1101899 -56.9244 100.137
-4.4053602 -56.805199 100.339
-4.4026999 -56.863499 100.353
-4.6131301 -56.771599 100.453
-4.62111 -56.824699 100.468
-4.7909198 -56.755199 100.486
-4.8034 -56.8018 100.507
-4.9858499 -56.7416 100.495
-5.00104 -56.786701 100.516
-5.1669002 -56.739399 100.487
-5.18294 -56.782299 100.508
-5.2982998 -56.7467 100.466
-5.3177099 -56.789799 100.483
-5.43224 -56.748199 100.402
-5.45543 -56.785702 100.421
-5.6192398 -56.717701 100.281
-5.6448202 -56.748199 100.301
-5.8204598 -56.665001 100.102
-5.8477702 -56.684502 100.124
-5.9840002 -56.601601 99.883202
-6.0145798 -56.609402 99.901001
-6.0992699 -56.541599 99.675903
-6.1354299 -56.5392 99.684502
-6.1718102 -56.493801 99.526199
-6.2135501 -56.4855 99.519897
-1.59832 -68.606102 92.942497
-3.83426 -57.149502 99.438904
-3.7079301 -57.152401 99.531303
-3.9093201 -57.054699 99.4338
-3.7558899 -57.065399 99.552803
-3.6586699 -57.127102 99.601601
-3.55143 -56.536301 98.975601
-3.6154201 -56.608398 99.056396
-3.67962 -56.6745 99.147003
-3.3799901 -56.488499 99.435997
-3.4696 -56.563301 99.4916
-3.5562401 -56.627899 99.5457
-3.3754499 -56.375801 100.01
-3.4812801 -56.456501 100.035
-3.57901 -56.525799 100.046
-3.7419901 -56.732101 99.254097
-3.63643 -56.6786 99.596703
-3.6637199 -56.579899 100.032
-3.66328 -56.172901 100.604
-3.74682 -56.258301 100.609
-3.8158801 -56.338001 100.597
-4.1548901 -55.9715 101.051
-4.19385 -56.0527 101.049
-4.2172098 -56.1376 101.033
-3.8655 -56.413399 100.553
-4.2253299 -56.237099 100.984
-4.7212801 -55.8633 101.213
-4.7190599 -55.928101 101.212
-4.7101402 -56.0042 101.201
-5.2852802 -55.817902 101.138
-5.2642398 -55.875401 101.128
-5.2458501 -55.943501 101.113
-4.6978898 -56.105598 101.159
-5.2340999 -56.042198 101.072
-5.7856598 -55.7896 100.906
-5.77601 -55.8652 100.866
-5.76967 -55.940102 100.829
-6.1728601 -55.788898 100.549
-6.1754398 -55.882801 100.487
-6.17869 -55.965698 100.436
-5.7645001 -56.023701 100.788
-6.1740999 -56.040298 100.399
-6.41258 -55.8316 100.1
-6.4008498 -55.9174 100.054
-6.3906598 -55.994701 100.021
-6.5204301 -55.895401 99.6633
-6.48527 -55.9608 99.651604
-6.4539599 -56.0247 99.647903
-6.3738098 -56.066101 100.004
-6.4207201 -56.095901 99.649399
-6.5246501 -55.955898 99.3265
-6.47927 -56.007801 99.341103
-6.4380298 -56.060299 99.358498
-6.4542198 -56.013 99.061501
-6.4086499 -56.062199 99.087097
-6.3661799 -56.110802 99.112396
-6.4005799 -56.116901 99.374802
-6.3266501 -56.161701 99.135597
-6.33711 -56.071499 98.822701
-6.2927999 -56.127102 98.843903
-6.2506399 -56.181702 98.867401
-6.1962199 -56.1278 98.611801
-6.1501298 -56.1954 98.627403
-6.1058502 -56.2607 98.647903
-6.2119002 -56.235401 98.896599
-6.0662999 -56.322601 98.681999
-6.0493002 -56.178501 98.438904
-5.9972 -56.257301 98.460899
-5.9471102 -56.332401 98.485199
-5.8983698 -56.223598 98.2995
-5.84411 -56.307499 98.337303
-5.7914 -56.388 98.373299
-5.9040999 -56.400398 98.522797
-5.7460399 -56.462101 98.418198
-5.7385302 -56.2658 98.186302
-5.6932201 -56.344601 98.242897
-5.6472802 -56.425499 98.296997
-5.55299 -56.310001 98.0998
-5.5219498 -56.3829 98.1726
-5.4880099 -56.462399 98.2453
-5.6044698 -56.508202 98.357697
-5.45187 -56.552299 98.326302
-5.3262 -56.361198 98.042702
-5.30827 -56.435299 98.125603
-5.2867398 -56.5163 98.212601
-5.0599699 -56.417999 98.0261
-5.0570698 -56.497002 98.115097
-5.0515599 -56.580399 98.2117
-5.26056 -56.6077 98.312103
-5.0420799 -56.670101 98.324799
-4.7644901 -56.476002 98.061699
-4.7819901 -56.558399 98.1549
-4.7993102 -56.643299 98.256798
-4.4663901 -56.526699 98.153603
-4.5053601 -56.609901 98.246498
-4.5465698 -56.694302 98.347504
-4.8153801 -56.731098 98.375801
-4.5892401 -56.7784 98.464104
-4.1922698 -56.560902 98.299896
-4.2476902 -56.642799 98.386497
-4.3064799 -56.723999 98.479897
-3.9516699 -56.573601 98.477203
-4.0137501 -56.652302 98.559402
-4.0790501 -56.728901 98.649597
-4.3678098 -56.802299 98.587898
-4.1465502 -56.800098 98.755699
-3.7448499 -56.563801 98.677902
-3.80373 -56.637901 98.763199
-3.86479 -56.708599 98.859802
-3.9267299 -56.773499 98.976402
-3.99422 -54.874699 103.601
-4.1465001 -55.326801 103.314
-4.2719998 -55.716 103.029
-3.42593 -55.268299 103.411
-3.6547 -55.660599 103.164
-3.8383601 -55.980999 102.922
-2.9129601 -55.745499 103.085
-3.2484901 -56.002701 102.948
-3.4800401 -56.241001 102.766
-5.0751901 -54.1591 103.62
-5.14007 -54.696999 103.316
-5.1917 -55.199799 103.007
-4.56603 -54.5056 103.67
-4.6620998 -55.003201 103.37
-4.7407899 -55.4534 103.064
-5.7536001 -53.5256 103.241
-5.8523998 -54.141499 102.937
-5.9356799 -54.7318 102.649
-5.4677701 -53.840401 103.458
-5.5334401 -54.413399 103.153
-5.5836701 -54.960098 102.852
-7.7950802 -51.1628 99.065102
-7.74787 -51.189602 98.376999
-7.6293101 -51.237099 97.632599
-7.6767402 -51.897202 99.086098
-7.62605 -51.948898 98.5177
-7.5208602 -52.087399 97.981499
-7.5807199 -52.5951 99.111702
-7.5244899 -52.662601 98.650398
-7.42695 -52.810398 98.228302
-7.42276 -52.038399 96.637001
-7.30723 -52.717201 97.181702
-7.20647 -53.338001 97.556198
-7.50103 -51.684101 97.1381
-7.4043498 -52.3759 97.544502
-7.3111 -53.043701 97.863701
-7.3404102 -52.522598 96.438904
-7.2486601 -52.942299 96.299004
-7.2315102 -53.099098 96.928299
-7.1398602 -53.491699 96.7313
-7.12959 -53.666302 97.299698
-7.0386801 -54.0186 97.083397
-7.1150799 -53.3834 96.123703
-6.9207401 -53.926701 95.973
-6.9907999 -53.9133 96.555496
-6.78719 -54.400902 96.407501
-6.8915801 -54.397301 96.900101
-6.7025499 -54.8274 96.755501
-5.3166099 -57.299999 96.3965
-4.8112798 -57.9296 96.693497
-4.1660299 -58.490898 97.065598
-5.4460702 -57.139999 96.776703
-4.8829198 -57.718399 97.037804
-4.2816801 -58.1619 97.3619
-5.46275 -57.120701 97.043701
-4.93364 -57.596699 97.284599
-4.3667102 -57.971001 97.603302
-6.2746601 -55.3946 95.772797
-5.84726 -56.306301 96.108101
-6.2434502 -55.661598 96.307503
-5.8939099 -56.412102 96.5121
-6.2305298 -55.910999 96.679398
-5.8946099 -56.5341 96.824203
-3.0509701 -59.3116 98.191399
-2.7535601 -59.137798 98.786598
-2.56337 -59.030499 99.150902
-3.2476299 -58.778099 98.394798
-2.9205401 -58.821499 98.8759
-2.69504 -58.787899 99.240898
-3.38009 -58.466 98.535202
-3.0444901 -58.5606 98.962502
-2.8055301 -58.580399 99.303398
-2.2434199 -58.811298 99.644997
-2.1163299 -58.594501 99.862
-2.00825 -58.305302 100.112
-2.38956 -58.633801 99.721802
-2.27457 -58.4809 99.9161
-2.1821899 -58.2561 100.141
-2.5025101 -58.495998 99.755898
-2.4000599 -58.383099 99.939003
-2.3301101 -58.201698 100.153
-4.5423498 -56.757401 101.794
-4.6639299 -56.840801 101.491
-4.73737 -56.873699 101.199
-4.15416 -56.952 101.564
-4.3222599 -56.984699 101.308
-4.4302101 -56.9832 101.06
-3.8135099 -57.135601 101.262
-3.9912701 -57.135601 101.05
-4.1222601 -57.104198 100.85
-4.9654799 -56.5975 101.844
-5.3271198 -56.480701 101.791
-5.0123 -56.721298 101.546
-5.3324199 -56.633499 101.513
-5.0385098 -56.783798 101.252
-5.3175902 -56.722801 101.236
-5.6392899 -56.395599 101.674
-5.93543 -56.2883 101.522
-5.6159501 -56.576698 101.42
-5.8833199 -56.494999 101.281
-5.5639701 -56.687901 101.171
-5.7992501 -56.626999 101.055
-6.2635398 -56.3214 100.646
-6.0416498 -56.493801 100.881
-6.4065099 -56.117298 100.87
-6.1529899 -56.3358 101.105
-6.53616 -55.842999 101.119
-6.2399902 -56.1049 101.35
-6.9953799 -55.229 100.424
-6.7753401 -55.669601 100.225
-6.5531998 -56.027802 100.044
-6.7968502 -55.526001 100.796
-6.6189198 -55.878399 100.564
-6.4337702 -56.157101 100.353
-7.1667299 -54.902 99.719299
-6.9133501 -55.462399 99.617203
-6.6771402 -55.919102 99.5131
-7.1135402 -55.0215 100.056
-6.8687301 -55.5326 99.903397
-6.63094 -55.950802 99.758301
-7.15697 -54.854698 99.170502
-6.9237399 -55.453098 99.167
-6.7121601 -55.935902 99.150703
-7.1766701 -54.851601 99.426697
-6.9274201 -55.4417 99.374298
-6.7016501 -55.9193 99.313599
-7.0651898 -54.976898 98.7174
-6.88904 -55.5285 98.811302
-6.70928 -55.9762 98.883499
-7.1179299 -54.899101 98.937798
-6.9112802 -55.483101 98.983398
-6.7144799 -55.955399 99.0112
-7.0022502 -55.083 98.501602
-6.92944 -55.216301 98.295601
-6.8537302 -55.589901 98.6408
-6.8027701 -55.672798 98.474503
-6.6943302 -56.001999 98.757599
-6.6610799 -56.0439 98.633499
-6.8448801 -55.376999 98.107597
-6.7411799 -55.562801 97.941498
-6.7330599 -55.781601 98.317299
-6.6388102 -55.915401 98.173599
-6.60116 -56.111698 98.512604
-6.51336 -56.205101 98.398499
-6.4503999 -56.029301 97.699097
-6.3536601 -56.274101 97.952202
-6.2418599 -56.476799 98.208298
-6.6107502 -55.775002 97.802498
-6.5139699 -56.074699 98.049004
-6.39639 -56.323601 98.295601
-6.0042901 -56.662102 97.630402
-5.9008098 -56.785198 97.8722
-5.7948298 -56.8708 98.109703
-6.2546201 -56.335602 97.640099
-6.1524301 -56.521599 97.8918
-6.0415001 -56.6684 98.142403
-5.2901602 -57.228298 97.771004
-5.2311702 -57.2258 97.974602
-5.1825299 -57.199699 98.1819
-5.68189 -56.969799 97.673302
-5.5917401 -57.026901 97.898102
-5.5050502 -57.051998 98.121498
-4.4075098 -57.5704 98.160004
-4.0264101 -57.707401 98.468399
-3.7058301 -57.824001 98.803001
-4.4463701 -57.489899 98.305099
-4.1052399 -57.596699 98.565201
-3.8132701 -57.687901 98.848396
-4.5076499 -57.3992 98.456497
-4.2028499 -57.479198 98.667198
-3.9335301 -57.5467 98.897598
-4.84656 -57.419899 97.928596
-4.8350501 -57.373402 98.107803
-4.8418598 -57.310902 98.293098
-2.92893 -57.831799 100.056
-3.0414901 -57.6903 100.284
-3.23734 -57.515499 100.572
-3.09165 -57.692299 99.991898
-3.2105401 -57.579601 100.202
-3.4115901 -57.441399 100.458
-3.2509699 -57.544998 99.918297
-3.36465 -57.457001 100.109
-3.5588 -57.349201 100.339
-3.8216801 -57.228802 100.598
-3.67996 -57.290401 100.753
-3.5018599 -57.3256 100.915
-3.4981999 -64.592499 93.457298
-3.3757 -64.844101 93.897697
-3.26753 -65.111397 94.300499
-3.6377499 -62.985298 93.551399
-3.5522399 -63.292099 93.990303
-3.4678199 -63.673901 94.413101
-3.8203399 -61.403801 93.680603
-3.7638199 -61.710499 94.127296
-3.7002001 -62.108002 94.566704
-2.9354899 -67.760696 94.254204
-3.09287 -66.586899 94.214401
-3.09218 -67.647797 93.718697
-3.233 -66.337196 93.822502
-3.2158101 -67.718002 93.173203
-3.3859899 -66.182999 93.352203
-2.9363501 -66.968697 94.614304
-2.99279 -65.9804 94.944
-3.16258 -65.468399 94.563599
-2.5545199 -68.4403 95.112198
-2.57897 -67.778198 95.318298
-2.59377 -66.897003 95.596001
-2.76597 -68.135201 94.732597
-2.7831399 -67.403999 94.980301
-2.8213501 -66.471497 95.261703
-2.4986 -68.957703 94.937897
-2.7207201 -68.756798 94.5382
-2.86127 -68.592697 94.060303
-1.86491 -68.9767 95.581902
-1.88833 -68.385399 95.816399
-1.89439 -67.5868 96.149803
-2.2405801 -68.715302 95.388298
-2.2695799 -68.098396 95.605301
-2.27918 -67.266701 95.910599
-1.79641 -69.440804 95.411903
-2.1705699 -69.196198 95.217102
-1.04761 -69.402496 95.788101
-1.02904 -68.845299 95.990501
-0.99943697 -68.085999 96.294601
-1.4766001 -69.209801 95.718201
-1.47771 -68.6371 95.942299
-1.46447 -67.861397 96.270203
-1.03035 -69.828201 95.6455
-1.43164 -69.6558 95.562103
-0.545816 -69.540497 95.788399
-0.529396 -68.994797 95.981003
-0.506926 -68.248596 96.266098
-0.54211998 -69.946701 95.644096
-4.3464198 -58.889999 94.967598
-4.41892 -58.638401 94.504303
-4.4709001 -58.509399 94.028297
-3.9598401 -60.462101 94.767403
-4.02175 -60.125801 94.32
-4.0647101 -59.8927 93.862999
-3.5830801 -62.622501 95.029602
-3.3399301 -64.175301 94.817902
-3.3810401 -63.202801 95.499001
-3.1587999 -64.718803 95.211998
-2.7286201 -64.3116 96.376503
-2.8759699 -62.716099 96.732101
-3.00811 -61.232399 97.116096
-3.0809901 -63.783199 95.950302
-3.2806001 -62.153099 96.288002
-3.4698901 -60.6418 96.6604
-3.6392901 -61.4991 95.805496
-4.0397902 -59.6786 96.107597
-2.63557 -65.734901 95.974701
-2.9217401 -65.253098 95.597198
-1.96645 -65.131599 97.041199
-2.03176 -63.471298 97.425797
-2.06899 -61.888302 97.862297
-2.3664899 -64.754204 96.7621
-2.46927 -63.1404 97.127998
-2.56373 -61.5835 97.522102
-1.9180599 -66.5093 96.592598
-2.3045001 -66.1521 96.328499
-1.49832 -65.469597 97.159698
-1.47009 -66.813103 96.711098
-0.99454302 -65.758301 97.160004
-0.98596901 -67.063103 96.716904
-0.49415901 -65.972397 97.109497
-0.493696 -67.247704 96.668404
-1.54116 -62.209 97.955399
-1.53716 -63.864101 97.533096
-1.01958 -62.565899 97.955399
-1.01817 -64.201401 97.541397
-0.50733799 -62.795898 97.956902
-0.50559199 -64.441498 97.518898
-1.79099 -59.535999 99.195297
-1.87063 -60.4972 98.580299
-1.34568 -59.712299 99.113197
-1.4506201 -60.816601 98.5252
-0.89229101 -59.819599 99.057999
-0.96840602 -61.0522 98.493797
-0.44399801 -59.900299 99.0224
-0.482108 -61.213299 98.483803
-0.77936602 -58.374298 99.981903
-0.82657099 -58.965099 99.5401
-0.39015099 -58.3731 99.969299
-0.411607 -58.999802 99.496696
-1.69836 -55.708199 102.894
-1.58711 -56.154202 102.436
-1.4922 -56.569698 101.95
-1.3247401 -55.348301 103.147
-1.25404 -55.888401 102.652
-1.18554 -56.379002 102.118
-0.91494602 -54.984501 103.393
-0.87751198 -55.610401 102.866
-0.83478898 -56.1712 102.291
-0.46788299 -54.647202 103.593
-0.452501 -55.339699 103.031
-0.432221 -55.962299 102.431
-0.75494099 -57.383801 101.004
-0.75313401 -57.8881 100.455
-0.38737899 -57.2663 101.134
-0.38147801 -57.831001 100.517
-6.61094 -52.4729 89.263199
-6.3958998 -53.871799 89.601196
-6.1350398 -55.042301 89.964798
-6.73067 -52.412201 89.833801
-6.5082598 -53.585499 90.080299
-6.24123 -54.7374 90.368301
-6.8339801 -52.3634 90.344398
-6.5984802 -53.471199 90.601196
-6.3376698 -54.532101 90.884804
-5.7838802 -56.103199 89.654099
-5.4617701 -57.0625 89.496101
-5.87289 -55.924198 90.234497
-5.5501399 -56.964699 90.094498
-5.6040001 -56.834 90.535301
-6.4508901 -54.492901 91.513901
-6.5236502 -54.503799 91.875999
-6.6898198 -53.4258 91.041801
-6.7616801 -53.5061 91.499298
-6.83254 -53.589901 91.996002
-6.9821901 -52.471199 91.1791
-7.0373001 -52.632099 91.625603
-7.0937901 -52.757198 92.133698
-6.1363101 -55.509899 91.686996
-6.01968 -55.596001 91.193001
-5.7473102 -56.5285 91.505798
-3.0592699 -60.115799 97.611298
-2.6356201 -59.670799 98.479897
-2.6266401 -60.429199 97.994904
-2.35835 -59.792702 98.697899
-2.23297 -60.553799 98.321899
-3.6275101 -53.7948 104.205
-4.3209701 -53.465302 104.242
-4.90626 -53.1366 104.175
-3.79603 -54.3592 103.895
-4.43713 -53.990299 103.958
-4.98804 -53.637699 103.905
-4.8322701 -52.121799 104.704
-4.8573399 -52.642601 104.439
-4.2448201 -52.360001 104.81
-4.2627101 -52.9291 104.529
-3.55919 -52.548302 104.844
-3.56077 -53.193199 104.528
-2.1972899 -52.779598 104.717
-2.1951101 -51.8965 105.119
-2.1846099 -50.890598 105.575
-2.8552899 -52.6936 104.794
-2.8704801 -51.8904 105.147
-2.8589499 -50.973301 105.542
-3.5645001 -51.8367 105.148
-3.5406499 -50.986198 105.502
-2.1664801 -54.4202 103.856
-2.19028 -53.592602 104.315
-2.90114 -54.119099 104.065
-2.83496 -53.4244 104.436
-0.92779398 -48.262501 106.812
-1.50512 -48.448299 106.716
-2.12745 -48.636299 106.599
-0.94240302 -49.4044 106.277
-1.52117 -49.6105 106.178
-2.1563399 -49.791901 106.083
-0.96736699 -50.584599 105.697
-1.54576 -50.7631 105.622
-0.43741199 -48.106701 106.851
-0.446661 -49.212002 106.354
-0.46252799 -50.371498 105.797
-0.481006 -53.768902 104.135
-0.49760401 -52.723099 104.677
-0.96297598 -54.1576 103.921
-1.08855 -53.1091 104.485
-7.9119501 -49.875801 97.562599
-7.7634702 -50.498798 97.614304
-8.0336504 -49.7938 98.249702
-7.8742499 -50.4856 98.3134
-8.03228 -49.776798 99.0783
-7.9014902 -50.467602 99.065399
-5.60149 -51.470699 104.382
-5.9127798 -51.0686 104.191
-6.2278399 -50.609001 103.918
-5.5952501 -51.976002 104.093
-5.8643999 -51.583099 103.894
-6.1318402 -51.140598 103.615
-5.6093402 -52.458302 103.817
-5.8354301 -52.073299 103.607
-6.0555701 -51.642601 103.32
-5.2657199 -51.823601 104.554
-5.2839198 -52.327099 104.282
-5.3215899 -52.806499 104.018
-5.6063199 -50.192299 105.152
-5.97576 -49.763599 104.939
-6.3699498 -49.246201 104.629
-5.6044402 -50.8918 104.714
-5.9462299 -50.475899 104.524
-6.3055801 -49.989601 104.248
-4.7697802 -50.744301 105.365
-5.2246599 -50.512901 105.281
-4.81147 -51.522202 104.988
-5.2498498 -51.243698 104.863
-6.4228201 -48.401798 105.065
-6.0083399 -48.941101 105.453
-5.6108799 -49.372002 105.727
-3.36692 -48.872601 106.438
-4.0044398 -48.8036 106.43
-3.4675801 -49.955299 105.957
-4.10887 -49.8736 105.917
-4.7003102 -49.725101 105.899
-4.1956801 -50.9062 105.44
-2.8110099 -49.919899 106.011
-2.7467799 -48.798199 106.501
-8.74125 -43.5625 96.277496
-8.7019901 -44.2631 96.435997
-8.6461496 -45.008701 96.570198
-9.0106897 -43.507599 97.259697
-8.9625597 -44.207901 97.371201
-8.8907204 -44.966301 97.490601
-9.1830397 -43.518101 98.145599
-9.1244698 -44.2019 98.260399
-9.04422 -44.959499 98.399399
-8.6137896 -45.724602 96.676697
-8.58426 -46.477901 96.759804
-8.8341503 -45.688499 97.607002
-8.7690697 -46.4398 97.723
-8.9718704 -45.673901 98.555
-8.8661203 -46.426201 98.725899
-7.22961 -48.044998 103.695
-7.6140699 -47.387901 103.054
-8.05091 -46.654099 102.199
-7.0775099 -48.8302 103.331
-7.44139 -48.210602 102.727
-7.9345298 -47.495602 101.797
-6.8990102 -49.555401 102.969
-7.2600198 -49.025002 102.315
-7.7489901 -48.406601 101.409
-8.9056501 -45.015099 99.780502
-8.7948904 -45.681 100.174
-8.6068001 -46.401798 100.574
-8.8620501 -45.0919 100.281
-8.6319103 -45.7495 100.851
-8.3382301 -46.52 101.373
-8.8360796 -45.2304 100.828
-8.4637604 -45.843899 101.488
-7.3168802 -47.309799 104.056
-7.7037802 -46.773899 103.334
-8.08776 -46.2416 102.463
-8.5184803 -45.641201 101.631
-9.0118599 -45.150398 101.084
-8.6350803 -45.563499 101.771
-9.0057697 -44.2509 99.479599
-9.0438805 -44.361099 99.837097
-9.1266403 -44.4711 100.148
-9.05305 -43.342098 99.309898
-9.1283197 -43.554901 99.671097
-9.2249804 -43.663399 99.881203
-9.1989603 -44.5191 100.513
-9.2290001 -43.736099 100.167
-8.9331999 -42.474201 99.626404
-9.0857697 -42.788601 99.854202
-9.1770201 -42.951199 100.026
-8.74298 -41.511799 100.083
-8.9930401 -42.118698 100.212
-9.1212301 -42.532799 100.241
-9.16677 -43.052101 100.289
-8.5083103 -41.339699 102.633
-8.2532997 -41.310398 103.328
-8.0843697 -41.333801 103.705
-8.4005098 -40.955399 102.494
-8.1500597 -40.922199 103.113
-7.8601799 -40.9739 103.665
-8.1277199 -40.469898 102.236
-7.8471899 -40.445999 102.826
-7.4808898 -40.521801 103.447
-6.8719001 -41.7686 105.574
-6.16501 -42.1399 106.251
-5.50281 -42.569099 106.698
-6.6721702 -41.437698 105.274
-5.9686198 -41.851002 105.95
-5.3608198 -42.302101 106.405
-6.3669801 -41.023201 104.868
-5.67591 -41.470402 105.574
-5.07058 -41.886299 106.052
-3.2950301 -46.824799 107.125
-3.4712601 -45.7071 107.251
-3.74436 -44.7244 107.251
-3.84131 -47.000599 107.164
-3.8923199 -45.944302 107.398
-4.0550399 -44.923401 107.504
-3.2812099 -47.8577 106.845
-3.8889599 -47.902599 106.844
-2.2334199 -46.264702 107.31
-2.77736 -46.538601 107.195
-2.1305101 -47.456902 107.053
-2.7059901 -47.6768 106.931
-0.99907398 -46.030899 107.433
-1.61429 -46.112598 107.403
-0.93934703 -47.165199 107.228
-1.52186 -47.291302 107.166
-0.47078201 -45.953098 107.383
-0.44255501 -47.054298 107.216
-3.0092299 -43.711201 106.938
-2.50611 -45.057499 107.258
-2.1010301 -43.566399 107.018
-1.81556 -44.8783 107.331
-1.2985801 -43.389099 107.056
-1.12319 -44.775398 107.359
-0.61466402 -43.292599 107.024
-0.52882802 -44.700298 107.307
-1.31162 -69.889198 92.660896
-1.53572 -69.805099 92.649902
-1.10026 -70.283997 92.428497
-1.29971 -70.171501 92.465599
-1.50529 -70.049599 92.471397
-1.1302 -70.351501 92.202499
-1.32376 -70.258598 92.221001
-1.54173 -70.131104 92.219299
-1.61744 -58.8764 99.650299
-1.24043 -58.9356 99.5867
-1.50608 -58.382599 100.018
-1.16106 -58.384102 99.993698
-5.3895702 -53.304401 103.746
-5.66574 -52.9655 103.535
-2.0169499 -56.895901 101.729
-1.9268399 -57.2253 101.275
-1.89053 -57.590401 100.824
-1.76785 -56.7467 101.816
-1.68187 -57.140499 101.331
-1.65087 -57.560398 100.848
-1.41528 -57.0429 101.412
-1.38412 -57.525002 100.88
-8.5658598 -40.8008 101.069
-8.3723001 -40.587399 101.636
-8.20856 -40.139 100.705
-7.9744201 -39.9422 101.224
-7.6973701 -39.836601 101.791
-7.8137798 -39.333302 100.062
-7.5090799 -39.140202 100.555
-7.1686301 -39.039799 101.131
-6.8216701 -39.068501 101.765
-7.3920298 -39.829601 102.375
-6.46064 -39.221199 102.442
-7.0246701 -39.927601 102.996
-6.0643501 -39.487202 103.154
-6.55932 -40.1385 103.676
-6.98031 -40.708099 104.139
-5.5936899 -39.876099 103.912
-5.9995599 -40.480099 104.403
-3.59391 -39.906399 104.85
-3.5858901 -40.6898 105.567
-3.5518999 -41.415001 106.039
-2.68363 -39.822201 105.054
-2.6518099 -40.3904 105.625
-2.58339 -41.0909 106.092
-1.7389801 -39.6469 105.089
-1.7156 -40.139702 105.661
-1.6512001 -40.782001 106.124
-3.3970101 -36.9776 101.618
-3.4310501 -37.702999 102.559
-3.4513099 -38.4058 103.381
-2.6364999 -36.7486 101.654
-2.65517 -37.501598 102.609
-2.671 -38.272598 103.474
-1.82894 -36.472099 101.521
-1.82812 -37.2271 102.476
-1.81548 -38.033699 103.374
-0.93924302 -36.137299 101.281
-0.933685 -36.869301 102.22
-0.91765797 -37.700298 103.142
-0.80046302 -40.622299 106.113
-0.83481997 -39.960499 105.628
-0.85136002 -39.436199 105.003
-5.0198598 -37.531101 101.126
-4.88063 -38.249699 102.283
-4.6908998 -38.830502 103.153
-4.1668801 -37.2229 101.412
-4.17417 -37.923 102.374
-3.98347 -38.554001 103.266
-0.27159399 -70.518997 91.810402
-0.35974899 -70.525101 91.858398
-0.46272299 -70.5056 91.9245
-0.25597799 -70.447601 91.596802
-0.35012501 -70.4571 91.640404
-0.44461101 -70.449799 91.697998
-0.659531 -69.617798 89.716499
-0.47937199 -69.6605 89.696098
-0.32585999 -69.677002 89.6875
-0.660492 -69.7882 90.090103
-0.472325 -69.849403 90.098396
-0.31792799 -69.876999 90.109299
-0.64141101 -69.954498 90.483902
-0.44848001 -70.020897 90.507599
-0.29781401 -70.050797 90.525299
-0.26743901 -70.302002 91.156197
-0.40364099 -70.298599 91.194702
-0.59649402 -70.262299 91.2323
-0.28075501 -70.192802 90.874298
-0.42648301 -70.172997 90.8787
-0.62175798 -70.119904 90.880898
-0.68792403 -70.412903 91.736
-0.64945298 -70.357597 91.527496
-0.54690403 -70.434601 91.725998
-0.480584 -70.384903 91.510696
-0.256883 -70.382004 91.388298
-0.367708 -70.389099 91.434898
-0.81450897 -70.453201 92.208099
-0.739389 -70.454597 91.975502
-0.68255001 -70.475403 92.207603
-0.60408199 -70.4776 91.961098
-1.63278 -70.063301 91.570503
-1.37903 -70.198097 91.621696
-1.13933 -70.292503 91.655296
-1.58937 -70.124496 91.902802
-1.3523901 -70.253502 91.9245
-1.13398 -70.343903 91.931297
-0.89694399 -70.363197 91.698196
-0.926633 -70.408798 91.957703
-1.00099 -70.395401 92.213699
-1.68629 -69.841904 90.9655
-1.40964 -69.9991 91.068604
-1.14864 -70.114197 91.1474
-1.6667 -69.966499 91.264397
-1.39981 -70.114502 91.349998
-1.14596 -70.2201 91.4132
-0.87094098 -70.199097 91.206596
-0.88120902 -70.2976 91.468803
-1.6795501 -69.556297 90.337097
-1.39227 -69.6968 90.389297
-1.13311 -69.799698 90.428299
-1.68881 -69.697304 90.649498
-1.40531 -69.850899 90.735497
-1.14301 -69.963997 90.802803
-1.61775 -69.327599 89.776299
-1.32932 -69.4459 89.785301
-1.0845 -69.521698 89.770897
-1.66115 -69.437302 90.050797
-1.37299 -69.563904 90.074699
-1.12 -69.652901 90.084297
-0.86208701 -69.573601 89.744598
-0.88024497 -69.723602 90.086899
-0.87704098 -69.881599 90.458504
-0.87340301 -70.049103 90.850098
-2.35866 -69.136002 90.2052
-2.3591499 -69.2686 90.463203
-2.3373101 -69.411003 90.7397
-2.6708801 -68.865997 90.151497
-2.6691699 -69.015999 90.4076
-2.6394899 -69.1689 90.680702
-2.9826801 -68.486099 90.1213
-2.97299 -68.667503 90.392502
-2.93418 -68.847298 90.676804
-2.0072601 -69.638496 90.845299
-2.01948 -69.497299 90.551399
-2.0153 -69.365601 90.271797
-2.9628501 -68.095001 89.511002
-2.6310301 -68.559502 89.587601
-2.3122699 -68.898499 89.668503
-2.9718001 -68.289803 89.828697
-2.6526101 -68.714798 89.882599
-2.3422599 -69.019096 89.947899
-1.9611 -69.149101 89.735298
-1.99891 -69.256699 90.007004
-0.29751399 -69.222801 89.050102
-0.437076 -69.246696 89.071602
-0.58973902 -69.267601 89.116699
-0.31750199 -68.973602 88.862801
-0.46712199 -69.043297 88.8843
-0.62693 -69.115196 88.940903
-0.406928 -68.716797 88.726501
-0.595043 -68.873802 88.763603
-0.73604101 -69.010101 88.846497
-0.83419102 -69.144203 89.003098
-0.92628002 -69.270798 89.218399
-0.981215 -68.945503 88.810402
-1.06712 -69.091301 89.001602
-1.15246 -69.213997 89.241096
-1.31487 -68.844803 88.768303
-1.37853 -68.988403 88.9767
-1.44965 -69.0979 89.225197
-1.01197 -69.396103 89.478996
-1.24753 -69.330803 89.506104
-1.53835 -69.211998 89.497299
-1.68847 -67.215698 88.3825
-1.23136 -67.559502 88.510002
-0.79927301 -67.896301 88.6007
-1.8069201 -67.456398 88.2808
-1.3694 -67.794098 88.4161
-0.94838601 -68.098396 88.523201
-1.94471 -67.776802 88.2854
-1.52658 -68.105202 88.416901
-1.11853 -68.369598 88.528999
-1.70169 -68.641403 88.680397
-2.1135001 -68.340103 88.562698
-1.23755 -68.632202 88.614403
-1.63357 -68.405197 88.513
-2.0447199 -68.089897 88.388802
-2.11147 -66.881699 88.217201
-2.2288899 -67.103996 88.1194
-2.36496 -67.403503 88.142502
-2.5030401 -66.510002 88.064796
-2.6330099 -66.699303 87.9748
-2.7804101 -66.959198 88.016998
-2.5280399 -67.954803 88.4403
-2.9395399 -67.470299 88.320503
-2.4632699 -67.705399 88.257599
-2.8810899 -67.233299 88.136902
-2.1703801 -68.498596 88.781403
-1.75927 -68.789902 88.894302
-2.22207 -68.619301 89.046204
-1.8219 -68.899902 89.149803
-1.89564 -69.024002 89.440498
-2.2706599 -68.7575 89.3554
-2.5748501 -68.122101 88.6717
-2.6048901 -68.2537 88.9487
-2.97331 -67.637802 88.562698
-2.9837 -67.773399 88.853302
-2.6189101 -68.400803 89.265198
-2.9728701 -67.922096 89.177902
-3.6295099 -64.244499 88.240097
-3.8143401 -64.3106 88.183502
-4.0281401 -64.406898 88.2145
-3.8080299 -63.3843 88.347397
-3.99739 -63.447201 88.311302
