# .PCD v.7 - Point Cloud Data file format
VERSION .7
FIELDS x y z
SIZE 4 4 4
TYPE F F F
COUNT 1 1 1
WIDTH 1643
HEIGHT 1
VIEWPOINT 0 0 0 1 0 0 0
POINTS 1643
DATA ascii
-4.2251701 13.8609 58.991299
-5.2272601 13.3564 59.0905
-12.1902 7.1194201 55.905399
-12.8464 5.75525 55.301102
-13.3406 4.3844099 54.665001
-13.3671 4.9823298 54.052299
-13.3295 6.4369798 52.5816
-13.272 7.2143002 51.789299
-13.3631 5.6781201 53.348701
-1.7460999 18.6362 53.096001
-3.3108001 18.0152 53.782902
-1.72686 18.2892 53.557999
-3.2773299 17.6693 54.227699
-1.7078201 17.9625 54.003899
-3.2463801 17.347401 54.642399
-4.5736399 17.354601 54.157501
-5.5129499 16.781601 54.258099
-4.5341501 17.0077 54.604801
-5.4743199 16.428801 54.724499
-4.5027099 16.693701 55.019501
-5.44839 16.111 55.151699
-7.70924 15.2054 53.742901
-8.4714003 14.6887 53.412601
-9.3876495 14.075 52.944599
-7.6806998 14.7848 54.2929
-8.4418802 14.2627 53.977501
-9.3623896 13.6406 53.522099
-7.6607299 14.4071 54.7929
-8.42243 13.8723 54.495399
-9.34904 13.2324 54.060398
-10.3854 13.3783 52.300301
-11.314 12.608 51.513802
-10.3743 12.9205 52.890301
-11.3267 12.1166 52.120602
-10.3751 12.4804 53.4548
-11.3452 11.6323 52.716
-12.0416 11.7777 50.636501
-12.5876 10.9201 49.716099
-12.0839 11.2492 51.2691
-12.1187 10.7129 51.8988
-13.0116 10.053 48.771702
-1.43327 9.4835196 67.194397
-2.8026299 9.3354797 67.395897
-1.41667 9.0007801 68.093803
-2.7741499 8.8464003 68.283203
-1.39441 8.49084 69.010201
-2.7323799 8.3327303 69.190201
-4.0556598 9.0629501 67.405197
-5.07511 8.7027197 67.244598
-4.0226202 8.5697699 68.2976
-5.0404301 8.2062197 68.152802
-3.9665599 8.0524502 69.211197
-4.9769802 7.6849799 69.085098
-1.46636 12.1071 62.238701
-2.8419199 11.9364 62.425701
-1.4567699 11.7145 62.875198
-2.82779 11.5558 63.083199
-1.44863 11.3267 63.532501
-2.8164401 11.1779 63.772598
-4.0634298 11.6161 62.478802
-5.0619202 11.2074 62.4226
-4.0524101 11.2501 63.133202
-5.0551 10.8548 63.052898
-4.04526 10.8828 63.8297
-5.0524602 10.4968 63.732201
-6.96628 10.7657 60.657902
-6.94696 10.4363 61.128601
-6.9306102 10.0953 61.628601
-6.4268098 11.3258 60.6992
-6.4082899 10.9919 61.179798
-6.3937001 10.6426 61.694401
-5.84374 11.8289 60.7034
-5.8257599 11.4846 61.206699
-5.8130102 11.1233 61.758202
-6.9158101 9.7601604 62.1408
-6.9042802 9.4244204 62.675499
-6.3805299 10.3007 62.220901
-6.3695502 9.9635201 62.785
-5.80264 10.7738 62.327999
-5.7947001 10.4309 62.925499
-6.8971801 9.0740805 63.251701
-6.8905802 8.6919804 63.906101
-6.3617601 9.6147404 63.402599
-6.3562398 9.2316399 64.111298
-5.7902598 10.0788 63.574902
-5.7914701 9.6931496 64.315903
-6.8796601 8.2654495 64.695999
-6.8617101 7.79988 65.563004
-6.3506799 8.79601 64.937798
-6.3387098 8.3221302 65.835899
-5.79812 9.2538204 65.173698
-5.7993302 8.7783804 66.093201
-6.8343801 7.3066001 66.461502
-6.79456 6.7899899 67.390099
-6.3138299 7.8281398 66.750298
-6.2729602 7.3155999 67.683197
-5.78335 8.2896004 67.0121
-5.7453299 7.7860298 67.936203
-6.7378802 6.2503901 68.3619
-6.6549501 5.7060299 69.4132
-6.2130399 6.77948 68.652
-6.1273098 6.23456 69.689102
-5.68188 7.2579799 68.889397
-5.5886202 6.7137799 69.909401
-6.5419698 5.1400499 70.540703
-6.4226699 4.5929899 71.617203
-6.01403 5.6728201 70.792397
-5.8947201 5.1322498 71.839401
-5.4662299 6.1529999 71.001999
-5.33675 5.61412 72.035301
-6.3207798 4.1438098 72.526398
-6.2328701 3.79585 73.293297
-5.7908902 4.6886401 72.721603
-5.70084 4.3446002 73.466301
-5.2224798 5.1774302 72.8937
-5.1251402 4.84266 73.611099
-6.14885 3.51546 73.9729
-6.059 3.25547 74.595703
-5.6164899 4.0686498 74.129097
-5.5275798 3.8194499 74.739899
-5.0404401 4.5753798 74.2509
-4.96035 4.3390198 74.845802
-5.9566798 2.9764099 75.182899
-5.4270401 3.56232 75.318703
-4.87814 4.1045198 75.416397
-1.5248899 14.386 58.798599
-2.9455099 14.0579 59.153702
-1.51042 14.1272 59.1633
-2.9189799 13.8121 59.509102
-1.49721 13.8624 59.542702
-2.89501 13.5593 59.884701
-4.1893702 13.6059 59.3764
-5.1926298 13.114 59.472198
-4.1554298 13.3724 59.7313
-5.1574602 12.8843 59.833801
-4.1250601 13.1287 60.1101
-5.1253901 12.6234 60.2216
-5.9546499 12.8858 59.125599
-5.9748001 13.1596 58.7015
-5.9903598 13.4629 58.243999
-6.5121102 12.4085 59.118099
-6.52002 12.7029 58.687199
-6.5249801 13.0072 58.233898
-7.0314999 11.8861 59.063599
-7.0306301 12.1988 58.631401
-7.0279799 12.53 58.172901
-6.0040102 13.784 57.770802
-6.0197701 14.1079 57.303001
-6.53128 13.3297 57.765099
-6.5406499 13.6579 57.297699
-7.0289102 12.8581 57.708599
-7.0341101 13.1933 57.241501
-6.0403099 14.4218 56.8568
-6.0615501 14.7279 56.428902
-6.5534101 13.9812 56.845699
-6.5671 14.2987 56.408298
-7.0426798 13.5271 56.782299
-7.0522599 13.8575 56.332401
-6.0787201 15.0312 56.011299
-6.0925202 15.3359 55.5961
-6.57937 14.6127 55.980801
-6.5903401 14.9279 55.555
-7.0609798 14.1857 55.890202
-7.0700002 14.5153 55.4478
-6.10603 15.6468 55.174198
-6.1269898 15.9751 54.730999
-6.6020899 15.2507 55.120098
-6.6205902 15.5943 54.659401
-7.0817099 14.8536 54.9953
-7.1004801 15.2151 54.514999
-6.16079 16.3424 54.242699
-6.1992002 16.805 53.6511
-6.6496 15.9809 54.148899
-6.6800399 16.4608 53.540199
-7.1279998 15.6216 53.983398
-7.1533198 16.1171 53.361599
-5.89886 12.3873 59.885799
-5.9285498 12.634 59.513302
-6.47613 11.885 59.887199
-6.4973202 12.1397 59.511902
-7.0107002 11.3353 59.841499
-7.0251899 11.6036 59.460098
-6.9892402 11.0613 60.233601
-6.4508901 11.6213 60.273701
-5.8691602 12.1276 60.271198
6.9326901 -10.949 75.177902
6.4812102 -11.8327 75.024399
5.93434 -12.6951 74.907898
7.20013 -10.758 74.652802
6.6875 -11.7324 74.423203
6.0730801 -12.6719 74.257301
7.4800901 -10.6159 74.146301
6.9011102 -11.7137 73.818703
6.22013 -12.7453 73.588799
3.1363399 -15.4143 74.567902
3.1979599 -15.5249 73.870003
3.2480199 -15.7105 73.1483
3.8387101 -15.0601 74.664902
3.92238 -15.1939 74.0065
4.0018702 -15.4018 73.3228
4.5644698 -14.4507 74.752701
4.6580901 -14.5794 74.113197
4.7558298 -14.7856 73.448997
-0.017066 -16.129801 72.7715
0.86728603 -16.0378 72.7799
1.71343 -15.8858 72.846497
-0.016841 -15.9539 73.524597
0.886558 -15.862 73.550301
1.73305 -15.7154 73.6231
-0.01663 -15.8543 74.300499
0.90022099 -15.7664 74.326103
1.74228 -15.6242 74.390297
5.4984698 -13.8314 73.501602
5.3855 -13.6775 74.175102
5.2806802 -13.6126 74.8255
2.49686 -15.8153 72.978699
2.48698 -15.6438 73.735497
2.4639001 -15.549 74.474098
7.73388 -10.5229 73.657997
7.0928502 -11.7883 73.224297
6.3612299 -12.9351 72.917503
7.9676499 -10.4883 73.2052
7.2698698 -11.9458 72.659302
6.49684 -13.2201 72.271103
5.6100402 -14.0822 72.798203
4.8461599 -15.0583 72.737999
5.7186699 -14.3722 72.1875
4.9303098 -15.3287 72.168602
4.0639701 -15.6513 72.649902
3.27249 -15.9376 72.4944
4.1145902 -15.9377 72.062202
3.28108 -16.239 71.888802
2.4792099 -16.028299 72.330498
1.67093 -16.093901 72.211098
2.44468 -16.3381 71.709
1.61429 -16.412901 71.585403
0.83515102 -16.252399 72.170601
-0.017264999 -16.355101 72.169899
0.79501802 -16.5877 71.556297
-0.017495001 -16.701099 71.565002
8.8183498 -6.9958901 74.124001
8.4825201 -7.5150499 74.416298
8.1473799 -8.0038605 74.758598
8.5054502 -8.7739296 73.745598
8.2080498 -9.0425997 74.088402
7.8980298 -9.3383799 74.478401
7.1674099 -2.0862501 85.343803
7.15661 -1.98848 84.7201
6.6108098 -0.95477998 85.668297
6.5771999 -0.87164497 85.040001
5.9724302 -0.027223 85.910698
5.9296198 0.041136999 85.277
7.1446099 -1.88368 84.123299
7.1313801 -1.76536 83.517303
6.5487599 -0.782103 84.431099
6.52876 -0.67929602 83.8106
5.8956199 0.119218 84.657402
5.8745399 0.214347 84.027901
3.0184801 -15.277 81.718399
2.5025301 -15.4444 81.675598
1.89597 -15.5826 81.647102
3.06832 -15.2531 81.012703
2.55428 -15.4236 80.952904
1.9431 -15.5589 80.9142
1.97646 -15.5341 80.285004
1.99638 -15.5104 79.7342
2.58266 -15.4043 80.334503
2.59763 -15.3875 79.796204
3.08671 -15.2347 80.4039
3.0944099 -15.221 79.866402
4.3769498 -14.2983 81.217201
5.0730801 -13.5418 81.355499
5.7231998 -12.6686 81.536598
4.3143101 -14.3671 81.898102
4.9899802 -13.6524 82.039703
5.6254501 -12.8171 82.228104
5.8938298 -12.3844 80.221603
5.8143802 -12.5164 80.845596
5.1701298 -13.3786 80.073601
5.13376 -13.442 80.699799
4.4245 -14.2122 80.009804
4.4081502 -14.2431 80.589897
-0.0096429996 3.38657 84.070396
-0.0095210001 3.18718 84.773697
-0.0093970001 3.0151 85.455299
0.88594002 3.3417799 84.206001
0.87697297 3.1561201 84.910698
0.86592901 3.00653 85.583298
1.81785 3.1856401 84.429604
1.80214 3.0241101 85.131798
1.78429 2.91504 85.787804
1.7647001 2.89203 86.383202
0.85403401 2.9237299 86.2061
-0.0092700003 2.90204 86.095299
7.6930599 -4.6935701 84.518501
7.72789 -5.8540802 84.195297
7.6798902 -6.91573 83.9776
7.72824 -4.5865102 83.892799
7.7706399 -5.7508502 83.520401
7.7174702 -6.8033099 83.274399
7.7470398 -6.64393 82.5811
7.7551298 -6.4451299 81.949402
7.8014798 -5.6071801 82.9478
7.80687 -5.4081101 82.311897
7.7525001 -4.44631 83.320702
7.7541299 -4.2664299 82.729301
6.7666402 -10.7562 82.074203
6.6972799 -10.9245 82.786003
6.2909398 -11.7323 81.778801
6.1989999 -11.9003 82.475304
6.4705701 -11.3463 80.4403
6.90204 -10.3637 80.744499
6.3815298 -11.5526 81.097099
6.8376198 -10.5701 81.388298
7.4271998 -8.7691803 82.722603
7.40839 -8.8994303 83.521202
7.1469102 -9.75809 82.403099
7.1071901 -9.9116697 83.152
7.2333598 -9.3728905 81.055298
7.4780502 -8.3858004 81.356201
7.1932101 -9.5719404 81.694603
7.45577 -8.5813503 81.989899
7.5229101 -3.3899801 84.936897
7.5380001 -3.2802 84.316101
7.5460601 -3.15576 83.733299
7.5409799 -3.01015 83.1493
7.6087999 -7.8069401 83.002602
7.6342702 -7.6156301 82.269096
7.6468 -7.4215398 81.642601
7.58463 -7.90661 83.785797
1.05194 -15.7868 80.887901
1.02397 -15.8132 81.620598
-0.015057 -15.9213 80.877701
-0.014887 -15.9487 81.607803
-0.015333 -15.8564 79.670799
1.08731 -15.7268 79.688599
-0.015202 -15.8903 80.247299
1.07376 -15.7575 80.256401
3.6128099 2.3376601 86.403702
3.6266401 2.35147 85.782204
2.73194 2.6923299 86.442299
2.75172 2.7023499 85.839897
2.76894 2.7434299 85.2146
3.63798 2.38708 85.160301
2.7871001 2.8917899 84.526604
3.65377 2.4685199 84.513397
3.68401 -14.8808 81.102303
3.63235 -14.9201 81.791603
3.7093201 -14.8344 79.938301
3.7012801 -14.8523 80.491096
7.1173 -1.62431 82.858803
7.51823 -2.84162 82.4608
7.7242398 -4.0775099 82.039597
7.0946898 -1.4792 82.070999
7.4768 -2.6810801 81.693802
7.6698198 -3.8982501 81.302498
7.6033502 -3.7362499 80.522301
7.5433502 -3.5871899 79.718803
7.42031 -2.5379701 80.895203
7.3675199 -2.40784 80.0783
7.0588498 -1.34745 81.262604
7.0246201 -1.22797 80.441101
1.8405401 3.66009 82.953102
0.89503998 3.8198299 82.742599
-0.0098829996 3.8638999 82.602898
1.8302701 3.40554 83.692596
0.89155197 3.5667601 83.480598
-0.0097610001 3.61322 83.355598
-0.010184 4.3505201 80.871803
-0.010031 4.1193199 81.736397
0.90729398 4.29949 81.044998
0.89877301 4.0732899 81.894096
1.8684601 4.13205 81.327103
1.85124 3.9116399 82.156998
6.48704 -0.159989 80.757599
5.88272 0.74261498 81.011597
6.4992299 -0.28053099 81.581299
5.8769102 0.61511099 81.835098
6.5124402 -0.413445 82.392303
5.8723402 0.47474399 82.643898
5.8690901 0.333628 83.367996
6.51964 -0.554353 83.152397
6.99192 -9.9963303 79.5718
6.95298 -10.1748 80.176003
6.6561399 -10.9078 79.338699
6.5813699 -11.1013 79.901001
6.2383399 -11.8205 79.122902
6.10287 -12.0517 79.657799
7.0608902 -9.7208204 78.167503
7.0239301 -9.8468599 78.893997
6.7450099 -10.6894 77.948196
6.70227 -10.7792 78.676201
6.4051199 -11.5255 77.786102
6.3339701 -11.6391 78.501999
6.06951 -12.2165 77.691299
6.00914 -12.2777 78.408997
5.91433 -12.4163 79.031898
5.6559501 -12.8774 77.634804
5.6561599 -12.8349 78.350197
5.6732702 -12.7864 78.977203
5.7576199 -12.6213 79.559502
1.98595 -15.4652 78.6726
2.00437 -15.4879 79.2117
1.07769 -15.6609 78.555702
1.09127 -15.6942 79.128899
-0.015599 -15.7784 78.491501
-0.015464 -15.8186 79.088402
-0.015884001 -15.7518 77.284103
0.99875802 -15.6464 77.348701
1.86502 -15.4685 77.4506
-0.015737999 -15.7431 77.882797
1.04187 -15.6311 77.955002
1.93126 -15.443 78.0765
7.4716702 -8.0005903 80.093102
7.4799199 -8.1943102 80.738998
7.2678599 -9.0049801 79.830498
7.2555499 -9.1875696 80.459099
7.3067799 -8.6715097 78.421997
7.4755402 -7.6207299 78.677803
7.28229 -8.8320599 79.144402
7.4678402 -7.8071499 79.400002
7.73141 -6.2464099 81.302101
7.6336899 -7.2252498 81.009697
7.6893802 -6.0486698 80.619904
7.6073198 -7.0262799 80.347504
7.64675 -5.85358 79.893799
7.5841799 -6.8255801 79.6418
7.6147699 -5.66501 79.142799
7.5725899 -6.6305599 78.910202
7.7769299 -5.2104802 81.6465
7.7235999 -5.0187502 80.938797
7.6638398 -4.8379598 80.185501
7.6129999 -4.6668801 79.407097
3.7056899 2.9204199 83.079201
2.82845 3.35675 83.064301
3.6773701 2.67487 83.8041
2.80726 3.10498 83.798798
2.87534 3.83461 81.448502
2.8501 3.6094699 82.283897
3.76369 3.4049499 81.435699
3.73475 3.17313 82.285797
4.4432602 -14.2096 79.4533
4.4498 -14.2191 78.861603
5.1501999 -13.4263 79.494797
5.1258402 -13.4879 78.9216
5.1010399 -13.5488 78.291397
4.4303999 -14.2543 78.234398
5.0861502 -13.6067 77.585899
4.4075599 -14.3087 77.540497
3.1170599 -15.1922 78.797897
3.11185 -15.2088 79.351997
2.6003101 -15.3538 78.752701
2.60975 -15.3721 79.288902
3.05129 -15.2078 77.484802
3.0887699 -15.1743 78.159401
2.4960101 -15.3618 77.485001
2.5536699 -15.332 78.137001
3.74648 -14.8141 78.829803
3.7278199 -14.8154 78.189201
3.7005301 -14.8587 77.503098
3.7323599 -14.8238 79.404503
7.2147899 -9.5113897 76.698997
7.1177802 -9.6090097 77.429497
6.9141002 -10.5521 76.458504
6.8085399 -10.6147 77.202103
6.5650501 -11.465 76.278397
6.4650102 -11.4902 77.034302
7.5803599 -8.8812904 75.571297
7.3692002 -9.3404799 76.036903
7.3052502 -9.9492702 75.3647
7.0787301 -10.3006 75.857597
6.71913 -11.2004 75.712303
4.4345298 -14.4344 76.049301
3.7172501 -14.9935 76.009903
3.0448501 -15.3399 75.979698
4.48803 -14.4084 75.401299
3.7672701 -14.998 75.3367
3.08149 -15.3559 75.275803
3.0344601 -15.2858 76.729897
3.6947899 -14.9403 76.7491
4.40734 -14.3877 76.787399
1.81408 -15.527 76.7174
0.964185 -15.6894 76.652
-0.016055999 -15.7868 76.608704
1.77946 -15.5654 75.944901
0.93802899 -15.7105 75.9086
-0.016233001 -15.7988 75.886902
-0.016423 -15.805 75.1091
0.91687399 -15.7179 75.130203
1.75629 -15.5758 75.175697
-0.010898 5.0813599 77.190201
-0.010717 4.91118 78.107597
-0.010519 4.72087 79.1166
0.99646902 5.00389 77.3386
0.97193301 4.8396401 78.248001
0.946922 4.6586699 79.260696
2.0142801 4.7964401 77.614197
1.97395 4.6453099 78.494904
1.9339 4.4794898 79.496803
1.89711 4.31458 80.447701
0.924151 4.4858198 80.186302
-0.010343 4.5415201 80.023903
5.8924899 0.85193199 80.179901
6.4864998 -0.053382002 79.927597
7.0100298 -1.11748 79.615402
5.9123602 0.96543503 79.361099
6.5075898 0.042137001 79.118103
7.0265002 -1.0120699 78.812302
7.0800099 -0.90860897 78.0597
7.1619701 -0.80872399 77.377701
6.5571499 0.130574 78.359802
6.6302299 0.212109 77.675797
5.9486599 1.11128 78.575996
6.0050702 1.23859 77.869102
7.7409701 -7.8292098 75.787697
7.81038 -6.86164 75.995102
7.5597801 -8.27952 76.288803
7.66151 -7.15236 76.572304
7.4295402 -8.39503 76.976601
7.5594902 -7.2934799 77.245102
7.5016398 -7.4492002 77.952797
7.3502402 -8.5254297 77.693001
7.61972 -5.3188901 77.666901
7.6737199 -5.1623702 76.986198
7.7734799 -5.0132499 76.359703
7.5819602 -4.3468199 77.879601
7.6119199 -4.1957798 77.180901
7.68751 -4.0499501 76.543297
7.4970798 -3.30475 78.140701
7.51752 -3.1654401 77.420898
7.5808101 -3.02918 76.767899
7.50669 -3.4445701 78.915497
7.5840302 -4.5036502 78.629303
7.60288 -5.48627 78.392403
6.3144598 -12.0022 75.607803
6.19279 -12.23 76.173401
5.8195901 -12.7882 75.530296
5.7343602 -12.939 76.127701
5.6806102 -12.9204 76.8787
6.1138201 -12.223 76.935799
7.4475002 -1.92149 77.058899
7.3754101 -2.04106 77.728798
7.3393002 -2.1632299 78.468002
7.3379698 -2.28438 79.2603
7.5798402 -6.4481001 78.178299
7.61692 -6.2800798 77.467697
7.69449 -6.1259599 76.796799
7.8175602 -5.9799399 76.175003
3.7925401 3.6064301 80.540703
3.8218601 3.7852299 79.625198
2.9070101 4.0251098 80.554901
2.9433501 4.19561 79.610001
2.9821301 4.3576899 78.656998
3.8531699 3.94818 78.737198
3.0239699 4.4977999 77.831001
3.8910699 4.0805302 77.967499
5.13168 -13.7077 76.088303
5.0954199 -13.6735 76.831398
5.1944399 -13.6279 75.463997
2.44172 -15.4818 75.964203
2.45735 -15.4323 76.733498
2.4458499 -15.497 75.223999
8.8807898 -5.5155902 74.266403
8.8050098 -4.3903198 74.300697
8.5568199 -6.17384 74.6054
8.5157604 -5.0669999 74.717003
8.2436504 -6.76753 74.969803
8.2431698 -5.6872602 75.129898
7.8424401 -8.4491501 75.1437
7.9695201 -7.3044901 75.362503
8.0055799 -6.27107 75.5532
8.7087803 -3.4605501 74.308899
8.5956097 -2.64534 74.305
8.4451199 -4.1300998 74.787399
8.3488398 -3.29386 74.8349
8.2002401 -4.7553201 75.245201
8.1200199 -3.9110799 75.336998
7.9881101 -5.3618999 75.702904
7.9245501 -4.5224099 75.831902
8.4453001 -1.88318 74.320099
8.25741 -1.10975 74.406403
8.2157698 -2.49265 74.894501
8.0559597 -1.66793 75.014397
8.0005903 -3.0904901 75.442398
7.86092 -2.23914 75.604698
7.8197398 -3.6935 75.977501
7.69766 -2.83288 76.181602
8.0178299 -0.308469 74.615898
7.63799 0.42605299 74.952904
7.8596902 -0.80718899 75.2388
7.51687 -0.0084729996 75.567398
7.6957998 -1.3455499 75.860802
7.38204 -0.48809299 76.196701
7.5553598 -1.80785 76.463699
7.2625499 -0.71458399 76.775597
7.05793 1.2203799 75.284103
6.40659 1.9983 75.558899
6.9477401 0.82037002 75.897102
6.2943702 1.66409 76.151001
6.8275599 0.436068 76.512802
6.18189 1.46163 76.7043
6.72047 0.30777001 77.070396
6.08359 1.35136 77.254303
4.1120801 4.4136901 75.990997
3.2144301 4.8899698 75.917099
2.16679 5.26437 75.704002
4.0531602 4.30091 76.469902
3.1661899 4.77426 76.375
2.1282301 5.1263299 76.155998
3.9948299 4.2364502 76.917397
3.11765 4.6908798 76.798103
2.0906301 5.0250401 76.568604
3.9393599 4.17061 77.3853
3.0696499 4.6041899 77.242104
2.053 4.9191699 77.006798
1.08183 5.4872298 75.374397
-0.011269 5.5518999 75.186699
1.06015 5.34864 75.820297
-0.011193 5.4226599 75.627197
1.03947 5.2314 76.257896
-0.011112 5.29777 76.087502
1.01871 5.1294298 76.709999
-0.011023 5.2039499 76.550697
7.5875502 -9.6378899 74.903
4.77315 3.8835001 75.963699
5.2996101 3.3120999 75.873596
5.8232498 2.6949401 75.746002
4.6954498 3.7399299 76.471298
4.6236401 3.6717601 76.946503
5.2021999 3.1096799 76.413902
5.1148901 3.0236101 76.9114
5.7139101 2.41102 76.322403
5.6122699 2.3050799 76.833199
4.5593901 3.60466 77.447403
4.5067501 3.5167501 78.039101
5.0398402 2.9421899 77.440804
4.9804001 2.84747 78.045998
5.5250602 2.20942 77.376099
5.4569802 2.10777 77.987999
4.4684701 3.3904099 78.773003
4.4398799 3.2326701 79.609901
4.93853 2.7249801 78.7631
4.90942 2.57549 79.567902
5.41043 1.98664 78.697899
5.3803 1.84303 79.488701
4.4151602 3.0532401 80.491402
4.3909101 2.8498001 81.374496
4.8870802 2.4019401 80.422997
4.8674002 2.2030101 81.291603
5.3599801 1.67515 80.331703
5.3442998 1.4819601 81.192802
4.3652201 2.6198201 82.229202
4.3389502 2.3732901 83.0401
4.8476501 1.97969 82.144096
4.8286099 1.76577 82.963799
5.3294601 1.32749 82.021004
5.3159699 1.1813101 82.826401
4.31426 2.1380899 83.756302
4.2958202 2.0195899 84.4226
4.8123798 1.6218899 83.6455
4.8034401 1.5055 84.308197
5.30615 1.0396 83.523399
5.3056998 0.922813 84.184502
4.2870302 1.94177 85.0625
4.2842698 1.89633 85.689796
4.80516 1.42203 84.947998
4.81459 1.36467 85.579498
5.31919 0.83371699 84.820702
5.3440099 0.76579797 85.448898
4.2807598 1.87108 86.3265
4.8267002 1.32491 86.222504
5.3758702 0.71158201 86.089302
-6.9631701 -10.9624 75.169197
-7.2307701 -10.7736 74.642197
-7.51091 -10.6318 74.135101
-6.5121999 -11.8442 75.015701
-6.71873 -11.7455 74.412399
-6.93262 -11.7273 73.806602
-5.9657898 -12.7047 74.899498
-6.1048298 -12.683 74.246803
-6.2522402 -12.7567 73.576698
-3.16926 -15.4183 74.562798
-3.8714199 -15.0651 74.658798
-4.5968399 -14.457 74.745598
-3.2312701 -15.5297 73.863197
-3.9554601 -15.1998 73.998497
-4.6908302 -14.5868 74.104103
-3.28177 -15.7157 73.140198
-4.0353899 -15.4082 73.313103
-4.789 -14.7937 73.438004
-0.90136999 -16.039101 72.777603
-0.92018503 -15.8633 73.548302
-0.93342698 -15.7675 74.3246
-1.7474101 -15.8884 72.842003
-1.76657 -15.7179 73.6194
-1.77538 -15.6264 74.387398
-5.5311499 -13.841 73.489799
-5.4177799 -13.6866 74.165199
-5.3126101 -13.6204 74.817703
-2.53074 -15.8192 72.972298
-2.5204201 -15.6475 73.730202
-2.4969299 -15.5521 74.470001
-0.86963302 -16.253599 72.168198
-1.70532 -16.096399 72.206398
-0.82995802 -16.5888 71.554001
-1.64913 -16.4151 71.580704
-2.51351 -16.032101 72.3237
-3.3066599 -15.9426 72.485497
-2.47943 -16.3414 71.702003
-3.3157799 -16.243601 71.879601
-4.09794 -15.6578 72.639
-4.8797998 -15.0663 72.725403
-4.1493301 -15.9437 72.051003
-4.9651198 -15.3362 72.155701
-5.6431799 -14.0918 72.784897
-6.3937602 -12.9462 72.904198
-5.75352 -14.381 72.173798
-6.53161 -13.2303 72.257401
-7.12468 -11.8011 73.2118
-7.7648902 -10.5375 73.647202
-7.3042998 -11.9571 72.647202
-8.0009804 -10.5 73.196198
-8.8483601 -7.0039401 74.123497
-8.5371304 -8.78444 73.741096
-8.5117197 -7.5327902 74.411102
-8.2381401 -9.05865 74.080399
-8.17665 -8.0248499 74.751099
-7.9280701 -9.35676 74.468803
-7.1887102 -2.0827999 85.347298
-6.6314101 -0.95159602 85.671501
-5.9924598 -0.024347 85.913597
-7.1781602 -1.9850301 84.723503
-6.5980601 -0.86847699 85.043198
-5.9499302 0.043993 85.2799
-7.16641 -1.88024 84.126701
-6.56988 -0.77894902 84.434303
-5.9161901 0.122058 84.660202
-7.1533999 -1.76193 83.520699
-6.5501299 -0.67615098 83.813797
-5.89537 0.217177 84.0308
-3.0478699 -15.2756 81.719803
-3.0980501 -15.2516 81.014198
-2.5320301 -15.4432 81.676804
-2.58411 -15.4223 80.954201
-1.92555 -15.5817 81.648003
-1.97302 -15.558 80.915199
-2.00667 -15.5332 80.286003
-2.6127901 -15.4031 80.3358
-3.11672 -15.2332 80.405403
-2.02685 -15.5094 79.735199
-2.62801 -15.3863 79.797401
-3.12468 -15.2195 79.867897
-4.4061198 -14.2961 81.219299
-4.3431802 -14.365 81.9002
-5.10182 -13.5394 81.357903
-5.0184398 -13.65 82.042099
-5.75143 -12.6658 81.539398
-5.65342 -12.8144 82.230904
-5.9225602 -12.3815 80.224403
-5.19941 -13.3761 80.076103
-4.4542098 -14.2101 80.012001
-5.8428702 -12.5136 80.848396
-5.1627698 -13.4395 80.702301
-4.4375901 -14.241 80.592003
-0.905182 3.3422101 84.206497
-1.83706 3.1865201 84.430496
-0.89596301 3.1565499 84.911102
-1.82108 3.0249901 85.132698
-0.88466603 3.0069499 85.583801
-1.8029701 2.9159 85.788696
-1.7831 2.89289 86.384003
-0.872509 2.92415 86.206596
-7.7160101 -4.6898599 84.522202
-7.7514501 -4.5827899 83.8965
-7.7515602 -5.8503599 84.199097
-7.79459 -5.7471099 83.524101
-7.7041702 -6.9120302 83.9813
-7.7420402 -6.7995901 83.278198
-7.7718601 -6.6402001 82.5849
-7.8256302 -5.6034198 82.951599
-7.7759099 -4.4425802 83.324402
-7.78016 -6.44139 81.953102
-7.8312302 -5.4043498 82.315697
-7.77774 -4.2626901 82.733002
-6.7936902 -10.7529 82.077499
-6.3186102 -11.7293 81.781799
-6.7240701 -10.9213 82.789299
-6.2263999 -11.8973 82.478401
-6.4986901 -11.3432 80.443398
-6.40944 -11.5496 81.100197
-6.9295402 -10.3604 80.747902
-6.8649201 -10.5668 81.391602
-7.45298 -8.7656002 82.726196
-7.1733198 -9.7546501 82.406601
-7.4338498 -8.8958597 83.524803
-7.1333098 -9.9082403 83.155403
-7.2602401 -9.3694 81.0588
-7.2198801 -9.56847 81.697998
-7.5043101 -8.3821898 81.359802
-7.4818201 -8.5777597 81.9935
-7.5450301 -3.3863599 84.940498
-7.56037 -3.2765601 84.319702
-7.5686498 -3.1521299 83.737
-7.5637898 -3.00652 83.152901
-7.6339798 -7.8032699 83.006302
-7.6597099 -7.6119499 82.272797
-7.6724501 -7.41786 81.646301
-7.6094799 -7.9029598 83.789497
-1.08198 -15.7863 80.888397
-1.05367 -15.8127 81.621101
-1.1179 -15.7262 79.689102
-1.1041 -15.757 80.256897
-3.63148 2.3394001 86.405403
-2.7504101 2.69365 86.443703
-3.6456001 2.35321 85.783897
-2.7704799 2.70367 85.841202
-2.7879801 2.7447701 85.216003
-2.8064001 2.8931301 84.528
-3.6572199 2.3888299 85.162102
-3.67328 2.4702799 84.515099
-3.71351 -14.879 81.104103
-3.66154 -14.9183 81.793404
-3.7393601 -14.8326 79.940102
-3.73106 -14.8505 80.492897
-7.1395798 -1.62089 82.862297
-7.11728 -1.47578 82.074402
-7.5412798 -2.8380001 82.4645
-7.5001502 -2.67748 81.697502
-7.7480898 -4.0737901 82.043297
-7.6939502 -3.8945601 81.306198
-7.6277699 -3.7325799 80.526001
-7.4439802 -2.53439 80.898804
-7.0817699 -1.34405 81.265999
-7.56809 -3.58356 79.722397
-7.39152 -2.40429 80.081902
-7.0478702 -1.22458 80.444504
-1.86024 3.66098 82.954002
-1.84973 3.40643 83.693497
-0.91475898 3.8202701 82.743103
-0.911035 3.5671999 83.481003
-0.92760199 4.2999301 81.045403
-1.88871 4.1329598 81.328003
-0.91878098 4.07372 81.894501
-1.8712 3.9125299 82.157898
-6.5096302 -0.156864 80.760696
-6.5214801 -0.277401 81.584503
-6.5343599 -0.410308 82.395401
-5.9047499 0.74544901 81.014397
-5.8986101 0.61794198 81.837997
-5.8937201 0.47757399 82.646698
-5.8901901 0.33645499 83.370796
-6.5412598 -0.55121303 83.155502
-7.0198102 -9.99296 79.575203
-6.6845899 -10.9046 79.341904
-6.2673302 -11.8175 79.1259
-6.98067 -10.1714 80.179398
-6.6096401 -11.0981 79.904198
-6.1317101 -12.0488 79.660698
-7.0893302 -9.7174196 78.170898
-6.7740202 -10.6862 77.951401
-6.4346099 -11.5224 77.7892
-7.0520802 -9.8434801 78.8974
-6.7309699 -10.776 78.679497
-6.3631701 -11.6361 78.505096
-6.09938 -12.2136 77.694298
-5.6861701 -12.8747 77.637497
-6.0387001 -12.2748 78.411903
-5.6860099 -12.8322 78.352898
-5.9436498 -12.4134 79.034698
-5.7027898 -12.7837 78.979897
-5.7867899 -12.6185 79.562302
-2.0169101 -15.4642 78.6735
-1.1088001 -15.6604 78.556198
-2.03508 -15.4869 79.2127
-1.12212 -15.6937 79.129402
-1.03044 -15.6459 77.349197
-1.0732599 -15.6306 77.955498
-1.89657 -15.4676 77.4515
-1.9625 -15.4421 78.077499
-7.4983501 -7.9969902 80.096802
-7.2951498 -9.0014696 79.834
-7.5063901 -8.1907101 80.742599
-7.28263 -9.1840801 80.462601
-7.33459 -8.6679897 78.425598
-7.3098302 -8.8285503 79.147903
-7.5027199 -7.6171298 78.681396
-7.49476 -7.8035498 79.403603
-7.75667 -6.2426901 81.305801
-7.71487 -6.04497 80.623596
-7.6595602 -7.22157 81.013397
-7.63341 -7.0226102 80.351196
-7.6725001 -5.8498902 79.897499
-7.64079 -5.6613402 79.1464
-7.6105099 -6.8219199 79.6455
-7.5991802 -6.6269102 78.913902
-7.8015199 -5.2067399 81.6502
-7.7484398 -5.0150299 80.942596
-7.6889601 -4.83427 80.189301
-7.6384101 -4.6632099 79.410797
-3.7256801 2.92221 83.081001
-3.69713 2.67664 83.805901
-2.8482399 3.35811 83.065697
-2.8268099 3.1063299 83.800102
-2.8956699 3.83599 81.449898
-3.78424 3.40677 81.437599
-2.8701401 3.6108401 82.285202
-3.7550001 3.1749301 82.287598
-4.4732399 -14.2075 79.455498
-5.17978 -13.4238 79.497299
-4.4800601 -14.2169 78.8638
-5.1557202 -13.4855 78.924103
-5.1312599 -13.5463 78.2939
-5.1167402 -13.6043 77.588303
-4.4609799 -14.2521 78.236504
-4.4385099 -14.3066 77.542603
-3.14783 -15.1906 78.7994
-2.63118 -15.3525 78.753998
-3.14235 -15.2073 79.3535
-2.6403699 -15.3708 79.2901
-3.0827 -15.2063 77.486298
-2.5274899 -15.3606 77.486198
-3.1198399 -15.1728 78.160896
-2.58482 -15.3308 78.138199
-3.77705 -14.8123 78.831703
-3.7586999 -14.8136 78.191002
-3.73176 -14.8569 77.504898
-3.76265 -14.822 79.406303
-7.2438402 -9.5079098 76.702499
-6.9437699 -10.5488 76.4618
-6.5952401 -11.4618 76.281601
-7.1465001 -9.6055803 77.432899
-6.8378701 -10.6114 77.205399
-6.4948401 -11.4871 77.037498
-7.6096601 -8.8988104 75.564301
-7.3351598 -9.9648199 75.356598
-7.39849 -9.3530102 76.032097
-7.1085701 -10.3121 75.851799
-6.7494702 -11.2105 75.7062
-4.46626 -14.4365 76.047302
-4.5200601 -14.4129 75.396698
-3.74927 -14.9951 76.008301
-3.7996199 -15.0016 75.332703
-3.07705 -15.341 75.9785
-3.1140399 -15.3587 75.272499
-3.0662701 -15.2843 76.7314
-3.7264299 -14.9385 76.7509
-4.4386902 -14.3856 76.789497
-1.84601 -15.5261 76.718201
-1.81178 -15.5659 75.944298
-0.99622899 -15.6889 76.652397
-0.97044301 -15.7108 75.908302
-0.94966799 -15.7187 75.129303
-1.789 -15.5773 75.173798
-1.01823 5.0043702 77.339104
-2.03601 4.79741 77.615196
-0.993334 4.8401098 78.248497
-1.99533 4.6462598 78.495903
-0.96792001 4.6591301 79.261101
-1.95487 4.4804201 79.497704
-1.9177001 4.3154898 80.448601
-0.944785 4.48627 80.186798
-5.9148698 0.85477102 80.1828
-5.9350901 0.96828401 79.363998
-6.5094399 -0.050257001 79.930702
-6.53088 0.045272 79.1213
-7.0336399 -1.1141 79.618797
-7.0504398 -1.00869 78.815697
-7.10426 -0.90519899 78.063103
-6.58076 0.133733 78.362999
-5.9717002 1.11414 78.578796
-7.1865001 -0.80527401 77.381203
-6.65413 0.215303 77.679001
-6.0283799 1.24148 77.872002
-7.76965 -7.8481002 75.782402
-7.5884399 -8.2758799 76.292397
-7.4579201 -8.3914499 76.980202
-7.8385 -6.8810201 75.991798
-7.6894898 -7.1486702 76.575996
-7.5872102 -7.2898302 77.248703
-7.5290899 -7.44559 77.956497
-7.3783302 -8.5218897 77.696503
-7.6462798 -5.3152199 77.670601
-7.6079502 -4.3431702 77.883301
-7.52244 -3.3011401 78.144402
-7.7005401 -5.15868 76.989899
-7.6381798 -4.1921101 77.184601
-7.54316 -3.1618099 77.4245
-7.80053 -5.00951 76.363503
-7.7140098 -4.0462499 76.546997
-7.60671 -3.0255301 76.771599
-7.5317502 -3.4409499 78.919098
-7.6097398 -4.49999 78.633003
-7.6291699 -5.4826102 78.396103
-6.3452301 -12.0109 75.6017
-5.85079 -12.7954 75.524498
-6.2234001 -12.2342 76.170898
-5.7653298 -12.9426 76.125099
-5.7112098 -12.9176 76.881401
-6.1440601 -12.22 76.938797
-7.4727302 -1.91791 77.0625
-7.4003701 -2.0375099 77.7323
-7.3639598 -2.1596899 78.471497
-7.3623099 -2.2808499 79.263802
-7.6066999 -6.4444499 78.1819
-7.6440501 -6.2764101 77.471397
-7.7218599 -6.1222601 76.800499
-7.84516 -5.9761801 76.178703
-3.8134201 3.6082599 80.542503
-2.92769 4.0265098 80.556297
-3.8431001 3.78707 79.627098
-2.9644001 4.1970301 79.611504
-3.0035601 4.3591299 78.658501
-3.0457399 4.4992599 77.832397
-3.8747599 3.9500401 78.738998
-3.9129801 4.0824099 77.969398
-5.1630502 -13.7105 76.086098
-5.1264 -13.6711 76.8339
-5.2260699 -13.6336 75.458702
-2.474 -15.4827 75.963203
-2.4892299 -15.4311 76.734703
-2.4784999 -15.4991 75.221397
-1.10431 5.4869199 75.375603
-2.1892099 5.2638698 75.706299
-1.08248 5.3485599 75.821297
-2.1505001 5.1273599 76.156998
-1.06164 5.2319002 76.2584
-2.1127501 5.0260501 76.569603
-1.04071 5.12992 76.710503
-2.07497 4.9201598 77.007797
-3.2369399 4.8892298 75.920303
-4.1347799 4.4121199 75.995399
-3.18853 4.7757902 76.376503
-4.0756798 4.3028598 76.471802
-3.1398201 4.69238 76.799599
-4.01717 4.23838 76.919403
-3.09165 4.60567 77.2435
-3.9614999 4.1725101 77.387199
-6.4306598 1.98833 75.568298
-7.0825 1.20494 75.295502
-7.6631098 0.40450701 74.965698
-6.3183098 1.65614 76.158798
-6.9722099 0.80651402 75.906799
-7.5419002 -0.029355001 75.5784
-6.2056699 1.46461 76.707298
-6.8519101 0.43935701 76.516098
-7.4070001 -0.50592798 76.205498
-6.1071401 1.35429 77.257202
-6.7446198 0.31100801 77.0737
-7.2873302 -0.71108598 76.779099
-8.0434704 -0.33199599 74.627998
-8.2835302 -1.13292 74.416496
-7.8852601 -0.83156699 75.249199
-8.0820599 -1.69332 75.023003
-7.7213302 -1.3680201 75.869102
-7.8870001 -2.26337 75.611298
-7.5808101 -1.8042099 76.4673
-7.7237601 -2.8531401 76.186302
-8.4718399 -1.90522 74.328102
-8.6225204 -2.66559 74.310799
-8.2423201 -2.5185101 74.900902
-8.3758097 -3.31968 74.839104
-8.0271702 -3.11601 75.446999
-8.1470404 -3.9374399 75.339302
-7.8463502 -3.7156401 75.980499
-7.9516301 -4.5460401 75.832802
-8.7360802 -3.47823 74.312798
-8.83286 -4.4042201 74.303001
-8.4725103 -4.1550999 74.789101
-8.5436296 -5.0901499 74.716499
-8.2277098 -4.7816801 75.245102
-8.2711496 -5.7127199 75.127296
-8.0156498 -5.3860402 75.701599
-8.0336399 -6.2948198 75.549698
-8.9095402 -5.5247302 74.2677
-8.5852804 -6.1941299 74.6026
-8.2722301 -6.7910399 74.9646
-7.9981599 -7.3269501 75.356598
-7.8717399 -8.4695702 75.135803
-7.6175399 -9.6559 74.893402
-5.84689 2.6884301 75.753799
-5.3228898 3.30778 75.880203
-4.7961102 3.88078 75.9692
-5.7374001 2.4119101 76.325996
-5.6355801 2.30779 76.835899
-5.2253199 3.11219 76.416496
-5.1378102 3.0260701 76.913902
-4.7182398 3.7421999 76.473602
-4.6462302 3.67399 76.948799
-5.5481501 2.21208 77.378799
-5.4798198 2.1104 77.990601
-5.0625501 2.9446199 77.443199
-5.0028501 2.84987 78.048401
-4.5817699 3.6068499 77.4496
-4.5288901 3.51893 78.041298
-5.4329901 1.9892499 78.7005
-5.4025402 1.84563 79.491302
-4.96069 2.72736 78.765503
-4.9312701 2.5778601 79.570198
-4.4903102 3.39257 78.7752
-4.4614 3.2348101 79.612
-5.3818998 1.67773 80.334297
-5.36589 1.48454 81.195396
-4.9085999 2.40429 80.425301
-4.8885899 2.2053499 81.293999
-4.4363298 3.0553701 80.4935
-4.4117599 2.8519199 81.376701
-5.3507299 1.33006 82.023598
-5.3369098 1.18387 82.829002
-4.8685398 1.98203 82.1464
-4.8492098 1.76798 82.965897
-4.3857598 2.6219201 82.2314
-4.35922 2.37538 83.042198
-5.3268299 1.04216 83.526001
-5.3261099 0.92536902 84.186996
-4.8327198 1.62421 83.647797
-4.8235102 1.50781 84.310501
-4.3343 2.1401701 83.7584
-4.3155899 2.0216601 84.424599
-5.3393402 0.83627999 84.823196
-5.3638802 0.768372 85.4515
-4.8249602 1.42435 84.950302
-4.8341098 1.36699 85.581802
-4.30653 1.94384 85.064598
-4.3034902 1.8983999 85.691902
-5.3954701 0.71417201 86.091904
-4.8459401 1.32723 86.2248
-4.2996802 1.87315 86.328598
7.3435001 -0.62282097 92.2873
7.5411601 -0.75998998 93.271698
8.0279598 -1.8267699 92.387299
8.0277395 -2.05356 93.416397
8.23384 -3.08886 92.3573
8.1503496 -3.3102901 93.5877
7.21384 -0.267667 93.2108
4.4936099 1.9548399 93.547997
4.0278802 2.20628 93.488098
3.3633201 2.51735 93.412399
4.6905098 2.0315599 94.1577
4.0799499 2.4145701 94.2416
3.3675399 2.7516201 94.196602
2.63939 2.7453201 93.288101
1.84474 2.8829401 93.111504
2.6268599 2.9773099 94.083
1.8292 3.1250701 93.902496
0.94848502 2.9481699 92.922203
-0.0076219998 2.9930699 92.823097
0.93869901 3.2451301 93.6726
-0.0073660002 3.3362 93.543999
1.89719 -16.372 90.904404
1.98956 -16.565201 92.514397
1.05501 -16.5767 90.772797
1.09512 -16.7649 92.437103
-0.012876 -16.6726 90.648903
-0.012522 -16.828501 92.269096
5.0285201 1.29761 92.262802
5.6080298 1.12938 93.338997
6.2403498 0.40912399 92.300102
6.4303598 0.418589 93.149498
5.1059499 1.64902 93.764397
4.6567502 1.70477 93.105598
3.38063 2.1531301 92.124298
3.3743999 2.3039401 92.728302
4.1031399 1.82401 92.217598
4.0468102 1.99537 92.839203
2.65362 2.39066 91.991898
1.84954 2.53701 91.7985
2.6568699 2.52303 92.612
1.8607 2.6521499 92.4412
0.94870502 2.5896399 91.577003
-0.0080439998 2.61075 91.458702
0.95765799 2.70467 92.244598
-0.0078499997 2.7361801 92.137497
7.6718998 -5.90134 91.579903
8.0209703 -4.5401502 91.986
7.7350798 -5.8154202 92.737801
7.9953399 -4.5655899 93.309502
7.55583 -6.8627701 92.330101
7.44596 -7.7519698 92.0298
7.4598098 -7.0159202 91.290298
7.3613 -7.9270401 91.082603
7.36058 -8.55023 91.750999
7.2810202 -9.2800598 91.4935
7.2924399 -8.7157803 90.890297
7.2230501 -9.4168196 90.708
6.95122 -10.8837 90.449699
7.1283998 -10.0692 90.548798
7.0970201 -10.7346 91.330704
7.1981201 -10.0283 91.369003
6.9411201 -11.3354 91.300003
6.5840998 -11.855 90.3181
6.6423998 -12.0988 91.249603
6.14955 -12.7841 90.233803
6.2747598 -12.911 91.240799
5.6763 -13.7209 90.428802
5.9042802 -13.7196 91.500801
5.1582398 -14.8704 91.391701
5.6307101 -14.6685 92.6269
5.0973601 -15.9907 94.649101
5.5777001 -15.739 95.287598
4.4815502 -15.5016 91.266701
4.5431099 -16.2635 94.289101
3.8589799 -15.9157 91.098297
3.9315701 -16.459801 93.919601
2.7530501 -16.2698 90.8563
2.5657699 -16.5329 92.769302
2.4655499 -16.303801 90.954803
3.2622499 -16.548401 93.415901
3.2551899 -16.1632 90.965202
7.1862302 -2.1791401 85.998398
6.6546202 -1.03566 86.324303
6.0236802 -0.092064001 86.570999
2.9577401 -15.3023 82.465797
2.44963 -15.4657 82.435997
1.85537 -15.6058 82.4133
4.2381902 -14.4375 82.611
4.9009199 -13.7599 82.743896
5.5303202 -12.9588 82.927902
1.73831 2.8728399 86.999298
0.839737 2.8817101 86.832199
-0.0091289999 2.84653 86.733101
7.6543398 -4.7835798 85.193901
7.6791701 -5.9849501 84.918503
7.6364899 -7.0286698 84.697403
6.6351299 -11.0894 83.492203
6.1146102 -12.0618 83.172897
7.40031 -8.9860897 84.256401
7.0708799 -10.0611 83.901497
7.5100698 -3.4880099 85.594002
7.5574298 -7.9844098 84.537697
1.00192 -15.8373 82.385101
-0.014709 -15.9726 82.369904
3.58166 2.32775 87.067398
2.6985099 2.6833301 87.077698
3.5652399 -14.9615 82.521004
1.65825 2.80914 88.365601
0.801682 2.8240299 88.195297
-0.0088149998 2.7870901 88.092003
1.6203099 2.74086 88.9189
0.78462499 2.7661099 88.726997
-0.0086949999 2.74382 88.6325
1.60918 2.68224 89.440201
0.78325498 2.7115901 89.226601
-0.0085890004 2.69383 89.1213
-0.0089739999 2.80863 87.415199
0.82163602 2.8477499 87.510498
1.7010601 2.84588 87.682503
4.84273 1.32594 89.761101
4.8302898 1.33104 89.1409
4.8289499 1.284 88.374901
4.0886598 1.82327 89.792702
4.1247802 1.8417799 89.206802
4.1748199 1.84583 88.513
3.32813 2.2023399 89.7612
3.37555 2.2432201 89.194298
3.4472799 2.3017099 88.577301
6.45436 -0.23359901 89.467499
6.29424 -0.222389 88.727303
6.1724701 -0.201004 87.9869
5.6627598 0.66862798 89.699799
5.5678101 0.63393801 88.952904
5.49757 0.61217201 88.199699
6.80515 -1.18758 87.724602
7.2823 -2.35869 87.3909
6.0862999 -0.154449 87.264603
6.7162099 -1.11552 87.010902
7.2231698 -2.2697101 86.680702
7.4752202 -2.58987 88.919197
7.3659301 -2.4449401 88.127296
7.0899901 -1.29549 89.197601
6.9295802 -1.24555 88.4589
7.5787301 -5.1038799 86.673897
7.6167498 -4.9300699 85.9245
7.5152402 -3.7121999 87.011703
7.5075598 -3.5799999 86.275597
7.5171599 -5.5089502 88.260002
7.5406098 -5.31144 87.457901
7.56984 -4.0750899 88.594498
7.5331802 -3.8957701 87.797501
7.5873499 -7.1462998 85.414803
7.6276202 -6.12432 85.644402
7.5346498 -7.2882199 86.151398
7.5727501 -6.29146 86.390602
7.4821 -7.46521 86.929703
7.5160499 -6.4956398 87.174301
7.4369798 -7.6343799 87.726601
7.47016 -6.6884799 87.976601
7.52947 -8.0350504 85.238602
7.4847102 -8.1339998 85.941902
7.4236798 -8.9186897 85.029701
7.4289498 -8.8479204 85.780602
7.4377899 -8.2718 86.699501
7.39574 -8.41078 87.487602
7.3927598 -8.8981199 86.518898
7.3495102 -9.0290298 87.294701
6.5818501 -11.2671 84.174103
7.02176 -10.2783 84.564201
7.3353 -9.3454304 84.895897
6.5257502 -11.4476 84.886299
6.9675202 -10.4816 85.248398
7.2694101 -9.64077 85.577904
7.2028298 -9.8769302 86.271301
7.1393499 -10.0807 87.033302
6.90171 -10.6616 86.024002
6.8256698 -10.8523 86.804497
6.4552898 -11.6136 85.674103
6.3724899 -11.7659 86.482399
5.44836 -13.0906 83.635201
6.0446401 -12.2207 83.866699
5.3764 -13.2111 84.365303
5.9792299 -12.3733 84.590401
5.90697 -12.5124 85.369102
5.8271699 -12.6413 86.155403
5.30794 -13.3201 85.125999
5.2372599 -13.4212 85.881699
4.1167898 -14.5569 84.063103
4.1708598 -14.5003 83.332397
4.7563601 -13.9447 84.191399
4.8223901 -13.8571 83.459702
4.02598 -14.8604 85.760201
4.0732598 -14.6871 84.885399
4.6393499 -14.189 85.765404
4.6992202 -14.0249 84.938599
1.84009 -15.7172 83.233704
2.4188399 -15.5445 83.225403
2.9111199 -15.3465 83.217796
1.8422101 -15.8451 84.074501
2.4059801 -15.6678 84.068398
2.8799801 -15.4691 84.061302
2.85952 -15.5827 84.941399
2.8436601 -15.6922 85.848999
2.4012499 -15.7829 84.958397
2.40028 -15.8924 85.899101
1.84922 -15.9671 84.969398
1.85698 -16.0802 85.929199
1.01537 -16.328501 85.932503
-0.013963 -16.4559 85.934601
1.00852 -16.2281 84.986504
-0.014168 -16.3678 85.001602
1.00131 -16.1145 84.098999
-0.014356 -16.2638 84.119202
-0.014531 -16.1502 83.280296
0.99630398 -15.9928 83.259903
2.5761001 2.6269901 88.503304
2.5140901 2.5579801 89.091103
2.4817801 2.50281 89.636002
2.6431601 2.6624801 87.788399
3.52229 2.31163 87.804604
7.29006 -9.5245705 87.170898
7.3415298 -9.3582897 86.401199
7.3916202 -9.1591797 85.692101
3.5076201 -14.999 83.248001
3.4639201 -15.0876 84.037498
3.4314699 -15.2264 84.911598
3.3993399 -15.3594 85.795303
-0.008351 2.6015501 90.198097
0.85404402 2.6054001 90.3013
1.71 2.5675399 90.507301
-0.0084760003 2.64467 89.637497
0.808263 2.6571901 89.741699
1.64256 2.62535 89.9524
1.79053 2.5227101 91.139
0.90836197 2.5703599 90.9207
-0.0082090003 2.5790701 90.8078
4.9643602 1.2569 91.575302
4.9103699 1.28082 90.9077
4.0918498 1.771 91.5466
4.0796299 1.78557 90.903198
3.3647799 2.1099701 91.4758
3.3382499 2.1331401 90.8405
3.3197601 2.1684699 90.285896
4.07549 1.80748 90.335701
4.8699198 1.30879 90.3265
7.1456399 -0.49747601 91.519699
6.8870902 -0.332571 90.835602
6.0770202 0.491658 91.510696
5.92273 0.55419099 90.879204
6.65272 -0.25158501 90.194702
5.78266 0.61647803 90.2911
8.08426 -2.9760001 91.296501
7.8216901 -2.85426 90.4757
7.8375401 -1.6017801 91.532799
7.5421 -1.48624 90.720901
7.2885699 -1.3743 89.950401
7.6169801 -2.7261801 89.6996
7.55688 -5.7708998 89.847702
7.7549801 -4.3500099 90.167702
7.6119599 -5.8713298 90.6455
7.9177399 -4.46456 90.976402
7.6374898 -4.22334 89.385399
7.5229001 -5.6556702 89.059502
7.3759899 -7.8520498 89.328697
7.4342799 -6.92735 89.570801
7.3502498 -7.9363799 90.180901
7.43011 -7.01582 90.386703
7.4457898 -6.8245401 88.7743
7.4042401 -7.75597 88.519302
7.3607998 -8.5224199 88.280502
7.3263898 -8.6224804 89.107101
7.3098998 -9.15277 88.085701
7.2693 -9.2759199 88.921501
7.22928 -9.3923903 89.823601
7.2923298 -8.7154703 89.9925
6.94631 -10.6691 89.484901
6.5959902 -11.5033 89.2257
6.1370802 -12.4913 89.109596
7.0032001 -10.4879 88.599098
6.6622 -11.2602 88.327797
6.1988802 -12.0941 88.0224
6.28369 -11.9126 87.260902
6.7434802 -11.0586 87.551498
7.0718098 -10.2863 87.796799
5.0945101 -13.9361 87.781601
5.16224 -13.633 86.730904
5.6671901 -13.0608 87.900703
5.7436099 -12.7689 86.915199
5.62185 -13.4282 89.112198
5.0637798 -14.3127 89.209099
4.5001798 -14.6584 87.689301
4.45752 -15.004 89.1166
3.8982301 -15.2304 87.658997
3.8512199 -15.5159 89.052399
4.5685301 -14.4041 86.648697
3.96365 -15.0271 86.634201
1.8704 -16.2547 88.112999
1.86393 -16.1805 86.9627
2.39782 -16.100599 88.029297
2.4000599 -16.000799 86.899803
2.80598 -15.9373 87.866997
2.82675 -15.8067 86.789001
1.87872 -16.297899 89.424599
2.39186 -16.188499 89.370201
2.7802999 -16.0865 89.204697
1.03585 -16.504299 89.321198
-0.013201 -16.606899 89.238197
1.0271 -16.4678 88.057198
-0.01349 -16.5716 88.007103
-0.013741 -16.5236 86.922302
1.02119 -16.410101 86.943199
2.5481901 2.40219 90.702003
2.6101999 2.36413 91.336899
2.4976399 2.4530201 90.150703
7.1365099 -10.0097 89.672501
7.18542 -9.8579102 88.776398
7.2385402 -9.6911697 87.950798
3.3580301 -15.4923 86.688301
3.31181 -15.6554 87.725998
3.2708499 -15.8744 89.0886
4.2642899 1.85418 87.002899
4.8344898 1.29593 86.897697
5.4110899 0.66525102 86.757202
4.8331299 1.27627 87.619598
5.4486299 0.62642598 87.462898
4.2258601 1.84068 87.740501
-7.3607402 -0.619286 92.290901
-8.0457296 -1.8229001 92.391197
-8.2522297 -3.0848999 92.361298
-7.5579901 -0.75635999 93.275299
-8.0451202 -2.0497 93.420303
-8.1682501 -3.30637 93.591698
-7.2304602 -0.26419401 93.214302
-4.5090098 1.957 93.550201
-4.7055702 2.0338199 94.160004
-4.04318 2.20822 93.489998
-4.09479 2.4165399 94.2435
-3.37851 2.51898 93.414001
-3.3822401 2.7532401 94.198196
-2.65453 2.7465999 93.289398
-2.6415 2.97858 94.084297
-1.8599 2.8838301 93.112396
-1.84386 3.1259601 93.903397
-0.96370298 2.9486301 92.922699
-0.953412 3.24558 93.672997
-1.92267 -16.371099 90.905296
-1.08065 -16.5762 90.7733
-2.01436 -16.564199 92.515404
-1.12005 -16.764299 92.437599
-5.0448499 1.30003 92.265198
-6.2570901 0.41212901 92.3032
-5.62392 1.13208 93.341698
-6.4466801 0.42168501 93.152603
-5.1213799 1.6514699 93.766899
-4.6724701 1.70701 93.107903
-3.39661 2.1547599 92.1259
-4.1192398 1.82599 92.219597
-3.3900199 2.3055699 92.730003
-4.06253 1.9973201 92.841103
-2.6695499 2.3919401 91.993202
-2.6724501 2.5243101 92.613297
-1.8655 2.5379 91.7994
-1.87629 2.6530399 92.442101
-0.964746 2.5901 91.5774
-0.97332102 2.7051401 92.245003
-7.6920199 -5.8976402 91.583603
-7.7546 -5.8116999 92.741501
-8.0402403 -4.5362902 91.989899
-8.0139799 -4.5618801 93.313103
-7.5760498 -6.8591299 92.333801
-7.4806099 -7.0123301 91.2939
-7.4667602 -7.7483802 92.033401
-7.3826299 -7.9235001 91.086197
-7.3818898 -8.54669 91.754601
-7.31425 -8.7122698 90.893898
-7.3028102 -9.2765503 91.497002
-7.2452898 -9.4133396 90.711502
-6.9742799 -10.8804 90.453102
-7.1195798 -10.7312 91.334099
-7.1510201 -10.0657 90.552299
-7.2203302 -10.0248 91.372398
-6.9639902 -11.3321 91.303299
-6.6076899 -11.8519 90.321297
-6.1736302 -12.7812 90.236801
-6.6656599 -12.0956 91.2528
-6.2984099 -12.9079 91.243896
-5.7007399 -13.7182 90.431602
-5.1827698 -14.8679 91.394203
-5.9281998 -13.7167 91.5037
-5.6545401 -14.6657 92.629601
-5.1208501 -15.9882 94.651604
-5.60076 -15.7363 95.290298
-4.5064402 -15.4995 91.268898
-3.88415 -15.9138 91.100098
-4.5668998 -16.261299 94.291298
-3.9556301 -16.457899 93.921501
-2.7785101 -16.2684 90.857697
-2.4909799 -16.3027 90.956001
-2.59043 -16.531601 92.7705
-3.2866099 -16.546801 93.417503
-3.28055 -16.1616 90.966797
-7.2072601 -2.1756799 86.0019
-6.6749401 -1.03246 86.327599
-6.0434299 -0.089162998 86.573898
-2.9867899 -15.3008 82.467201
-2.47877 -15.4646 82.437202
-1.88459 -15.6049 82.4142
-4.2667499 -14.4354 82.613098
-4.92909 -13.7575 82.746201
-5.5580101 -12.9561 82.930603
-1.75642 2.8736801 87.000099
-0.85793102 2.8821199 86.832603
-7.677 -4.7798901 85.197601
-7.7025499 -5.9812498 84.922203
-7.66048 -7.0249901 84.701103
-6.6616602 -11.0862 83.495399
-6.1417599 -12.0589 83.175797
-7.4254498 -8.9825296 84.260002
-7.0967102 -10.0577 83.904999
-7.53193 -3.48439 85.597603
-7.5819602 -7.9807701 84.541298
-1.03127 -15.8369 82.385597
-3.6000099 2.3294799 87.069199
-2.71668 2.6846299 87.079002
-3.5941 -14.9597 82.522697
-1.67573 2.8099401 88.366402
-1.63756 2.7416401 88.919701
-1.6262 2.6830101 89.441002
-0.81924403 2.82442 88.195702
-0.80195898 2.7665 88.727402
-0.80037302 2.7119701 89.226997
-0.83951801 2.84815 87.510902
-1.71886 2.8467 87.683296
-4.86025 1.32828 89.763496
-4.1059299 1.82524 89.794701
-3.3452301 2.2039399 89.762802
-4.8481102 1.33337 89.143303
-4.1423202 1.84377 89.208801
-3.39291 2.2448499 89.1959
-4.8471599 1.28632 88.377296
-4.1926999 1.84784 88.514999
-3.4649 2.30337 88.579002
-6.4727702 -0.230491 89.470596
-5.6806302 0.67135602 89.702499
-6.3130102 -0.219358 88.730301
-5.58606 0.63661999 88.955597
-6.1915898 -0.19803201 87.989799
-5.5161901 0.61482 88.2024
-6.1057501 -0.151517 87.267601
-6.8248701 -1.1842999 87.727898
-6.7362399 -1.11229 87.014099
-7.3027401 -2.35519 87.394402
-7.2439098 -2.2662301 86.684196
-7.4950399 -2.5862701 88.922798
-7.1090498 -1.29207 89.200996
-7.3860502 -2.44139 88.130798
-6.9489698 -1.24222 88.462196
-7.6008401 -5.1002302 86.677597
-7.53651 -3.70858 87.015297
-7.6391401 -4.9264002 85.9282
-7.52913 -3.57638 86.279198
-7.5386901 -5.5053301 88.263603
-7.5905199 -4.0714402 88.598099
-7.5624399 -5.3078098 87.461601
-7.5541701 -3.8921399 87.801201
-7.6110501 -7.1426501 85.418404
-7.5580702 -7.2845898 86.155098
-7.6507101 -6.1206398 85.648102
-7.5955601 -6.2878098 86.394203
-7.5052299 -7.4616098 86.933296
-7.4597902 -7.6307998 87.730202
-7.5385799 -6.4920201 87.178001
-7.4924002 -6.68501 87.980103
-7.55369 -8.0314198 85.242302
-7.44842 -8.9151096 85.033203
-7.5086298 -8.1303902 85.945503
-7.45329 -8.8443403 85.784203
-7.46141 -8.2682104 86.703102
-7.41677 -8.8945599 86.522499
-7.4190502 -8.4072104 87.491203
-7.37321 -9.0254898 87.298302
-6.60813 -11.2639 84.177299
-6.5517802 -11.4445 84.889503
-7.04737 -10.2749 84.567596
-6.9928999 -10.4782 85.251801
-7.3603001 -9.3418999 84.899498
-7.29423 -9.63727 85.581398
-7.2274299 -9.8734598 86.274803
-6.9267998 -10.6583 86.027397
-6.48101 -11.6104 85.6772
-7.1636701 -10.0773 87.036697
-6.8504801 -10.849 86.8078
-6.3979001 -11.7628 86.485497
-5.47577 -13.0879 83.637901
-5.4035201 -13.2085 84.367996
-6.0715299 -12.2178 83.869698
-6.0058398 -12.3704 84.5933
-5.93327 -12.5096 85.372002
-5.3347502 -13.3175 85.128601
-5.8531599 -12.6385 86.158203
-5.2637501 -13.4186 85.884201
-4.1447101 -14.5549 84.065102
-4.7839198 -13.9424 84.193703
-4.1991 -14.4983 83.334396
-4.8502598 -13.8548 83.461998
-4.0532198 -14.8585 85.7621
-4.6662698 -14.1868 85.7677
-4.1008401 -14.6851 84.887398
-4.72646 -14.0226 84.940903
-1.86897 -15.7163 83.234596
-1.87075 -15.8442 84.075401
-2.4476399 -15.5433 83.226501
-2.4344201 -15.6667 84.069603
-2.9398201 -15.3451 83.2192
-2.90834 -15.4677 84.062698
-2.8875 -15.5813 84.942802
