# .PCD v.7 - Point Cloud Data file format
VERSION .7
FIELDS x y z
SIZE 4 4 4
TYPE F F F
COUNT 1 1 1
WIDTH 1658
HEIGHT 1
VIEWPOINT 0 0 0 1 0 0 0
POINTS 1658
DATA ascii
-26.6957 -7.3257098 41.783699
-27.111099 -6.5399899 41.310001
-20.410101 -14.8721 64.242798
-20.8901 -15.2093 62.049599
-19.6737 -14.7861 64.350998
-20.0788 -15.1207 62.2066
-18.959 -14.7134 64.451202
-19.273899 -15.029 62.372799
-18.2246 -14.6388 64.560402
-18.511 -14.9535 62.518501
-18.9021 -13.7424 67.788902
-19.2955 -14.3543 66.175903
-18.233101 -13.6489 67.823402
-18.5965 -14.2704 66.245697
-17.5481 -13.5542 67.8526
-17.885799 -14.1824 66.311996
-45.523899 -12.4621 58.473202
-45.428902 -12.7348 58.7803
-46.106602 -11.7188 55.103001
-45.900101 -12.1727 56.8433
-45.963902 -11.8836 55.149502
-45.641701 -12.3613 57.0616
-45.698299 -12.0086 55.2243
-45.718399 -11.4154 53.520199
-45.013599 -11.092 51.554501
-45.532001 -11.5173 53.415298
-44.6674 -11.3917 51.204498
-45.201801 -11.7718 53.159901
-44.403301 -11.7077 50.904301
-43.894001 -10.9678 49.136501
-42.571499 -10.7739 46.818501
-43.598801 -11.3123 48.728401
-42.306999 -11.1504 46.369202
-43.442299 -11.6927 48.363098
-42.219898 -11.5828 45.915401
-41.0494 -10.4856 44.9981
-39.247501 -10.1579 43.808399
-40.736099 -10.836 44.558399
-38.895 -10.4587 43.442699
-40.595901 -11.2038 44.122299
-38.654099 -10.7469 43.043301
-37.001499 -9.8167295 43.206699
-35.076 -9.5193901 43.1157
-36.6171 -10.0718 42.913601
-34.5928 -9.7105303 42.855801
-36.394299 -10.3162 42.590599
-34.158199 -9.8549995 42.584099
-33.879601 -9.4329395 43.008499
-28.263 -8.7794399 42.9669
-15.609 -11.53 70.614899
-15.441 -10.3867 71.774498
-15.2912 -9.2200298 72.742401
-15.1571 -8.1854801 73.502899
-15.027 -7.3393798 74.086998
-19.578899 -13.8476 67.743599
-19.158199 -13.0084 69.285896
-18.5331 -12.9125 69.2966
-18.7836 -11.9997 70.663498
-18.207399 -11.9204 70.649002
-17.661501 -9.7017298 72.823502
-18.1703 -9.7868099 72.852501
-18.6702 -9.8631897 72.884201
-17.912901 -10.8118 71.834
-18.4498 -10.8887 71.858398
-18.9849 -10.9631 71.884003
-16.3309 -11.6553 70.613899
-17.252701 -12.7354 69.294197
-16.9911 -11.7511 70.621002
-17.903799 -12.8237 69.297203
-17.6133 -11.8381 70.633904
-16.119499 -10.5164 71.780502
-15.9319 -9.3582697 72.756203
-16.7509 -10.6251 71.792503
-16.540199 -9.4843798 72.774002
-17.348101 -10.7237 71.811302
-17.1182 -9.6001101 72.7967
-15.7711 -8.3257799 73.526001
-15.6228 -7.47473 74.121696
-16.3636 -8.4618397 73.550697
-16.2062 -7.6125998 74.155602
-16.9289 -8.5910702 73.578003
-16.7644 -7.7481098 74.189796
-17.4592 -8.7072401 73.607697
-17.287201 -7.8727999 74.224998
-29.997801 -15.1836 69.284302
-30.7278 -15.1599 69.699997
-31.0874 -15.7699 68.197304
-31.7782 -15.6965 68.6772
-29.2491 -15.2338 68.895699
-28.2568 -14.4695 70.204002
-27.370399 -13.574 71.509697
-29.040899 -14.4937 70.493103
-28.2024 -13.6689 71.722099
-29.812201 -14.5267 70.813301
-29.027599 -13.7571 71.969299
-26.6679 -12.5241 72.723297
-26.1406 -11.4497 73.790398
-27.538 -12.6761 72.8974
-27.039 -11.6309 73.949402
-28.408501 -12.81 73.1064
-27.943501 -11.7887 74.143402
-25.757601 -10.4494 74.693604
-25.601101 -9.5650501 75.3825
-26.67 -10.6339 74.856499
-26.613701 -9.7340603 75.579803
-27.592199 -10.7967 75.050301
-27.677999 -9.8861599 75.796898
-30.372801 -15.8949 67.732002
-29.6392 -16.033701 67.222397
-28.089199 -16.130199 66.026199
-28.9177 -16.131201 66.627602
-26.9086 -15.9296 65.796097
-25.803699 -15.688 65.706497
-25.8311 -15.1465 67.621498
-24.9508 -14.9734 67.534698
-24.173901 -14.8039 67.483902
-23.4095 -13.8891 69.229103
-22.682899 -12.7528 70.783203
-24.1077 -14.0321 69.298103
-23.312 -12.8842 70.8619
-24.858101 -14.1735 69.394402
-23.9739 -13.0209 70.959702
-22.062099 -11.5433 72.069801
-21.562599 -10.4009 73.1241
-22.655399 -11.6662 72.1549
-22.146299 -10.5235 73.212997
-23.2792 -11.8012 72.2537
-22.7652 -10.6617 73.312202
-21.2092 -9.4195299 73.949203
-20.9688 -8.6086702 74.587196
-21.796499 -9.5441599 74.041
-21.569799 -8.7367601 74.677299
-22.4223 -9.6853199 74.144501
-22.2103 -8.8801498 74.781403
-24.9076 -15.4689 65.669502
-24.103001 -15.2687 65.6735
-23.287399 -15.0792 65.726799
-22.444 -14.8965 65.808098
-20.7801 -14.5756 66.000504
-20.0159 -14.4534 66.093903
-21.5986 -14.7241 65.900497
-18.7213 -8.1644096 74.3433
-18.929501 -8.9761696 73.714996
-19.1905 -9.9418697 72.919701
-18.239901 -8.0749998 74.299797
-18.433399 -8.8923302 73.6745
-17.7712 -7.98037 74.261002
-17.952801 -8.8057499 73.639397
-19.5467 -11.0463 71.9105
-44.228699 -12.1856 50.768299
-43.402199 -12.3308 48.1367
-42.248798 -12.4182 45.300999
-44.132301 -13.1128 50.909599
-43.521801 -13.293 48.340302
-42.862099 -13.5584 45.906601
-43.995998 -14.2086 51.2062
-43.510502 -14.3521 48.6493
-42.980598 -14.5753 46.248001
-42.280201 -16.483101 46.5975
-41.7635 -17.368999 46.569901
-41.189999 -18.193399 46.447102
-42.724201 -16.460699 49.069302
-42.0732 -17.386499 49.033501
-41.3736 -18.2257 48.899502
-43.127201 -16.419201 51.637001
-42.357498 -17.3479 51.585201
-41.529999 -18.1628 51.4412
-41.553902 -15.6794 38.0481
-41.396198 -16.1413 37.944199
-41.188801 -16.5578 37.8722
-41.826801 -15.461 39.8829
-41.609299 -15.8608 39.8172
-41.302898 -16.237301 39.7505
-43.679798 -15.3473 51.492401
-44.305401 -14.261 53.4268
-43.895599 -15.3879 53.673698
-43.3008 -16.4382 53.793201
-44.401001 -14.4586 55.411098
-43.883999 -15.5336 55.588001
-43.253101 -16.520901 55.669498
-30.874201 -18.942699 52.433899
-31.4991 -18.8552 50.482899
-32.338402 -18.6924 48.291599
-29.6586 -18.028999 52.136799
-30.143499 -17.937 50.144901
-30.711399 -17.7472 48.141499
-28.864901 -16.806801 51.813801
-29.2251 -16.693001 49.822899
-29.691099 -16.5359 47.878601
-40.917801 -18.116501 58.9119
-41.288898 -18.1588 57.264301
-41.5243 -18.1546 55.4603
-39.827599 -18.573299 58.688499
-40.266201 -18.6745 57.091702
-40.587002 -18.740801 55.316601
-38.595798 -18.8799 58.407101
-39.111301 -19.0263 56.873299
-39.543201 -19.1584 55.143101
-32.099201 -11.8289 38.868198
-32.864799 -12.28 37.4002
-33.305801 -11.6365 39.1059
-34.0681 -12.106 37.602001
-34.7206 -11.6109 39.257
-35.396801 -12.0757 37.740002
-42.439899 -17.4051 55.604698
-41.594799 -18.141399 53.5882
-42.4865 -17.3547 53.732899
-35.148701 -19.4807 49.867802
-35.481701 -19.5956 52.182499
-35.658901 -19.532499 54.084099
-36.499401 -19.7045 50.326401
-36.5051 -19.638201 52.472401
-36.134399 -19.5166 54.230701
-37.665699 -19.863001 50.614799
-37.561401 -19.705601 52.771301
-37.1982 -19.518 54.559898
-33.7528 -19.230101 49.2677
-34.373199 -19.6285 51.765999
-32.980801 -19.408501 51.094299
-33.626099 -19.7677 53.506699
-32.293999 -19.524401 52.9221
-30.166 -16.330799 46.050098
-30.569901 -16.1702 44.3848
-29.234699 -15.1618 47.618999
-29.6402 -15.0497 45.945599
-29.991199 -14.9591 44.3638
-28.6817 -14.0535 47.394501
-29.1621 -13.9602 45.870098
-29.4653 -13.6429 44.209599
-33.7785 -17.7309 36.757301
-32.811901 -17.015499 36.9063
-31.943001 -16.1187 37.046299
-33.200901 -17.5562 38.6978
-32.181099 -16.9119 38.767799
-31.2677 -16.1033 38.827801
-28.5476 -15.4033 51.283401
-28.8454 -15.2662 49.403198
-27.733101 -14.2239 50.684601
-28.174801 -14.1017 48.9608
-39.356098 -18.056101 39.250999
-39.8134 -18.741501 37.4566
-38.6143 -18.3095 39.0387
-39.081699 -19.039101 37.220001
-37.813202 -18.437099 38.858299
-38.282501 -19.0984 36.976799
-40.742901 -17.1807 39.660099
-40.982601 -17.558201 37.789799
-40.120899 -17.660999 39.4837
-40.502499 -18.191299 37.6544
-41.129101 -17.0133 37.841301
-41.075199 -16.6861 39.7239
-26.929199 -14.8834 54.701698
-27.530199 -15.7215 55.0411
-28.2563 -16.873301 55.492401
-27.354401 -14.4914 52.630699
-28.3431 -15.6071 53.2299
-28.6724 -16.896601 53.748402
-30.3424 -18.728201 56.164001
-31.6091 -19.260599 56.503399
-32.951099 -19.491501 56.881401
-30.5096 -18.9046 54.368801
-31.8585 -19.4755 54.778999
-33.221901 -19.7087 55.256001
-38.848701 -19.795099 50.920101
-38.7215 -19.610001 53.079601
-38.338501 -19.4119 54.8932
-39.9268 -19.4653 51.161201
-39.832901 -19.3092 53.310001
-36.433399 -11.8856 39.280399
-36.916599 -12.3243 37.860802
-38.2318 -12.4703 39.3881
-38.437698 -12.8431 37.989101
-37.000401 -19.675501 45.212399
-35.727901 -19.480499 45.986599
-34.814701 -19.1765 46.500801
-37.374199 -19.9041 48.037201
-36.1423 -19.637199 48.005299
-35.054901 -19.3587 48.281399
-39.808201 -19.5751 48.571201
-39.596001 -19.484301 46.044102
-38.655998 -19.8925 48.306198
-38.349499 -19.7637 45.737
-41.094398 -14.2068 39.790001
-40.8162 -14.383 38.190201
-41.714802 -14.9262 39.885201
-41.395199 -15.0955 38.151001
-32.349499 -18.2514 46.186401
-32.4841 -17.9454 44.444901
-31.118299 -17.4429 46.192902
-31.417 -17.180599 44.434299
-39.873299 -13.3177 39.591599
-39.792198 -13.5813 38.1199
-35.6912 -19.233601 57.5355
-36.551201 -19.352301 56.165901
-35.7481 -19.4165 55.943802
-33.596401 -18.925699 47.353901
-43.231602 -15.4319 48.924702
-42.7314 -15.5478 46.482101
-29.822901 -14.1947 38.8578
-30.431601 -14.1806 37.249901
-29.7321 -13.2582 38.665001
-30.349899 -13.3824 37.1572
-30.1527 -12.5179 38.523201
-30.813999 -12.8071 37.092899
-31.001101 -12.0819 38.623699
-31.724899 -12.481 37.188999
-30.407101 -15.1735 38.891998
-31.059099 -15.1325 37.185699
-42.2281 -17.4666 57.418098
-41.882999 -17.492701 59.099701
-43.043499 -16.644699 57.499599
-42.708 -16.757 59.220001
-37.216099 -19.0818 58.008499
-37.818802 -19.243799 56.5504
-40.751301 -18.806 53.459801
-40.7705 -18.893299 51.314301
-40.507 -18.928801 46.273998
-40.6707 -18.986099 48.756199
-35.969002 -18.538601 36.460899
-35.742699 -18.375401 38.498001
-36.593201 -18.774099 36.5448
-34.946301 -18.216801 36.564098
-34.425098 -18.023701 38.547298
-36.861599 -18.4659 38.662899
-37.422199 -18.993 36.695999
-33.477001 -10.035 42.202999
-31.2854 -9.8227501 42.355301
-29.1663 -9.8498497 42.7943
-34.663101 -19.0226 45.160801
-35.646599 -19.305901 44.5434
-34.684799 -18.8722 44.265598
-33.5648 -18.691799 45.7523
-33.612999 -18.461 44.356499
-29.404301 -18.035601 54.086399
-29.2913 -17.934 55.8866
-34.272598 -19.430799 57.2099
-34.489201 -19.700199 53.7658
-34.439499 -19.621599 55.612099
-34.926399 -18.714199 43.030201
-36 -19.086599 43.179501
-37.103199 -19.339199 43.491402
-35.188099 -18.5119 41.648102
-36.298801 -18.737301 41.768299
-37.3508 -18.8325 41.966499
-35.414799 -18.330099 40.1632
-36.535099 -18.4359 40.309502
-37.548401 -18.415701 40.474602
-38.318401 -19.3391 43.7901
-39.4501 -19.082701 44.0895
-38.3801 -18.764099 42.220299
-39.348099 -18.523199 42.492901
-38.437901 -18.2922 40.678902
-39.264599 -18.056 40.917099
-40.343399 -18.5963 44.336201
-41.020901 -17.947701 44.521099
-40.193401 -18.114799 42.742298
-40.875801 -17.575701 42.932701
-40.073399 -17.6978 41.166698
-40.752499 -17.237801 41.3591
-41.5518 -17.2082 44.6423
-41.998798 -16.420401 44.679798
-41.381802 -16.9526 43.040401
-41.781601 -16.2971 43.082001
-41.2024 -16.7108 41.443802
-41.539398 -16.1849 41.476898
-42.383701 -15.6115 44.614201
-42.5779 -14.7696 44.445099
-42.134701 -15.6467 43.079899
-42.305302 -14.9655 42.994999
-41.877899 -15.7078 41.516399
-42.0797 -15.208 41.514301
-42.4021 -13.8768 44.147598
-41.688099 -12.934 43.614399
-42.118 -14.2078 42.774399
-41.4221 -13.3611 42.359699
-41.948399 -14.596 41.405499
-41.302601 -13.8273 41.155102
-40.5145 -11.596 43.5504
-38.5168 -11.0242 42.5518
-40.2826 -12.0361 42.693298
-38.4403 -11.2625 41.926399
-40.122501 -12.4545 41.745399
-38.3755 -11.6513 41.195702
-40.0331 -12.9168 40.768101
-38.284599 -12.0674 40.405899
-36.303299 -10.5766 42.1996
-36.361599 -10.7186 41.634102
-34.3358 -10.393 41.7062
-36.3978 -11.1083 40.995899
-34.476501 -10.8335 41.030399
-36.3433 -11.491 40.279999
-34.489601 -11.2148 40.294102
-32.670898 -10.3302 41.866798
-31.322599 -10.5336 41.993401
-32.898102 -10.8128 41.0723
-31.6502 -11.0154 41.041901
-32.994099 -11.2243 40.2206
-31.7945 -11.4296 40.046299
-28.5739 -10.6197 42.696602
-28.3176 -11.4456 42.8055
-30.3981 -11.0515 41.922001
-29.8444 -11.7832 41.964001
-30.680799 -11.4211 40.931499
-30.052299 -12.0646 40.934601
-30.794399 -11.7617 39.850498
-30.0478 -12.303 39.798901
-28.8113 -12.4632 43.2318
-29.7078 -12.7355 42.323898
-29.8503 -13.838 42.785
-29.8141 -12.9622 41.195499
-29.887899 -14.0126 41.510601
-29.6763 -13.1327 40.0014
-29.740101 -14.1371 40.252399
-30.2167 -15.0153 42.93
-30.7694 -16.1208 42.928001
-30.2416 -15.1018 41.6334
-30.867201 -16.1292 41.615299
-30.2106 -15.1626 40.339901
-30.9639 -16.1178 40.318802
-31.6033 -17.0597 42.919998
-32.643501 -17.7894 42.931999
-31.7325 -17.006001 41.5826
-32.791302 -17.692699 41.5695
-31.872299 -16.9349 40.291
-32.937302 -17.5819 40.2565
-33.785999 -18.3083 42.962299
-33.9809 -18.178101 41.588699
-34.159698 -18.0429 40.212601
-31.7159 -13.1494 35.6474
-31.257601 -13.5404 35.604401
-31.2988 -14.1616 35.612701
-32.428299 -13.5543 34.2491
-32.128799 -14.1347 34.117802
-33.2234 -14.0977 32.492199
-40.786201 -14.4599 36.180302
-39.9753 -13.7888 36.1754
-38.919701 -13.2251 36.112598
-41.2286 -14.5565 33.754299
-40.5093 -14.0225 33.800701
-39.5825 -13.6362 33.8703
-41.864399 -14.689 31.312
-41.1702 -14.2429 31.3906
-40.252899 -13.9682 31.5676
-40.773201 -14.1385 29.4963
-41.212101 -14.3146 27.6541
-41.6693 -14.4029 29.2903
-42.063099 -14.6124 27.5063
-42.3554 -14.848 29.205
-42.7141 -15.0626 27.482401
-35.5933 -13.6942 32.2738
-34.301899 -13.7619 32.3027
-36.330502 -13.8556 30.222401
-35.143299 -13.9039 30.2148
-34.3349 -14.2388 30.1439
-37.037899 -13.9268 28.0012
-35.98 -13.9676 27.9638
-35.255501 -14.2878 27.9065
-43.418499 -16.053301 24.2365
-43.063801 -15.4866 25.9298
-42.791698 -15.4043 24.230101
-42.433399 -14.974 25.9028
-42.057701 -15.0611 24.144899
-41.638802 -14.6538 25.926399
-31.9091 -15.0814 35.369301
-32.733299 -16.136499 35.093201
-32.695999 -15.0491 33.571499
-33.444401 -16.1285 33.090199
-33.4897 -15.014 31.713699
-34.057899 -16.0973 31.1742
-34.530602 -15.7216 29.3906
-35.150902 -15.5555 27.5182
-34.2616 -14.934 29.7626
-35.0443 -14.8993 27.7456
-35.327 -16.1721 27.4566
-35.52 -16.6061 27.3571
-35.8438 -15.5835 25.6115
-35.974701 -16.142401 25.597401
-36.209 -16.7509 25.549601
-36.6091 -15.6694 23.525299
-36.734798 -16.2631 23.550699
-36.954601 -16.9021 23.539301
-41.509499 -15.8321 35.931801
-41.4245 -16.416599 35.8349
-41.3106 -16.926001 35.782299
-42.354698 -15.95 31.253901
-42.251499 -15.2815 31.2635
-42.828899 -16.068199 29.204
-42.729801 -15.4212 29.168301
-43.202202 -16.191299 27.4718
-43.001499 -15.4736 27.431
-33.894299 -12.7925 35.761799
-35.1488 -12.6717 35.883301
-36.435001 -12.6599 35.993401
-32.688099 -12.9381 35.657299
-33.5238 -13.3953 34.0751
-34.8088 -13.309 34.087601
-34.4645 -17.9494 34.647202
-33.5555 -17.147301 34.861599
-41.681 -15.2067 33.6656
-41.8535 -15.8978 33.5849
-41.307701 -15.1633 36.074799
-35.520401 -18.0653 30.5569
-34.7425 -17.2087 30.809799
-35.039398 -18.048 32.538101
-34.1898 -17.200001 32.806
-34.807999 -16.402 29.227301
-35.297401 -17.2873 29.007099
-35.9688 -18.075399 28.7773
-35.877102 -17.382099 27.290199
-36.443401 -18.1078 27.0837
-40.4669 -19.5131 35.419201
-39.696301 -19.861799 35.1679
-38.8284 -19.850901 34.868301
-41.3811 -18.0065 35.704399
-41.0667 -18.799299 35.599499
-41.3731 -17.408199 35.751202
-42.1422 -17.1681 31.367399
-42.127102 -17.580099 31.3766
-42.1488 -18.0956 31.358
-41.687099 -17.1043 33.564701
-41.744801 -17.568501 33.557098
-41.796398 -18.149 33.523701
-42.074402 -18.905001 31.3319
-41.714802 -19.688 31.223301
-41.626499 -18.989201 33.447899
-41.144199 -19.7743 33.290199
-40.341099 -20.1616 33.0289
-40.953701 -20.088499 30.9774
-39.389 -20.1495 32.709
-39.9757 -20.106199 30.664301
-38.0914 -13.8138 32.182701
-37.355499 -13.3034 34.142899
-36.887199 -13.7456 32.2831
-36.119598 -13.2791 34.140598
-37.704498 -12.8391 36.063599
-41.786499 -16.549299 33.5648
-42.263 -16.612801 31.3074
-39.217098 -13.8584 31.8888
-38.516399 -13.4079 34.0196
-43.0625 -17.406 27.4813
-43.162498 -16.8493 27.463699
-43.480801 -17.569401 25.5977
-43.4869 -16.9189 25.74
-43.391201 -16.1518 25.8762
-43.846199 -17.700001 23.775101
-43.736099 -16.953199 24.024401
-42.8853 -18.140301 27.4356
-42.9855 -17.753099 27.458
-43.280201 -18.331301 25.4792
-43.417599 -17.9697 25.5128
-43.656898 -18.5193 23.611
-43.807598 -18.1632 23.6534
-36.519299 -17.507099 25.4804
-36.990002 -18.1682 25.3297
-37.2248 -17.620199 23.5109
-37.625301 -18.215 23.4335
-42.366798 -19.4282 27.431601
-42.691299 -18.786301 27.454
-42.716999 -19.3703 25.4765
-43.043201 -18.858101 25.493
-43.100601 -19.3414 23.5765
-43.416 -18.944901 23.6064
-38.3923 -14.2636 23.4827
-39.352901 -14.5082 23.7349
-40.341202 -14.7928 23.9834
-37.720798 -14.0614 25.719101
-38.752701 -14.2565 25.8951
-39.795101 -14.4743 26.0345
-38.155399 -14.062 28.079201
-39.257599 -14.207 28.0772
-42.5065 -18.0658 29.360901
-42.547501 -17.622999 29.378201
-42.6115 -17.264 29.3701
-42.049301 -19.617001 23.372499
-41.607899 -19.686399 25.2062
-41.119301 -19.7948 27.058599
-42.693699 -19.571301 23.4788
-42.2878 -19.646999 25.3638
-41.872299 -19.761299 27.2871
-40.275299 -14.2372 27.8946
-40.757702 -14.5502 26.0159
-41.243698 -14.9258 24.100201
-42.743401 -16.725201 29.2897
-40.559299 -19.951799 28.8249
-41.446999 -19.9217 29.109501
-42.075901 -19.5418 29.304701
-38.706902 -14.0536 30.1418
-39.782001 -14.0714 29.839701
-37.545601 -13.9518 30.239201
-36.139099 -14.3989 25.632299
-35.8522 -14.9541 25.629299
-37.001598 -14.5734 23.368999
-36.679401 -15.0738 23.4461
-36.806 -14.0941 25.640301
-37.5872 -14.2833 23.3638
-42.394199 -18.807301 29.3626
-36.420601 -18.7271 34.1576
-36.893501 -18.9524 34.191799
-37.332001 -19.249001 34.225601
-38.9916 -19.836599 30.3507
-39.5397 -19.732401 28.5291
-40.0938 -19.618 26.812401
-38.208599 -19.448299 30.115299
-38.656799 -19.3936 28.295799
-39.1255 -19.325399 26.6078
-37.207401 -18.502899 26.7927
-37.948502 -18.7306 26.557501
-37.669102 -18.508301 25.0931
-38.365398 -18.7045 24.9013
-38.218399 -18.513599 23.291201
-38.857899 -18.6929 23.184099
-39.603901 -19.282499 24.9566
-40.600498 -19.543699 25.069401
-40.114799 -19.256599 23.2719
-41.087002 -19.4972 23.316999
-36.417801 -18.532101 30.276199
-37.213902 -18.8022 30.069401
-36.803398 -18.514 28.4797
-37.573601 -18.7679 28.250401
-37.976501 -19.5833 34.5513
-37.7854 -19.430401 32.126499
-38.494499 -19.8438 32.3927
-35.520302 -18.435499 34.414398
-36.8424 -18.808599 32.067501
-36.007301 -18.5301 32.274399
-38.495602 -19.007 26.5033
-38.929298 -18.973101 24.873899
-39.425201 -18.955799 23.200899
-38.096199 -19.0553 28.1905
-37.716999 -19.0933 30.0144
-37.3363 -19.0823 32.0261
-44.435501 -16.635401 17.5935
-44.681099 -16.517401 16.358801
-44.828899 -16.6485 16.3895
-45.001099 -17.806101 17.7407
-45.401901 -17.889799 16.487
-45.370899 -18.0432 16.4988
-43.462101 -16.0235 17.3986
-43.725399 -15.9767 16.1
-44.028198 -16.1322 16.1696
-43.6399 -19.492599 17.458799
-44.166801 -19.5191 16.2225
-43.8647 -19.531401 16.1336
-39.455399 -15.2405 16.503599
-39.684601 -15.2692 15.1983
-39.898499 -15.0729 16.6122
-40.212101 -15.1257 15.3268
-40.531101 -15.0902 16.766199
-40.8946 -15.1608 15.4912
-39.068401 -16.0737 16.4056
-39.144798 -16.655399 16.4216
-39.364799 -17.241899 16.472601
-39.219501 -16.1514 15.0783
-39.3097 -16.739901 15.0992
-39.5937 -17.32 15.1665
-45.329399 -17.679501 16.475
-44.453999 -19.239 17.6579
-44.696201 -18.923201 17.709999
-44.867699 -18.578699 17.7528
-44.872299 -19.1707 16.3957
-45.040199 -18.916401 16.452101
-45.185299 -18.613501 16.5161
-44.703899 -19.3181 16.3381
-40.897202 -15.0592 21.9224
-41.41 -15.2716 20.0413
-41.726601 -15.2398 22.095301
-42.165199 -15.4873 20.217699
-42.4538 -15.4076 22.2108
-42.804001 -15.6836 20.3547
-41.8554 -15.4432 18.450399
-42.276402 -15.5275 17.0749
-42.5355 -15.6826 18.660299
-42.919102 -15.7976 17.2516
-43.1129 -15.9011 18.7745
-42.8801 -19.522699 20.184099
-43.441502 -19.4758 20.305099
-43.803501 -19.276899 20.3927
-43.262901 -19.4904 18.7733
-43.7803 -19.441601 18.9235
-44.129101 -19.248501 18.983101
-44.123798 -19.4237 17.5516
-43.465698 -19.3106 21.8901
-43.079899 -19.5175 21.799101
-42.475899 -19.565201 21.6957
-43.759998 -18.9699 21.9368
-43.9851 -18.590401 21.962601
-44.074402 -18.953199 20.4515
-44.2771 -18.5849 20.4925
-44.373798 -18.933201 19.0734
-44.557201 -18.571199 19.1227
-44.4025 -17.7593 20.5571
-44.403801 -18.224199 20.526501
-44.146301 -17.754101 22.0921
-44.1287 -18.233101 22.0035
-44.978802 -18.23 17.759001
-44.667801 -17.762699 19.099199
-44.6703 -18.209299 19.1448
-43.642502 -16.272499 22.3794
-43.876301 -16.444201 20.5613
-43.990898 -17.0357 22.240101
-44.224201 -17.104601 20.579201
-44.111801 -16.5704 18.985001
-44.4534 -17.1584 19.100901
-44.7616 -17.211399 17.670601
-43.385601 -15.9761 20.4778
-43.633598 -16.1665 18.921
-43.952499 -16.287901 17.5009
-43.1091 -15.7288 22.316799
-40.506599 -14.9679 19.807899
-39.627102 -14.7329 19.580601
-40.967999 -15.1534 18.284599
-40.116501 -14.941 18.0837
-41.372898 -15.2764 16.912399
-39.953999 -14.7502 21.657499
-39.041 -14.4974 21.4
-38.974602 -17.1691 17.8097
-38.777199 -16.569599 17.765699
-38.699001 -15.9865 17.7486
-38.421001 -17.0989 19.3878
-38.2197 -16.4807 19.3524
-38.130001 -15.8895 19.3283
-37.403198 -15.7791 21.3339
-37.506199 -16.377701 21.368299
-37.719299 -17.015699 21.383801
-37.976002 -17.6761 21.3983
-38.337399 -18.210199 21.395901
-38.6772 -17.694599 19.4333
-39.022499 -18.176001 19.4872
-39.2416 -17.7104 17.870501
-39.5868 -18.148899 17.948999
-39.681599 -17.7507 16.5474
-40.064899 -18.1626 16.638901
-38.490398 -14.9645 19.3452
-39.0522 -15.132 17.8291
-38.951698 -14.735 19.4263
-39.480099 -14.9354 17.930099
-37.794102 -14.7698 21.2237
-38.310501 -14.5068 21.2558
-37.492599 -15.2207 21.269199
-38.217098 -15.3672 19.319599
-38.790901 -15.4936 17.769199
-39.1749 -15.5853 16.433701
-42.061798 -19.4163 20.0322
-42.490299 -19.3866 18.617599
-42.917198 -19.3902 17.257999
-41.2122 -19.2061 19.874901
-41.692902 -19.190399 18.4046
-42.127499 -19.209499 17.0938
-40.670898 -19.2311 21.5303
-41.5844 -19.4555 21.6126
-39.4897 -18.480499 19.5497
-40.016102 -18.704201 19.630301
-40.021999 -18.465799 18.0473
-40.512798 -18.715599 18.1598
-40.492599 -18.4816 16.7416
-40.9575 -18.740999 16.8536
-38.858002 -18.501699 21.367201
-39.437099 -18.695101 21.364201
-40.5546 -18.9519 19.738701
-39.992401 -18.950701 21.4321
-41.482201 -18.9776 16.945499
-41.0396 -18.956699 18.2798
-40.506901 -18.2355 15.3764
-40.952999 -18.5436 15.4823
-41.393002 -18.790001 15.5892
-41.870998 -19.0131 15.6788
-42.3508 -19.205299 15.8008
-42.775902 -19.328699 15.8978
-43.3452 -19.4485 16.0105
-44.929298 -16.853901 16.3955
-45.1343 -17.264099 16.4499
-45.301701 -18.316999 16.516001
-44.3568 -16.315701 16.2689
-44.455799 -19.4356 16.280001
-39.347198 -15.6322 15.1129
-40.0257 -17.826599 15.2657
-42.918499 -15.6196 15.9287
-43.3339 -15.8052 16.023199
-42.6782 -15.521 15.874
-42.361801 -15.4537 15.7819
-41.669201 -15.3009 15.6486
-44.8908 -15.0261 7.25489
-45.1408 -15.0185 6.6684699
-45.2938 -15.0225 7.3191099
-45.507702 -15.006 6.7585802
-45.709599 -15.0648 7.3959999
-45.898201 -15.039 6.8463101
-43.388 -15.962 6.8343801
-43.670898 -16.004299 6.1000099
-43.690601 -15.4981 6.9373002
-43.951302 -15.5258 6.2501402
-44.067001 -15.187 7.05439
-44.316898 -15.2044 6.4110298
-49.120701 -17.131001 8.5367899
-48.234501 -16.883101 9.5383797
-49.011501 -16.8864 8.5744495
-43.069099 -15.9205 7.62534
-43.388699 -15.4731 7.70892
-43.776001 -15.1745 7.8079
-42.721802 -15.8807 8.4428902
-43.056099 -15.4562 8.5265903
-43.457199 -15.175 8.6259003
-48.532902 -16.4671 8.8863897
-48.737499 -16.670099 8.8211498
-47.675201 -16.3825 9.6336203
-47.9203 -16.615801 9.6560698
-47.138901 -15.8845 9.3161602
-48.1782 -16.108999 8.6664696
-47.417198 -16.1387 9.5445404
-48.337101 -16.278099 8.8464003
-47.615501 -15.8485 8.5428801
-44.874199 -19.835199 7.1879802
-45.2537 -20.0723 6.4289198
-44.256901 -19.232401 7.0215201
-44.626202 -19.4706 6.2285299
-43.739101 -18.5672 6.8703799
-44.087002 -18.763599 6.0796099
-43.184601 -17.1751 6.7448201
-43.506802 -17.2803 5.9529901
-43.2034 -16.531 6.76547
-43.507999 -16.599199 5.9948702
-43.3675 -17.8664 6.7814498
-43.7033 -18.0166 5.9840798
-45.920601 -20.5331 6.6151199
-45.501202 -20.2869 7.3445101
-48.614498 -18.601 9.4413404
-49.230598 -18.6772 8.1041403
-49.2332 -18.896999 8.0672903
-47.482101 -20.049999 9.2614899
-48.2971 -20.245501 8.1736002
-48.066399 -20.367701 8.1945801
-49.0881 -17.362801 8.7127705
-49.125198 -17.5896 8.7508097
-48.209801 -17.121201 9.7038298
-48.237499 -17.3332 9.7419205
-49.102901 -18.1705 8.6787901
-49.145802 -18.4172 8.4867201
-48.320999 -18.0539 9.7558002
-48.408001 -18.298901 9.7111397
-49.1227 -17.744101 8.7938004
-49.097301 -17.8596 8.8219805
-48.2537 -17.5112 9.7610903
-48.2612 -17.6754 9.7735395
-49.1409 -19.093201 8.3757296
-49.077999 -19.314301 8.5030403
-48.420399 -18.8043 9.6797199
-48.312801 -19.0049 9.7154102
-48.652401 -19.8915 8.5226698
-48.429298 -20.0599 8.4346199
-47.811298 -19.670099 9.5901699
-47.619598 -19.842699 9.4988298
-48.222 -19.1873 9.7092505
-49.019001 -19.4841 8.5705099
-48.117001 -19.3536 9.6883001
-48.941601 -19.617201 8.5953703
-47.710098 -20.4331 8.4858999
-47.4785 -20.5425 8.5711899
-47.116901 -20.135401 9.3946104
-46.884399 -20.237801 9.3964005
-46.714001 -20.3461 9.3756704
-47.327499 -20.643801 8.5995197
-46.565701 -20.448299 9.3479004
-47.205399 -20.7297 8.5971298
-46.618599 -20.846901 8.3135996
-46.141899 -20.6658 8.3353596
-45.667 -20.4161 8.23804
-46.238701 -20.5993 9.0836897
-45.731998 -20.433201 9.1300802
-45.265701 -20.202299 9.0417404
-45.136799 -20.087999 8.12568
-44.550301 -19.682899 8.0222502
-44.755798 -19.894199 8.9237204
-44.249298 -19.571699 8.8276501
-42.842701 -17.072599 7.5601301
-42.477402 -16.9688 8.3778696
-42.9991 -17.7174 7.5945501
-42.6012 -17.572599 8.4050798
-43.342999 -18.372499 7.6753802
-42.909599 -18.190399 8.4772396
-43.8256 -18.9904 7.8083801
-43.375801 -18.7845 8.5927401
-44.355801 -19.5243 7.9632502
-43.7995 -19.226101 8.7270803
-47.981499 -19.511299 9.6473598
-48.826199 -19.747101 8.5732899
-48.2789 -17.8508 9.7705803
-49.087898 -17.9897 8.7850304
-43.9729 -19.372299 8.7505198
-42.874802 -16.464399 7.5725598
-42.521702 -16.396 8.39151
-46.4109 -20.534 9.2857704
-46.9818 -20.8881 8.38552
-47.085499 -20.807199 8.5448303
-39.565899 -17.202801 12.2612
-40.509701 -17.8368 12.4607
-41.539799 -18.4163 12.2508
-40.231602 -17.4613 11.9702
-41.136101 -17.989599 11.8602
-40.813702 -17.487801 11.6354
-40.893398 -15.6459 11.6929
-41.1786 -15.3842 12.0094
-41.6208 -15.252 12.4956
-40.292198 -15.3251 12.0276
-40.555302 -15.1918 12.5994
-39.599098 -15.2118 12.2802
-39.090801 -16.049801 11.0132
-39.188801 -15.6234 11.0437
-39.395901 -15.3638 11.1509
-38.778301 -16.0315 11.4138
-38.924599 -15.5537 11.4657
-39.3587 -15.27 11.565
-38.764702 -16.084 12.0458
-38.954601 -15.5561 12.1226
-40.364399 -15.6937 11.1651
-40.543598 -15.6756 11.4719
-39.8965 -15.4934 11.115
-40.000401 -15.3713 11.5357
-40.358398 -15.9521 11.0938
-40.297501 -16.319401 11.0779
-40.661999 -16.0319 11.4186
-40.616299 -16.4284 11.4025
-40.902802 -16.078501 11.5027
-40.841499 -16.5187 11.4643
-40.2813 -16.9767 11.1693
-40.449299 -17.1609 11.4593
-40.3046 -16.712299 11.0946
-40.597198 -16.856701 11.4068
-40.843201 -17.0086 11.4815
-39.8419 -16.8901 11.1435
-39.374199 -16.752701 11.1987
-39.9324 -17.132601 11.5475
-39.3325 -16.893 11.6013
-39.180401 -16.461201 11.0769
-38.918999 -16.497801 11.4961
-38.941399 -16.622101 12.1359
-39.699402 -16.169201 10.9086
-39.747002 -16.5653 10.9587
-39.777 -15.7799 10.9392
-45.006302 -16.472401 15.2084
-45.154202 -16.604799 15.2388
-45.237499 -16.7118 15.2127
-45.741901 -17.937401 15.317
-45.719799 -18.039101 15.366
-45.6805 -18.1961 15.3581
-44.050098 -15.908 14.9872
-44.318199 -16.0476 15.0561
-44.5117 -16.1593 15.0944
-44.525799 -19.5131 15.0689
-44.357498 -19.5495 15.0409
-44.094501 -19.554001 14.9692
-39.7374 -15.2459 14.017
-40.4035 -15.1269 14.1744
-41.185299 -15.1838 14.3512
-39.1646 -16.1866 13.8506
-39.2813 -16.776699 13.8892
-39.662201 -17.356001 13.9846
-45.637901 -17.614201 15.3477
-45.710602 -17.819599 15.3608
-45.225399 -19.1059 15.2398
-45.362099 -18.903999 15.2991
-45.493599 -18.659 15.3512
-45.111 -19.222401 15.2203
-44.950699 -19.3377 15.169
-46.9175 -15.6121 8.5402498
-46.479198 -15.6166 9.33634
-46.3722 -15.3974 8.3941803
-45.906502 -15.3589 9.2303305
-44.3759 -15.0302 8.8585901
-44.6147 -15.033 7.9699202
-44.899101 -15.029 8.4714003
-45.069099 -15.0358 7.92939
-45.365501 -15.0809 8.4350204
-45.5187 -15.086 7.96738
-44.476501 -15.055 7.16535
-44.1824 -15.0543 7.9035702
-43.875401 -15.064 8.7294703
-44.7332 -15.0599 6.55161
-46.1679 -15.1847 7.5197802
-45.9468 -15.2159 8.14114
-45.734798 -15.2066 8.6743698
-46.3866 -15.144 6.9361901
-44.6091 -14.9665 8.9221201
-44.774502 -14.9221 8.9659996
-44.530998 -15.0137 9.4285202
-44.686699 -14.9466 9.2279902
-44.829899 -14.9001 9.1114502
-44.882401 -15.0532 9.6752396
-44.989498 -14.9791 9.4299498
-45.058601 -14.9205 9.2717896
-45.515202 -15.0794 9.1462498
-45.686699 -15.1986 9.1838303
-45.371799 -15.0174 9.2430696
-45.392399 -15.0987 9.3993998
-45.3554 -15.1914 9.6287403
-45.283798 -15.0368 8.6953697
-45.5979 -15.1367 8.8882704
-45.228199 -14.9719 8.8593397
-45.466099 -15.0438 9.0124598
-44.890701 -14.9846 8.7165098
-44.923901 -14.9264 8.8807802
-45.1474 -14.9309 9.0651903
-46.868698 -16.658199 11.3813
-46.690899 -16.468 11.3405
-46.453602 -16.2617 11.2847
-47.4683 -16.758301 10.4857
-47.272499 -16.546 10.4633
-47.026001 -16.319799 10.409
-45.302799 -16.1626 13.299
-45.852699 -16.204201 12.2921
-45.543499 -16.331699 13.3525
-46.087299 -16.389601 12.3452
-45.7425 -16.495399 13.394
-46.2719 -16.5648 12.3849
-45.942001 -19.8447 11.1326
-45.4813 -19.694099 12.157
-45.073399 -19.5832 13.1883
-46.1474 -19.7472 11.1814
-45.686501 -19.6024 12.2023
-45.280998 -19.497101 13.2321
-46.358299 -19.6401 11.2322
-45.8918 -19.499399 12.2494
-45.4846 -19.3986 13.2774
-46.842201 -19.806499 10.3067
-46.605202 -19.912701 10.2763
-46.392799 -20.013 10.2317
-46.728802 -19.362499 11.3249
-46.5518 -19.512199 11.2798
-46.2407 -19.2365 12.3388
-46.074799 -19.380199 12.294
-45.810001 -19.1485 13.362
-45.656601 -19.2878 13.3189
-47.036499 -19.661699 10.3801
-47.221199 -19.503 10.4316
-46.097599 -18.7593 13.4533
-46.537102 -18.8678 12.4267
-47.035198 -19.006901 11.4062
-45.9604 -18.9673 13.4105
-46.3979 -19.0627 12.3858
-46.892899 -19.1929 11.3685
-47.389 -19.3363 10.4756
-47.531799 -19.159599 10.5124
-46.207298 -18.546499 13.4796
-46.2887 -18.350599 13.4938
-46.6474 -18.664801 12.4535
-46.730701 -18.470501 12.47
-47.146702 -18.8102 11.434
-47.233601 -18.615801 11.4545
-47.736301 -18.7792 10.5612
-47.644299 -18.9713 10.5401
-46.973202 -16.8407 11.4031
-47.030602 -17.0194 11.4136
-46.389198 -16.7327 12.4047
-46.461498 -16.898701 12.414
-45.8713 -16.648899 13.4135
-45.952499 -16.7997 13.4222
-47.549801 -16.9592 10.5257
-47.593102 -17.151501 10.5391
-45.8638 -15.8221 11.1476
-46.176998 -16.0371 11.2202
-45.291302 -15.8239 12.1698
-45.588699 -16.01 12.2337
-44.767601 -15.8353 13.1878
-45.049702 -15.9957 13.2451
-46.738602 -16.070601 10.337
-46.4151 -15.8301 10.2394
-45.584 -20.021999 11.0487
-45.102501 -19.8316 12.0763
-44.676102 -19.683599 13.1081
-45.7617 -19.941 11.0903
-45.2953 -19.775299 12.1173
-44.883999 -19.650299 13.1503
-46.215599 -20.1203 10.1908
-46.050301 -20.2206 10.1514
-45.377201 -20.067101 11
-45.8643 -20.291201 10.1029
-45.112301 -20.052601 10.9361
-45.624599 -20.3006 10.0245
-44.0938 -19.615999 12.9767
-44.410198 -19.6702 13.051
-44.584499 -19.8116 11.9575
-44.8713 -19.846701 12.0254
-44.767101 -19.9573 10.8506
-44.342602 -19.7742 10.7426
-44.2337 -19.7187 11.8671
-43.820801 -19.557301 11.7517
-43.741199 -19.5259 12.8839
-43.3461 -19.384199 12.7667
-44.828602 -19.990601 9.8552799
-45.264 -20.194901 9.9580603
-43.8652 -19.517799 10.6181
-43.439999 -19.275299 10.5046
-43.366501 -19.332001 11.6152
-42.952499 -19.111 11.4836
-42.912498 -19.184401 12.6245
-42.5028 -18.978201 12.4815
-44.332901 -19.7055 9.73526
-43.900002 -19.442801 9.63379
-42.129799 -18.782499 12.3603
-42.629501 -18.935801 11.3775
-43.139 -19.1035 10.4218
-42.268799 -18.677601 11.2738
-42.8293 -18.8661 10.3385
-43.583302 -19.2425 9.55303
-43.3358 -19.0434 9.49576
-47.8629 -18.3948 10.5606
-47.8153 -18.589899 10.5747
-47.3246 -18.251301 11.4765
-47.299099 -18.4335 11.4701
-46.789101 -18.2962 12.4814
-46.342201 -18.1856 13.5025
-46.811298 -18.128401 12.4854
-46.362 -18.034599 13.5049
-47.117699 -17.3944 11.4317
-46.578999 -17.2696 12.4372
-46.092899 -17.1621 13.4495
-47.073601 -17.199301 11.4223
-46.518398 -17.0714 12.4243
-46.018299 -16.961599 13.4335
-47.651798 -17.526199 10.5547
-47.623199 -17.3367 10.5473
-46.189201 -17.4154 13.4685
-46.653599 -17.503901 12.4519
-47.171799 -17.614401 11.443
-46.281898 -17.669399 13.4865
-46.729198 -17.7416 12.4668
-47.234001 -17.841499 11.4562
-47.740002 -17.948799 10.5701
-47.688 -17.7311 10.5616
-47.294701 -18.055 11.4697
-46.787399 -17.9484 12.4793
-46.3419 -17.8717 13.4993
-47.8088 -18.172899 10.5777
-42.0797 -16.8594 9.1943302
-42.139099 -16.3216 9.2115097
-42.3498 -15.8426 9.26649
-41.6479 -16.7439 10.0516
-41.7229 -16.2414 10.0727
-41.944302 -15.8051 10.1386
-41.202 -16.625799 10.9233
-41.285702 -16.158001 10.9495
-41.4823 -15.7568 11.0463
-41.7174 -17.294201 10.0646
-41.2472 -17.153 10.9313
-41.964901 -17.8699 10.1217
-41.441502 -17.7061 10.9955
-42.449501 -18.025299 9.2785397
-42.174099 -17.4328 9.2143497
-42.390499 -18.430099 10.2265
-41.837799 -18.2481 11.117
-42.896999 -18.6014 9.3858995
-42.749901 -15.2322 10.3916
-42.2855 -15.2698 11.45
-42.307701 -15.4563 10.2553
-41.8358 -15.4547 11.2274
-42.701401 -15.4515 9.3575602
-43.1236 -15.1952 9.4652596
-46.011002 -15.6257 10.1712
-45.514 -15.6409 11.0694
-45.581902 -15.4364 10.1172
-45.1381 -15.4728 11.0014
-44.608398 -15.5091 12.0287
-44.957001 -15.6604 12.0996
-44.108501 -15.5472 13.0579
-44.441502 -15.6851 13.1232
-43.957001 -15.0825 9.7234402
-44.301399 -15.073 9.9707403
-44.683201 -15.1135 10.1418
-43.623798 -15.142 10.6406
-44.002399 -15.1371 10.7736
-44.367199 -15.1757 10.8858
-43.253101 -15.2144 11.7195
-43.621101 -15.2195 11.8138
-43.944199 -15.2577 11.8927
-42.914101 -15.2836 12.7956
-43.261799 -15.3025 12.8796
-43.535198 -15.3411 12.9422
-43.2006 -15.1512 10.5167
-43.546501 -15.099 9.5769701
-42.402401 -15.2595 12.673
-42.800598 -15.2131 11.6031
-44.749199 -15.3017 10.9516
-44.269699 -15.3636 11.9617
-43.808102 -15.4266 12.9988
-45.123299 -15.2521 10.1699
-40.893501 -18.3267 14.2128
-41.3783 -18.624399 14.3184
-41.7929 -18.843 14.4373
-41.211102 -18.389601 13.2118
-41.747601 -18.6973 13.3106
-42.139099 -18.899401 13.4264
-42.2341 -19.0506 14.5267
-42.666599 -19.228901 14.623
-42.560699 -19.1045 13.559
-42.9856 -19.2908 13.6823
-43.247002 -15.4061 13.8363
-43.009998 -15.4688 14.708
-43.019901 -15.3692 13.7957
-42.810101 -15.4305 14.6988
-42.688801 -15.3349 13.7111
-42.462399 -15.3763 14.641
-43.7248 -15.7598 14.9157
-43.408401 -15.6226 14.841
-44.3848 -15.8633 14.0812
-44.058601 -15.7172 14.018
-43.733501 -15.5818 13.9448
-43.322899 -19.427999 14.7895
-43.041801 -19.3543 14.7195
-43.351601 -19.417299 13.7918
-43.700401 -19.504 13.8762
-44.373901 -19.6092 14.0324
-43.7202 -19.505899 14.881
-44.057301 -19.5728 13.9664
-45.573799 -16.7365 14.3237
-45.492599 -16.606001 14.3238
-45.359402 -16.467699 14.2955
-45.303001 -16.864901 15.2702
-45.3745 -17.0291 15.2928
-45.632702 -16.8792 14.3464
-45.7174 -17.080099 14.3606
-45.507301 -17.3172 15.3249
-45.9501 -17.639799 14.4098
-45.834499 -17.3599 14.3909
-46.035702 -17.982 14.4222
-46.015598 -18.111799 14.4307
-45.9687 -18.2668 14.4177
-45.603802 -18.412901 15.3645
-45.889198 -18.4683 14.4084
-45.7798 -18.6987 14.3826
-44.767101 -16.312901 15.1574
-45.138401 -16.310801 14.2523
-44.8871 -16.1511 14.1895
-44.646198 -16.005199 14.142
-45.193901 -19.357 14.2125
-44.7416 -19.437401 15.1257
-44.987598 -19.4524 14.1706
-44.7784 -19.535999 14.119
-44.593102 -19.593599 14.085
-41.395901 -15.2012 13.4234
-40.478802 -15.1268 13.2777
-39.649799 -15.2114 13.0776
-39.316101 -15.6331 13.8994
-38.9548 -16.1527 12.8467
-39.128502 -15.5959 12.9177
-40.264301 -17.8915 14.0986
-40.398201 -17.895599 13.1612
-39.601501 -17.307199 13.0448
-39.104 -16.7258 12.917
-46.014099 -17.8396 14.4283
-45.495499 -19.120399 14.2901
-45.6409 -18.927299 14.3406
-45.353901 -19.255699 14.2567
-41.932598 -15.2908 14.5191
-42.150902 -15.2785 13.5891
-43.465302 -15.4766 13.8942
-43.212799 -15.542 14.786
-45.395199 -15.0143 6.1484699
-45.736599 -14.9958 6.2221298
-46.094299 -15.0325 6.3219099
-44.8069 -15.23 4.8021302
-44.7878 -15.194 4.1290898
-44.756901 -15.1884 3.5365601
-45.368198 -15.0481 4.97826
-45.336899 -14.9779 4.21454
-45.287998 -14.9503 3.5612299
-46.0238 -15.0127 5.16539
-45.9842 -14.915 4.3488998
-45.926201 -14.844 3.65692
-44.927399 -15.3801 3.0171001
-45.054901 -15.4845 2.79825
-45.169899 -15.5683 2.56686
-45.471001 -15.1838 3.09375
-45.570202 -15.2977 2.8856699
-45.639702 -15.3793 2.64256
-46.066898 -15.0951 3.16872
-46.115398 -15.2169 2.95292
-46.129002 -15.2982 2.7016699
-48.3428 -16.2966 1.52684
-48.610401 -16.3661 1.37084
-49.060398 -16.4757 1.10044
-48.316101 -16.1126 1.52643
-48.494598 -16.0793 1.3172801
-48.698898 -16.018801 1.01095
-48.312801 -15.9341 1.54363
-48.500198 -15.8111 1.32496
-48.819099 -15.6192 0.98207998
-51.423901 -16.7973 1.25073
-51.5965 -16.8517 1.68241
-51.6926 -16.954 2.1385
-51.484901 -16.387501 1.28422
-51.628899 -16.5289 1.72727
-51.745998 -16.6954 2.20579
-51.303299 -15.9417 1.37472
-51.537102 -16.173599 1.86519
-51.699799 -16.383101 2.3266101
-51.760899 -17.116501 3.3391099
-51.536201 -16.9877 4.1361499
-51.279999 -16.858299 5.0002599
-51.8778 -16.896999 3.4114201
-51.589001 -16.799101 4.2534399
-51.231499 -16.681801 5.1366901
-51.898399 -16.6154 3.4699299
-51.590698 -16.580999 4.3056698
-51.168098 -16.495501 5.1819201
-50.8592 -16.9028 6.5812702
-50.277901 -16.781401 7.23737
-49.511501 -16.6056 7.9713302
-50.7435 -16.676901 6.7049298
-50.180599 -16.5949 7.3002901
-49.412701 -16.4548 7.9766998
-50.533501 -16.382799 6.7256398
-49.9641 -16.3517 7.29421
-49.229301 -16.289499 7.9194498
-47.1479 -15.354 2.6127601
-47.773899 -15.4625 2.40133
-48.4352 -15.5444 2.1377299
-47.205601 -15.2716 2.84007
-47.8634 -15.3831 2.59565
-48.545799 -15.4671 2.2977099
-47.245701 -15.1333 3.05972
-47.925201 -15.2294 2.8043699
-48.616901 -15.3086 2.49616
-49.161301 -15.3107 2.18905
-49.060398 -15.4468 1.99824
-48.882401 -15.53 1.85542
-49.5672 -15.2938 1.91559
-49.435902 -15.3831 1.72184
-49.1814 -15.4558 1.53667
-46.626099 -15.2948 2.70433
-46.6567 -15.2129 2.95171
-46.660198 -15.0849 3.1747501
-49.838699 -15.3257 1.67777
-49.640301 -15.3747 1.41102
-50.053799 -15.3794 1.46214
-47.285 -14.85 3.6445799
-47.995899 -14.8209 3.4296401
-48.7033 -14.8175 3.1238301
-47.3577 -15.0246 4.2967601
-48.114399 -14.9232 4.00561
-48.852501 -14.8433 3.64096
-47.441502 -15.2677 5.0938001
-48.284801 -15.1785 4.6652598
-49.056999 -15.0806 4.20122
-49.598202 -16.9671 7.6444101
-49.5853 -16.779301 7.83289
-50.296398 -17.119499 6.7315998
-50.302502 -16.959 7.05093
-50.776199 -17.229401 6.0882802
-50.868999 -17.094101 6.3554502
-46.6805 -15.361 7.6682701
-46.928699 -15.293 7.0375099
-47.129902 -15.2742 6.5131698
-47.2878 -15.5621 7.7958002
-47.497101 -15.4519 7.1211801
-47.472198 -15.37 6.4986901
-48.201099 -15.773 7.7789502
-48.219799 -15.5898 6.9590201
-48.042099 -15.4757 6.2455502
-50.684502 -15.8446 4.1827798
-51.140202 -15.9404 3.86639
-51.5117 -16.080601 3.6329999
-50.8354 -15.9856 4.5640602
-51.299599 -16.153 4.2385001
-50.954899 -16.1173 4.9329
-46.753101 -15.1687 5.22402
-46.680599 -14.984 4.3893099
-46.614601 -14.8403 3.7132199
-48.7295 -15.5805 5.7596102
-49.473999 -15.6777 5.1895099
-48.988899 -15.6482 6.42764
-49.719002 -15.715 5.7940402
-49.226898 -15.7529 7.0303102
-49.9683 -15.7522 6.34442
-49.8536 -15.0833 2.4023399
-50.3592 -15.3148 2.1935301
-50.794601 -15.5381 2.0169401
-50.0961 -15.1743 2.8006301
-50.630699 -15.4243 2.5408001
-51.067299 -15.6664 2.34026
-50.353199 -15.3842 3.2646101
-50.8787 -15.5902 2.9384301
-51.288601 -15.8094 2.6985199
-51.304699 -17.030001 4.80266
-51.4659 -17.1278 3.9669099
-51.6087 -17.2407 3.2406399
-51.219101 -17.1558 4.5938601
-51.3204 -17.2118 3.8010099
-51.4189 -17.312599 3.12323
-51.552399 -17.111401 2.1217201
-51.466202 -17.042601 1.7531101
-51.321999 -17.013599 1.48746
-51.425301 -17.203699 2.11973
-51.336399 -17.1439 1.82586
-51.205502 -17.1049 1.63463
-50.574501 -16.944799 1.0227
-49.853901 -16.7899 1.0337501
-50.5844 -16.9788 1.2421
-49.915699 -16.847401 1.2352999
-49.214901 -16.674101 1.30681
-50.578701 -17.006399 1.39434
-49.963501 -16.8974 1.38513
-49.3074 -16.7743 1.43892
-48.700001 -16.555901 1.45584
-48.3708 -16.4585 1.53216
-48.807499 -16.6833 1.51326
-48.432098 -16.6231 1.54357
-43.8909 -16.040899 5.4646802
-44.1721 -15.5522 5.6338501
-44.552601 -15.2258 5.8260899
-44.035099 -16.071501 4.5402198
-44.0728 -16.0812 4.1265898
-44.110199 -16.1033 3.7251799
-44.349998 -15.5662 4.6609802
-44.361599 -15.5583 4.1252799
-44.3675 -15.5703 3.63554
-44.215401 -16.2148 2.9509101
-44.3228 -16.2931 2.65941
-44.445 -16.3685 2.4409399
-44.4981 -15.7148 2.9854901
-44.620701 -15.8087 2.7283199
-44.748501 -15.8947 2.5037501
-51.429501 -17.287399 2.08797
-51.3354 -17.229799 1.81844
-51.202202 -17.1805 1.6492
-51.6782 -17.417 1.97847
-51.565399 -17.362101 1.6802
-51.398998 -17.2988 1.49831
-49.335701 -16.8857 1.42295
-50.029202 -17.0007 1.33263
-50.687 -17.114201 1.30141
-49.315201 -16.827999 1.4779299
-49.9879 -16.946199 1.4201601
-50.598301 -17.0516 1.41978
-48.813 -16.7721 1.5158
-50.251598 -16.0166 6.6359401
-49.598701 -16.025499 7.2609
-48.778301 -16.0471 7.96275
-51.7677 -16.324499 3.5341401
-51.4939 -16.356199 4.2923899
-51.0788 -16.2939 5.1153002
-51.116299 -15.7155 1.75026
-51.363499 -15.8998 2.10425
-51.555698 -16.077499 2.4946301
-49.526402 -15.4562 0.902587
-50.2887 -15.4963 0.97413403
-49.017601 -15.4905 1.23121
-49.593899 -15.4014 1.14876
-50.208698 -15.4293 1.23051
-48.3297 -15.7915 1.6037101
-48.619598 -15.6645 1.44892
-48.209301 -15.6734 1.76793
-48.716202 -15.6033 1.65216
-49.6898 -17.286501 7.6146302
-49.5928 -17.105801 7.5931101
-48.646099 -15.0326 2.7527599
-49.311199 -14.9065 2.7433901
-49.217999 -15.0797 2.41873
-49.691399 -15.158 2.11766
-50.131302 -15.7667 4.6492901
-50.551399 -15.6313 3.7344501
-49.9534 -15.5046 4.1902599
-49.2663 -15.4244 4.7035198
-49.744999 -15.1762 3.71158
-47.950699 -14.9796 3.0511999
-47.259399 -14.9342 3.27828
-46.625198 -14.9115 3.3636
-45.9753 -14.9334 3.32939
-44.810799 -15.2638 3.2077701
-45.349998 -15.0408 3.2456
-44.150299 -16.148899 3.3203001
-44.410301 -15.6275 3.2687099
-51.487202 -17.2824 2.5695
-51.4907 -17.3563 2.5039899
-51.742298 -17.475 2.4528699
-51.427101 -17.4027 2.90769
-51.634102 -17.5359 3.0436599
-51.787701 -17.0809 2.68872
-51.626701 -17.2111 2.6256101
-51.8908 -16.847099 2.75934
-51.888 -16.5438 2.84621
-51.062599 -15.7686 3.3854401
-51.469398 -15.953 3.1312001
-48.510101 -15.4211 5.22544
-47.7756 -15.3984 5.6640902
-47.2682 -15.3201 5.8846102
-45.703098 -15.0105 5.71772
-46.155602 -15.0432 5.8217802
-43.987701 -16.060499 4.9871898
-44.291698 -15.5654 5.1627898
-44.721699 -15.2392 5.3600001
-51.126701 -16.877701 5.8324499
-51.1586 -17.068399 5.6071501
-51.063499 -17.2047 5.3670998
-51.0214 -16.671 5.9778199
-50.8727 -16.426901 6.0137501
-50.5173 -15.9212 5.63943
-50.327599 -15.8526 5.1617799
-49.506802 -14.947 3.2009399
-50.9804 -17.069 1.48551
-50.986401 -17.1264 1.50763
-51.132301 -17.215599 1.3654
-51.088799 -16.943399 1.08134
-51.047501 -17.022499 1.32508
-50.4464 -15.4382 1.70158
-50.096001 -15.2947 1.89872
-50.700401 -16.138901 5.91504
-51.747398 -16.225901 2.96242
-50.870998 -15.6432 1.13928
-50.727798 -15.5408 1.45138
-47.291199 -19.4289 1.4040101
-47.589199 -19.5485 1.3233401
-47.962399 -19.787399 1.21723
-47.326199 -19.260799 1.36822
-47.600498 -19.437599 1.28967
-48.027699 -19.739201 1.11906
-47.351398 -19.093901 1.3666101
-47.6217 -19.2855 1.2440799
-48.0952 -19.6262 0.95528901
-45.002499 -19.181601 2.05178
-45.656101 -19.8405 2.0341499
-46.300999 -20.4653 1.97057
-45.111 -19.0532 1.88699
-45.7286 -19.684601 1.8974
-46.348099 -20.274599 1.86693
-45.170502 -18.9324 1.72655
-45.748798 -19.5061 1.76758
-46.4217 -20.0198 1.76668
-48.2626 -16.878401 1.56823
-48.612499 -16.937401 1.4151
-49.219601 -16.990101 1.0804
-48.3414 -16.743999 1.55383
-48.718201 -16.8477 1.47781
-49.3144 -16.9491 1.29535
-50.166199 -17.0837 0.89482999
-51.026402 -17.2384 0.77156597
-50.101398 -17.056299 1.1404999
-50.861301 -17.184401 1.05338
-52.342499 -17.7708 0.73312998
-52.618698 -17.8801 1.04915
-52.7869 -17.9202 1.5051399
-51.827999 -17.495899 1.17091
-52.061501 -17.584499 1.3945
-52.2113 -17.6327 1.76428
-52.8685 -17.983 2.9674699
-52.5882 -18.091 3.8873799
-52.172901 -18.130199 4.8066201
-52.2855 -17.732401 3.00002
-52.132599 -17.8528 3.8324599
-51.862099 -17.9074 4.7060199
-51.569901 -17.6646 3.7400801
-51.434799 -17.7278 4.5932899
-51.294102 -17.8505 6.52073
-50.635799 -17.8123 7.1212802
-49.875801 -17.768299 7.7653298
-51.126598 -17.677401 6.3551798
-50.530399 -17.618401 6.9875698
-49.815601 -17.5411 7.684
-50.896099 -17.5723 6.1679301
-50.411999 -17.476 6.76928
-46.950802 -21.2034 5.0341401
-47.052502 -21.258499 4.4671302
-47.1502 -21.3591 3.8497
-46.341702 -20.8281 5.0335798
-46.4104 -20.8269 4.5138698
-46.494701 -20.863501 3.9284799
-45.7514 -20.370501 4.895
-45.821098 -20.379499 4.4212399
-45.9095 -20.4021 3.8896
-47.281799 -21.683001 2.51403
-47.2752 -21.733101 1.99567
-47.254601 -21.627501 1.67079
-46.688702 -21.105101 2.5892
-46.744499 -21.1663 2.10359
-46.765598 -21.0888 1.82508
-46.171101 -20.497499 2.6586599
-46.252201 -20.5249 2.22119
-48.588501 -22.194799 3.6967399
-47.891899 -21.823099 3.76424
-48.4832 -21.943001 4.2973199
-47.7981 -21.6474 4.37428
-48.304199 -21.702299 4.8966298
-47.664299 -21.498199 4.95894
-47.952999 -22.0488 2.4645801
-48.612999 -22.2948 2.4451101
-47.891399 -22.066099 1.92748
-48.514 -22.262699 1.92389
-47.811699 -21.9755 1.55752
-48.377899 -22.183901 1.54125
-46.0755 -20.641701 7.47963
-46.5546 -20.9065 7.6108899
-46.979698 -21.089199 7.68994
-46.521801 -20.879 6.8143802
-47.031101 -21.1607 6.9457102
-47.465099 -21.3696 6.9895802
-46.7173 -21.0494 6.2042799
-47.273399 -21.3328 6.1929498
-47.7701 -21.5576 6.2298298
-48.246101 -20.837 7.6463399
-48.892399 -21.001801 6.8940201
-49.379398 -21.1325 6.2747302
-48.141399 -20.9594 7.7853198
-48.864498 -21.1936 7.07795
-49.400299 -21.3682 6.4705901
-48.037998 -21.0609 7.8450098
-48.778 -21.3766 7.1595998
-49.322399 -21.604799 6.5460501
-49.726299 -21.474001 4.81706
-50.122101 -21.5616 3.9328201
-50.5037 -21.594299 3.0803001
-49.707298 -21.6154 4.96175
-50.138199 -21.726801 4.0762801
-50.563099 -21.8221 3.2479401
-49.653 -21.7409 4.9895101
-50.068401 -21.8915 4.1629
-50.459599 -22.0695 3.40184
-50.437 -21.558001 1.85023
-50.3027 -21.444401 1.41055
-50.022499 -21.2551 1.03949
-50.419601 -21.903299 1.91106
-50.291901 -21.917101 1.3263201
-50.0952 -21.905899 0.85611701
-50.244801 -22.2598 2.02918
-50.0807 -22.349899 1.36071
-49.717201 -22.378401 0.78933001
-47.6017 -19.994699 1.20182
-47.1772 -19.813601 1.46556
-46.856602 -19.7258 1.60013
-47.172298 -20.1451 1.27284
-46.907101 -19.9891 1.53924
-46.655201 -19.8743 1.68571
-47.039001 -20.547199 1.27698
-46.7635 -20.249901 1.59069
-45.52 -20.2698 5.8598199
-44.875599 -19.658001 5.6453099
-44.329601 -18.931601 5.4716301
-47.216499 -21.051001 1.51106
-46.7985 -20.5751 1.679
-47.252201 -21.359501 1.55103
-46.789501 -20.848499 1.73199
-43.751801 -17.382601 5.3123298
-43.740601 -16.6637 5.35148
-43.933701 -17.5452 4.3923702
-43.964401 -17.5912 3.97945
-43.993801 -17.6308 3.5633299
-43.8965 -16.7498 4.4422798
-43.936401 -16.768801 4.0619001
-43.9785 -16.7922 3.6796701
-44.125 -17.7164 2.74157
-44.244999 -17.7187 2.45838
-44.3703 -17.6991 2.2555699
-44.0956 -16.8937 2.8604801
-44.2038 -16.945 2.56796
-44.321999 -16.985201 2.36044
-43.948299 -18.1551 5.3556099
-44.540001 -19.1688 4.5233698
-44.571602 -19.299999 4.0244899
-44.594002 -19.4077 3.5139101
-44.143101 -18.3827 4.4170699
-44.1684 -18.4865 3.9500799
