# .PCD v.7 - Point Cloud Data file format
VERSION .7
FIELDS x y z
SIZE 4 4 4
TYPE F F F
COUNT 1 1 1
WIDTH 1648
HEIGHT 1
VIEWPOINT 0 0 0 1 0 0 0
POINTS 1648
DATA ascii
-5.0949798 60.9207 14.4401
-4.7202902 60.801701 14.4581
-4.9098301 60.8512 14.4426
-4.59759 61.155499 13.0773
-4.7864399 61.221699 13.1135
-3.0374801 61.5355 13.8285
-3.1626999 61.215 15.0775
-3.20978 61.4608 13.7471
-3.3262899 61.1119 14.9768
-2.5961299 61.940498 15.6481
-2.37974 62.2803 14.4403
-6.0404501 62.441502 13.6581
-6.1462898 62.006599 14.8384
-6.1736498 62.583401 13.7126
-6.2746701 62.180401 14.9113
-6.3780899 62.325298 14.9732
-6.43822 62.4837 15.0539
-6.2866402 62.723 13.7654
-6.3550401 62.911201 13.8356
-6.3502002 63.1744 14.0228
-6.4412198 62.707001 15.1872
-6.28087 63.533798 14.2601
-6.38873 63.022999 15.3895
-6.16576 63.970699 14.5519
-6.2936101 63.428101 15.6551
-6.05655 64.363098 14.8201
-6.1979799 63.815102 15.9098
-6.1240401 64.098396 16.096701
-5.9852099 64.379097 16.2976
-5.9829602 64.625801 14.9912
-5.8530698 64.884903 15.183
-5.5743399 65.276398 15.48
-5.6968598 64.756401 16.5919
-5.17101 65.683601 15.8211
-5.2920499 65.134697 16.914801
-4.6927199 65.965599 16.1057
-4.8259501 65.394501 17.1814
-4.1712599 66.100502 16.312201
-4.3280902 65.516197 17.3731
-3.6357501 66.0942 16.4373
-3.82319 65.502403 17.4856
-4.22509 61.1161 13.061
-4.3765898 60.770802 14.5218
-4.4135799 61.112202 13.0575
-4.5496702 60.771301 14.4807
-3.6666999 60.9515 14.7999
-3.54158 61.3563 13.6083
-3.4988599 61.022202 14.8821
-3.3782899 61.402199 13.6735
-3.86256 61.252201 13.4135
-3.70087 61.317501 13.5415
-3.98684 60.858398 14.6675
-3.8218701 60.902199 14.7333
-4.1804199 60.8074 14.5906
-4.04142 61.1712 13.2433
-5.96104 60.860802 15.9991
-5.7779999 60.6828 15.9422
-5.5899801 60.520699 15.8847
-5.44206 60.403 15.8551
-5.28827 60.325901 15.8397
-5.0876698 60.262199 15.8542
-4.88269 60.218899 15.8706
-4.7202702 60.192799 15.8987
-4.5562801 60.197498 15.9344
-4.3505998 60.226898 16.0056
-4.1458702 60.271198 16.0742
-3.99014 60.309799 16.1394
-3.8448801 60.370899 16.2041
-3.6709399 60.466702 16.308001
-3.4885299 60.592899 16.4261
-3.3292699 60.730499 16.5439
-3.1981001 60.8694 16.650299
-3.0913501 61.003799 16.761101
-2.9830501 61.179401 16.885401
-2.8587699 61.430199 17.070299
-2.7409501 61.780998 17.3074
-2.6637399 62.234699 17.5952
-2.65468 62.762199 17.910801
-2.73738 63.3214 18.2236
-2.9261 63.852299 18.494499
-3.2256501 64.295403 18.687099
-3.61222 64.612602 18.7841
-4.0554199 64.778503 18.778
-4.52707 64.797897 18.678101
-5.0004201 64.682404 18.4979
-5.4521298 64.436996 18.245899
-5.8530998 64.084396 17.942499
-6.1474099 63.7187 17.656601
-6.2986698 63.416401 17.442101
-6.3796802 63.107498 17.240299
-6.4675598 62.724899 16.9918
-6.5473299 62.355301 16.746901
-6.58915 62.087399 16.582701
-6.5851302 61.9179 16.469999
-6.5394402 61.783401 16.413601
-6.45188 61.633598 16.3407
-6.3327899 61.4142 16.2449
-6.20713 61.1908 16.136801
-6.0953598 61.0144 16.064301
-5.0412202 52.997101 23.2894
-4.7705498 53.109501 23.4856
-4.6079502 53.3013 23.7509
-7.3737302 53.475399 23.4601
-7.7427201 53.862598 23.8936
-6.6163502 53.087799 23.0865
-7.0020399 53.233898 23.2111
-5.8211799 52.974201 23.0846
-5.4093299 52.961601 23.1602
-6.2246199 53.010502 23.0536
-4.09199 55.609501 27.819799
-4.5306902 53.577499 24.101999
-6.0852098 57.8116 20.3339
-5.72086 57.692501 20.343
-5.3449001 57.662998 20.392099
-6.2185502 56.891201 21.0404
-5.8545599 56.791 21.0511
-5.4784598 56.763802 21.1096
-4.64294 57.7873 20.625299
-4.7744298 56.902599 21.341999
-4.9800301 57.685902 20.493
-5.1096101 56.791698 21.2024
-4.1266799 58.210899 21.049
-4.2901502 57.3801 21.755501
-4.35742 57.964802 20.8193
-4.4974999 57.118401 21.5378
-4.0508199 57.9282 22.181999
-4.1511202 57.643398 21.964701
-3.87323 58.7076 21.4317
-3.9778199 58.4562 21.239
-3.67625 60.140099 22.441401
-3.8411701 59.4142 23.267799
-3.6706901 59.725498 22.1612
-3.8433199 59.000599 22.974899
-3.70995 59.342499 21.8941
-3.8883901 58.611198 22.692101
-4.0880699 60.321098 23.950899
-3.9080801 59.837898 23.5938
-3.9114201 61.001701 23.018299
-3.7439401 60.568001 22.7237
-4.73069 61.252701 24.4144
-4.3877401 60.846699 24.23
-4.54456 61.831001 23.418501
-4.1891098 61.465401 23.247299
-5.3534698 62.059502 23.3979
-5.5255198 61.481201 24.4053
-4.9355102 62.0313 23.471201
-5.1115499 61.458698 24.480499
-5.9626698 61.3405 24.2064
-5.7891202 61.9296 23.210899
-6.3660002 61.074902 23.924801
-6.1963301 61.678902 22.947201
-6.6783099 60.7276 23.604799
-6.52637 61.350101 22.6481
-6.8886099 60.340199 23.2787
-6.7573299 60.987499 22.3482
-7.0760398 59.508202 22.639601
-6.9601598 60.234299 21.7878
-7.1321402 59.014 22.2773
-7.0182199 59.798801 21.4729
-7.1326299 58.474201 21.900101
-7.0214601 59.32 21.119101
-7.0294399 57.926201 21.545401
-6.9182801 58.816601 20.8006
-6.8288498 57.443501 21.264099
-6.7024002 58.346699 20.549
-6.4204898 58.016602 20.405399
-6.5514002 57.095299 21.099899
-7.00635 59.9417 22.9653
-6.8863201 60.622601 22.069201
-3.9617901 58.251499 22.425301
-3.7811 59.0089 21.65
-6.6483898 59.878601 26.1581
-6.7767801 59.339901 27.333401
-6.2582002 60.1777 26.4016
-6.37676 59.692699 27.4501
-5.8657098 60.336201 26.553101
-6.0125098 59.882099 27.489401
-4.3449798 57.986301 26.724199
-4.24648 58.667702 25.7374
-4.6657 58.529499 27.0926
-4.4582701 59.074001 25.971399
-4.9531798 59.032101 27.348101
-4.6948299 59.425098 26.225201
-7.21029 54.422699 22.9461
-7.0612102 55.4072 22.434799
-6.8737898 54.151199 22.739
-6.76191 55.088501 22.2544
-6.51408 53.996799 22.6483
-6.4239001 54.9105 22.1861
-5.4986401 60.344898 26.614
-5.6736999 59.9188 27.5135
-5.1782699 60.182098 26.565201
-5.3878398 59.785999 27.5168
-4.9165702 59.845699 26.4056
-5.17062 59.4734 27.473499
-5.00419 53.949501 22.8829
-5.3558798 53.888199 22.7533
-5.7494402 53.886902 22.6735
-4.9628701 54.909599 22.4589
-5.30124 54.817299 22.3255
-5.6802402 54.7985 22.2391
-4.5237999 55.370098 22.884701
-4.57129 54.326302 23.32
-4.7027402 55.102798 22.6504
-4.74016 54.098701 23.0734
-4.3875699 55.019699 23.9846
-4.4800601 54.622898 23.6185
-4.3154898 56.057701 23.4494
-4.4114599 55.682899 23.1465
-7.4967699 56.558201 23.239
-7.3095798 55.9049 22.7645
-7.8136802 55.503899 23.8731
-7.5191998 54.8564 23.311899
-6.13869 53.918098 22.6341
-6.0598102 54.824501 22.188601
-8.1365004 57.140202 25.3393
-7.63094 57.941399 24.4072
-8.0482903 56.372501 24.5735
-7.6136999 57.274101 23.817801
-7.6440701 58.2672 26.644199
-7.3080101 58.977901 25.4086
-7.98243 57.737499 26.052799
-7.5240698 58.492599 24.939301
-7.21732 58.829498 27.0716
-7.00737 59.456799 25.8209
-4.22965 55.561298 24.377501
-4.1930699 56.501999 23.806601
-4.0478401 56.0891 24.819
-4.0650501 56.934299 24.179501
-3.8826699 56.939701 25.741199
-3.9033599 56.510399 25.2682
-3.94714 57.773602 24.9377
-3.9647999 57.347198 24.5529
-4.03265 56.747898 27.0096
-4.0520401 57.4426 26.2465
-4.0524201 58.239201 25.3431
-7.27913 57.559601 22.5968
-7.3145299 58.169899 23.052099
-7.2804899 58.742699 23.502001
-7.20158 59.233799 23.9048
-7.06043 59.673599 24.2805
-6.83395 60.095402 24.653299
-6.51791 60.466499 25.001699
-6.1231899 60.741501 25.292601
-5.70154 60.887501 25.4918
-5.30545 60.8764 25.567499
-4.94912 60.685299 25.497999
-6.9379902 56.433601 21.875999
-7.1501799 56.953899 22.1852
-6.32757 55.895802 21.647699
-6.65766 56.090302 21.707399
-5.5907402 55.777901 21.7143
-5.9665098 55.802601 21.6577
-4.8861098 55.913898 21.9426
-5.2195201 55.805401 21.8053
-4.4282699 56.410999 22.365299
-4.6209602 56.128899 22.137199
-4.2013602 57.042301 22.8589
-4.2992101 56.7178 22.603201
-4.0117202 57.7953 23.459101
-4.1032701 57.4044 23.1478
-3.9356101 58.615101 24.100599
-3.9463999 58.195202 23.775801
-4.16151 59.464199 24.7969
-4.00594 59.045898 24.4515
-4.6416001 60.309299 25.306499
-4.37923 59.860901 25.069599
-4.0348401 56.202599 27.5091
-4.1693902 69.786697 11.3624
-4.4450202 69.742302 11.1019
-4.6240702 69.697701 10.8531
-4.3109899 69.6661 11.3607
-4.6272802 69.592499 11.0488
-4.82233 69.517799 10.755
-4.42975 69.500504 11.3324
-4.7788901 69.388 10.9558
-4.9838901 69.2826 10.6145
-4.6921701 69.656998 10.6414
-4.6650701 69.6381 10.4761
-4.8826499 69.458298 10.5152
-4.8318801 69.438599 10.3392
-5.0297699 69.221397 10.3645
-4.9502201 69.218597 10.1993
-4.43154 69.682503 10.2849
-4.54389 69.528603 10.1605
-4.6091299 69.357597 10.0458
-4.56778 69.653603 10.3599
-4.7049198 69.473396 10.2266
-4.7926202 69.2789 10.0999
-4.1230998 69.7005 10.2173
-4.21103 69.576202 10.1057
-4.2609 69.417603 10.0145
-4.2828202 69.700798 10.2406
-4.3821602 69.567101 10.1224
-4.4384899 69.408096 10.0195
-3.7646 69.655403 10.206
-3.8071101 69.516701 10.1199
-3.8232999 69.337502 10.0498
-3.9491301 69.682297 10.2065
-4.0167398 69.554497 10.1063
-4.0513802 69.387802 10.0268
-3.5750799 69.630203 10.213
-3.3877699 69.609596 10.2203
-3.59547 69.479103 10.1403
-3.3958199 69.447701 10.1556
-3.5987101 69.287498 10.0751
-3.39659 69.246399 10.0892
-3.2081299 69.593903 10.2207
-3.0337901 69.579903 10.2161
-3.21751 69.424896 10.1556
-3.0507801 69.406898 10.1455
-3.22774 69.218201 10.0833
-3.0732 69.197701 10.0685
-2.68823 69.5466 10.2012
-2.70766 69.370399 10.1186
-2.7289701 69.157501 10.0492
-2.8610499 69.563904 10.2095
-2.88287 69.389198 10.1326
-2.91011 69.178001 10.058
-2.3425901 69.519402 10.1841
-2.3292501 69.340302 10.0954
-2.31071 69.128403 10.0327
-2.51489 69.530403 10.1917
-2.5221601 69.351898 10.1042
-2.52654 69.138298 10.0384
-2.1738801 69.516602 10.1822
-2.0125999 69.521698 10.1869
-2.1341901 69.341003 10.0976
-1.9462 69.350899 10.1098
-2.0927601 69.133904 10.0395
-1.8864501 69.1502 10.0571
-1.86121 69.5326 10.1989
-1.7161601 69.542702 10.2195
-1.77279 69.3647 10.1302
-1.61023 69.375099 10.1587
-1.70216 69.169403 10.0822
-1.53451 69.180801 10.1141
-1.4299001 69.533401 10.301
-1.30136 69.362 10.2459
-1.2259001 69.155296 10.1957
-1.573 69.544701 10.2515
-1.45338 69.375397 10.1966
-1.37596 69.1754 10.1523
-1.29019 69.506599 10.3727
-1.17494 69.469704 10.4613
-1.15738 69.333504 10.3091
-1.03565 69.294296 10.3855
-1.08675 69.124901 10.2436
-0.96602899 69.087097 10.2995
-1.10672 69.428902 10.5633
-1.09624 69.388298 10.6933
-0.95379698 69.248802 10.4789
-0.93171602 69.1959 10.6123
-0.87573802 69.040802 10.374
-0.84102601 68.971802 10.504
-1.1477799 69.358902 10.8653
-1.25237 69.357697 11.0665
-0.98160499 69.148003 10.8041
-1.084 69.133698 11.0346
-0.87946498 68.891296 10.7189
-0.96614099 68.852798 10.9845
-1.39791 69.392303 11.2787
-1.5723 69.457802 11.4883
-1.21636 69.165497 11.2755
-1.37674 69.237297 11.5113
-1.07451 68.879601 11.2562
-1.2135 68.960098 11.516
-1.7693 69.534798 11.6794
-2.00561 69.5737 11.8247
-1.57279 69.328003 11.7246
-1.83084 69.384399 11.8868
-1.40394 69.068199 11.7493
-1.67923 69.150703 11.9307
-2.64344 69.550003 11.9205
-2.57041 69.401001 11.9991
-2.5086801 69.233299 12.0793
-2.2983999 69.547897 11.9024
-2.1708901 69.377602 11.9745
-2.06075 69.179001 12.0398
-3.4300599 69.780197 11.7861
-3.4487 69.6707 11.8584
-3.46738 69.519798 11.9201
-3.02845 69.657997 11.8879
-3.0001099 69.531799 11.9693
-2.97841 69.3778 12.0491
-3.8208399 69.8153 11.6023
-3.9014699 69.708702 11.6453
-3.97087 69.558502 11.6705
-3.9988201 69.864197 11.3193
-3.7041299 69.879898 11.5198
-3.3749599 69.843697 11.6777
-3.8387699 69.880096 11.1542
-3.5895801 69.877197 11.3035
-3.3176301 69.834099 11.4236
-4.4070702 69.817596 10.8981
-4.2389302 69.839699 11.1034
-4.2129302 69.876099 10.8471
-4.0503101 69.877197 10.9956
-4.49862 69.785202 10.5824
-4.4912901 69.797203 10.7232
-4.3762202 69.862396 10.6348
-4.3195 69.874001 10.7243
-4.3297701 69.803497 10.3933
-4.4331899 69.792198 10.4727
-4.2653899 69.8703 10.4733
-4.3171902 69.873901 10.5562
-4.0500598 69.802498 10.3324
-4.19945 69.808998 10.3536
-4.0279698 69.865799 10.4803
-4.1652999 69.876404 10.4751
-3.71418 69.767601 10.3131
-3.88692 69.786903 10.319
-3.69243 69.829002 10.5075
-3.8678 69.848602 10.4905
-3.35569 69.732697 10.3204
-3.5358601 69.749298 10.3157
-3.3180399 69.7808 10.5522
-3.5075901 69.807999 10.5308
-2.99962 69.704498 10.3199
-3.17676 69.717903 10.3213
-2.93993 69.718697 10.568
-3.1279199 69.745399 10.5636
-2.6507001 69.679703 10.3156
-2.8242199 69.691803 10.3186
-2.57584 69.720802 10.5629
-2.7559099 69.715103 10.5692
-2.3141501 69.660301 10.3024
-2.4797101 69.668503 10.3089
-2.23224 69.716698 10.5245
-2.4000399 69.7201 10.5461
-2.0136299 69.659798 10.3018
-2.15749 69.657097 10.3003
-1.94357 69.723801 10.4855
-2.07761 69.717499 10.505
-1.76353 69.675697 10.3179
-1.88442 69.667801 10.3065
-1.7386301 69.746002 10.4512
-1.83426 69.734802 10.4649
-1.52463 69.665901 10.3811
-1.6439101 69.676697 10.3409
-1.56872 69.738403 10.4539
-1.64675 69.750603 10.4508
-1.3166 69.610603 10.5325
-1.4085701 69.643402 10.4504
-1.4221801 69.694901 10.5737
-1.4994299 69.728401 10.5188
-1.29904 69.543701 10.7382
-1.28468 69.577499 10.6232
-1.49595 69.659203 10.7145
-1.44958 69.685898 10.6307
-1.44689 69.522598 11.0704
-1.35189 69.521103 10.8914
-1.64222 69.630501 10.9778
-1.55528 69.636703 10.8351
-1.75708 69.607498 11.44
-1.58641 69.552902 11.2574
-1.93066 69.675499 11.2619
-1.77068 69.644203 11.1233
-2.1617301 69.692299 11.7282
-1.94639 69.669098 11.604
-2.3068199 69.717796 11.4758
-2.10936 69.712196 11.3843
-2.7052 69.6427 11.8083
-2.4136 69.653999 11.7951
-2.7704899 69.657799 11.5311
-2.5262699 69.674004 11.5243
-3.0332501 69.733704 11.7721
-3.03895 69.734497 11.499
-2.8554101 69.6595 11.0364
-2.6482301 69.669601 11.0356
-2.4529099 69.702202 11.0122
-3.29966 69.788498 10.978
-3.0746701 69.713997 11.0185
-3.52215 69.832199 10.9123
-3.7326901 69.853302 10.8324
-3.9219699 69.870499 10.7518
-4.08217 69.886398 10.6788
-4.2098198 69.894897 10.6174
-2.26845 69.708199 10.9633
-2.0966101 69.698303 10.8975
-1.94163 69.693497 10.8245
-1.81422 69.698601 10.7467
-1.72121 69.712997 10.6677
-1.64711 69.732803 10.6021
-1.57441 69.747101 10.5599
-5.29877 69.812897 9.5038605
-5.18606 69.632599 9.5237999
-5.05404 69.396004 9.5777302
-5.2558198 70.017097 9.2741003
-5.1807899 69.849998 9.2268
-5.1184402 69.680702 9.1758204
-5.3198199 70.263603 8.7438803
-5.2627802 70.077103 8.6281796
-5.2220702 69.883904 8.5313597
-5.4977698 69.778603 9.6024599
-5.8221202 69.881798 9.5718899
-5.3984299 69.567299 9.6549397
-5.7686801 69.640297 9.6328402
-5.3000102 69.305298 9.73563
-5.71807 69.322502 9.7078104
-6.2119899 70.070702 9.4078598
-6.5560999 70.295898 9.1318903
-6.2177401 69.855698 9.42348
-6.6153998 70.151497 9.04424
-6.2413902 69.629303 9.4105396
-6.65482 69.975304 8.9179096
-6.6963902 70.490501 8.5063295
-6.5931902 70.597801 7.9491701
-6.79357 70.436401 8.2410202
-6.6753302 70.572502 7.5521302
-6.8315802 70.275497 8.0254898
-6.7047601 70.330902 7.1809502
-5.8164802 70.5261 7.8171
-5.6905699 70.344299 7.4619398
-5.5501599 70.040497 7.1778202
-6.2409301 70.596001 7.7126498
-6.2111101 70.512199 7.2950401
-6.1424499 70.286697 6.95186
-5.5025201 70.427002 8.2077599
-5.3986702 70.224403 7.9798398
-5.31495 69.990997 7.8383899
-5.4184899 70.382599 8.8654499
-5.6132102 70.5439 8.4626598
-5.8853502 70.625999 8.1917601
-5.6234298 70.441399 9.0005503
-5.7740502 70.591599 8.6872597
-5.9192801 70.6586 8.4717703
-5.3954902 69.957298 9.4901199
-5.3563299 70.144203 9.3057203
-5.4932399 70.066299 9.4661598
-5.5303502 70.228203 9.3215504
-5.8454299 70.043701 9.5380898
-5.5699301 69.943604 9.5671902
-5.8471999 70.135902 9.5052795
-5.65557 70.089897 9.5040102
-6.4709501 70.392197 9.1772804
-6.1879601 70.209999 9.3986502
-6.29037 70.444504 9.1943102
-6.0753899 70.273499 9.3844404
-6.4183898 70.628502 8.3100796
-6.53477 70.541199 8.73419
-6.2560902 70.656097 8.5562496
-6.3130999 70.585403 8.85847
-6.17625 70.653801 8.1374598
-6.0866699 70.671997 8.5056295
-2.91819 70.970497 6.9151101
-2.8911099 70.674301 7.9135199
-2.75265 70.369598 8.8319998
-2.7861199 71.046097 6.9579301
-2.75157 70.7901 7.8723698
-2.63241 70.532997 8.6989202
-2.54108 71.056801 7.0813899
-2.5197799 70.825302 7.91153
-2.4484 70.608299 8.6336899
-2.70351 71.1856 5.73774
-2.86536 71.1315 6.1729002
-2.6254301 71.254402 5.8496099
-2.75509 71.200401 6.2630801
-2.4507999 71.2901 5.9927301
-2.52789 71.2174 6.41676
-2.0785999 71.1315 5.6476202
-2.41377 71.186203 5.5821099
-2.0822201 71.180496 5.7709799
-2.37129 71.236504 5.7091298
-2.0843799 71.235901 5.83777
-2.25196 71.280701 5.84724
-1.5806201 70.869598 6.2590699
-1.79047 71.015404 5.87849
-1.65095 71.027496 6.3536
-1.83893 71.116798 5.9883199
-1.82426 71.176903 6.3487701
-1.9696 71.229103 6.00667
-1.41993 70.550499 7.4753599
-1.45998 70.722603 6.7869902
-1.48701 70.728897 7.5250602
-1.5342799 70.898201 6.86727
-1.70266 70.887299 7.4860401
-1.74154 71.059898 6.8448
-1.58349 70.160103 9.0102301
-1.4538701 70.338699 8.2916403
-1.63542 70.375099 8.9119997
-1.51525 70.5354 8.2766705
-1.8196501 70.530998 8.7800303
-1.73184 70.692299 8.1972799
-2.14187 70.103798 9.5155096
-1.8246 70.087502 9.4137001
-2.1322801 70.302399 9.3041897
-1.8592499 70.301003 9.2386799
-2.1259999 70.4188 9.1454296
-1.98893 70.451103 9.0597095
-2.4797201 70.185097 9.3533001
-2.4072399 70.373802 9.1553402
-2.2742901 70.481796 9.0121603
-4.01788 70.058296 9.5458202
-3.76386 70.115601 9.4597197
-3.5497799 70.297401 8.9928904
-4.0514898 70.178902 9.4050198
-3.81652 70.238503 9.3071098
-3.6090801 70.420197 8.8990002
-4.0617199 70.246498 9.26686
-3.9249599 70.314598 9.1736298
-3.7467599 70.479897 8.8489599
-4.53122 70.242798 9.07969
-4.29948 70.099701 9.4502497
-4.46384 70.376801 8.93262
-4.2786598 70.229897 9.2670403
-4.3080001 70.452202 8.8275003
-4.1756201 70.3106 9.1351204
-4.7294302 70.739799 7.7993002
-4.6717801 70.483398 8.52141
-4.5871902 70.842102 7.72052
-4.5629001 70.604103 8.4158697
-4.33636 70.908798 7.6030002
-4.3498902 70.676598 8.3106899
-4.5588899 71.071999 6.1851501
-4.7107301 70.933098 6.9637699
-4.39921 71.154099 6.1649699
-4.54319 71.025101 6.89433
-4.1533098 71.198402 6.1302199
-4.26828 71.079903 6.7929201
-3.8694 71.208199 5.3716102
-4.2392902 71.174202 5.6353898
-3.83303 71.261497 5.5841098
-4.1325102 71.238503 5.7421899
-3.8187101 71.305702 5.7313299
-3.96278 71.276901 5.82231
-3.3963699 71.071098 5.7651601
-3.57917 71.152 5.4158502
-3.4140501 71.147003 5.90202
-3.5811901 71.212799 5.6265302
-3.53514 71.198898 6.0215802
-3.6764801 71.264999 5.7867298
-3.32779 70.888 7.2420902
-3.31896 71.015999 6.3979201
-3.3924999 70.983101 7.2377701
-3.3626499 71.101501 6.4563799
-3.5713201 71.010201 7.3076301
-3.5231299 71.138496 6.54952
-3.40451 70.604401 8.1845598
-3.47191 70.715103 8.1352797
-3.6436501 70.753799 8.1557302
-1.1722701 69.7892 9.4368801
-0.89086503 69.739197 9.8638201
-0.553864 69.827202 9.8750601
-1.04514 69.9245 9.4439001
-0.81153297 69.863701 9.73631
-0.54571998 69.937599 9.6904001
-0.907242 70.044899 9.3909101
-0.72395402 70.026604 9.4870501
-0.548621 70.036598 9.4823399
-1.13508 70.1735 8.1721497
-1.24122 69.974998 8.78895
-1.00521 70.312599 8.3152399
-1.09524 70.118401 8.8814802
-0.83390599 70.401604 8.4526701
-0.89719099 70.224098 8.9622002
-0.69369501 70.277496 7.6750998
-0.93378901 70.2668 7.7996898
-0.65250403 70.391098 7.8980398
-0.83784097 70.389503 7.9942298
-0.62856603 70.435204 8.0463104
-0.72642899 70.453598 8.1574802
-0.29026699 70.2416 7.95543
-0.464109 70.258202 7.7469802
-0.37624601 70.392097 8.1147203
-0.49159801 70.388 7.9590702
-0.43830699 70.4478 8.1942396
-0.52686697 70.444199 8.1157799
-0.22011501 70.175903 8.7402601
-0.207958 70.236504 8.2638197
-0.329431 70.329102 8.7412796
-0.32569101 70.397697 8.3572798
-0.45394701 70.409698 8.6790304
-0.43810099 70.467598 8.3653803
-0.32730901 70.0093 9.3914003
-0.390836 70.137299 9.2710104
-0.48587799 70.221001 9.1238298
-4.0255299 70.482498 8.8171101
-3.9405 70.9739 7.4475098
-3.9892399 70.731697 8.2200203
-3.8747201 71.124298 6.6698599
-3.8227899 71.219803 6.0917702
-2.1347799 70.6063 8.6753702
-2.11748 71.001099 7.2992802
-2.1247399 70.790901 8.0478497
-2.13397 71.264297 6.1877999
-2.1310401 71.1698 6.6532998
-0.63427502 70.433701 8.5775404
-0.58010697 70.479698 8.2846203
-0.674187 70.248703 9.0418701
-5.9649 70.460899 9.1462698
-5.8099298 70.268204 9.3568201
-6.0348301 70.604103 8.8215103
-2.88076 70.093697 9.0104103
-2.9983301 69.670303 9.2785997
-2.5383601 69.909302 9.55828
-2.5847099 69.5392 9.74755
-2.1500299 69.841797 9.7019396
-2.17766 69.501602 9.8291302
-1.84922 69.822304 9.5342302
-1.91997 69.484596 9.6641397
-1.63436 69.892097 9.0568504
-1.73089 69.516296 9.1714697
-1.40604 70.365402 7.4319401
-1.4796799 70.116898 8.2771797
-1.41154 70.131104 7.45647
-1.52802 69.858803 8.2878504
-1.42902 70.551201 6.7122302
-1.41372 70.300102 6.7449002
-1.54791 70.719498 6.13449
-1.51972 70.424797 6.0711198
-2.05881 71.115097 5.4524698
-1.7623 70.948898 5.7018399
-2.03633 71.026398 5.2368202
-1.74509 70.813004 5.50845
-2.41594 71.144302 5.4071798
-2.4010301 71.030998 5.21666
-2.74739 71.085602 5.6159301
-2.8078799 70.871101 5.5376301
-3.03812 70.833099 6.9225798
-2.94925 71.016602 6.1159701
-3.1349699 70.632202 7.0240302
-3.0338199 70.824203 6.1789699
-3.0334101 70.473198 8.0026703
-3.14327 70.215103 8.1377401
-3.9363101 71.191902 5.1795301
-4.0018301 71.145103 5.0173302
-4.3228102 71.113403 5.5272298
-4.3900499 71.018501 5.4119701
-4.66184 70.936401 6.1900201
-4.77178 70.684898 6.2384701
-3.6221399 71.117897 5.22752
-3.4059701 70.981201 5.6512499
-3.6698101 71.054497 5.0632901
-3.4205301 70.819901 5.5735998
-3.2715499 70.7332 7.3080702
-3.24018 70.548103 7.4067101
-3.29109 70.890404 6.3831601
-3.28457 70.721001 6.4429998
-3.3433001 70.421204 8.31392
-3.4939699 70.084801 9.1744003
-3.29476 70.202301 8.4605904
-3.4322901 69.735001 9.4461298
-3.9664199 69.872299 9.6428099
-3.90605 69.601601 9.7414799
-3.70716 69.917702 9.5970201
-3.6473701 69.621101 9.7096205
-4.2792602 69.8946 9.5454702
-4.5693402 70.017998 9.2399702
-4.2258501 69.610901 9.6526804
-4.5743999 69.677399 9.4530296
-4.8362598 70.563599 7.8602099
-4.9197502 70.317398 7.95681
-4.7533202 70.2836 8.6214895
-4.81529 70.028702 8.7363596
-4.8208299 70.770401 7.0146599
-4.9109902 70.513603 7.14043
-1.22177 69.994301 8.0317402
-1.0281 70.0672 7.5886002
-0.76269799 70.047203 7.4007902
-1.27627 69.787102 7.9220099
-1.1212699 69.811897 7.4288301
-0.886096 69.686996 7.1264901
-0.44711801 69.997902 7.4663901
-0.18358 69.943901 7.71381
-0.47832599 69.629799 7.1830401
-0.111315 69.474503 7.4679599
-0.087765999 69.942299 8.6724005
0.018780001 69.668297 8.6227598
-0.062712997 69.960098 8.1054401
0.049651001 69.611702 8.0032797
-0.53738999 69.691399 9.9531803
-0.54284799 69.434601 9.9660797
-0.245464 69.834503 9.41185
-0.17122699 69.6129 9.3633299
-1.22821 69.656998 9.4315996
-1.28965 69.4282 9.4679699
-0.91848898 69.623703 9.9205303
-0.96080899 69.420097 9.9571896
-1.31226 69.824303 8.7114096
-1.3469599 69.647499 8.6424704
-1.52118 66.666199 13.1859
-1.2077399 66.276299 12.7456
-1.02092 65.790298 12.146
-1.39985 67.069801 12.7425
-1.06938 66.688004 12.3093
-0.87586802 66.234596 11.7326
-1.32724 67.467201 12.6469
-0.96982902 67.143799 12.2429
-0.73559499 66.730103 11.7135
-1.29119 67.869003 12.5986
-0.91676402 67.604698 12.2255
-0.64405102 67.233597 11.7386
-1.39522 68.157204 12.3677
-1.0625401 67.862396 11.9916
-0.82005501 67.551399 11.5553
-1.44763 68.2659 12.2301
-1.13333 67.983101 11.8815
-0.91277599 67.712196 11.491
-1.48395 68.399803 12.1151
-1.1799999 68.153801 11.8087
-0.974635 67.923798 11.4679
-1.33556 68.879097 10.0273
-1.1643699 68.861298 10.0799
-0.99393201 68.829903 10.1193
-1.32965 69.080902 9.8743696
-1.08162 69.0905 10.0221
-0.82223499 69.061897 10.0779
-0.89919901 69.294701 6.8715701
-0.58331603 69.228996 6.92733
-0.27688301 69.049004 7.09305
-0.98184901 68.870201 6.6700401
-0.72147101 68.791 6.6834202
-0.441609 68.638802 6.7965202
-1.15493 67.713997 6.3440299
-0.91154897 67.643303 6.28584
-0.63854599 67.565598 6.3382201
-1.12788 66.9468 6.4836602
-0.93233401 66.846298 6.4797101
-0.72557902 66.769302 6.5331898
-1.13096 65.731102 6.6472201
-0.982382 65.507797 6.7386699
-0.82539701 65.415703 6.8441501
-1.4802099 63.6264 7.4781699
-1.3125499 63.453999 7.7087798
-1.09662 63.380798 8.0086803
-1.63281 63.0424 8.5018597
-1.49028 62.9701 8.6909304
-1.31604 62.906799 8.9552202
-1.77469 62.384399 9.74858
-1.66555 62.380501 9.9274902
-1.5633399 62.473301 10.1883
-0.75878102 67.7379 10.7605
-0.67552 67.505203 10.7269
-0.54200202 67.281303 10.7194
-0.70231497 67.905197 10.4029
-0.61429298 67.708801 10.3637
-0.460049 67.493401 10.3527
-0.61767799 68.229599 10.1023
-0.521276 68.084 10.0329
-0.352415 67.887001 9.9772997
-0.18059801 68.276604 9.5200596
-0.034556001 68.609398 9.1924
-0.33708 68.459503 9.6087799
-0.15440699 68.7864 9.3238602
-0.46593601 68.5784 9.7769604
-0.29498199 68.933701 9.5746698
-0.84084499 67.765198 11.1179
-0.766132 67.528702 11.1037
-0.65295398 67.325302 11.1226
0.023868 68.889801 8.96984
0.044018 69.1409 8.7904902
-0.075061001 69.124298 9.1896896
-0.28411299 66.705597 10.7241
-0.45715901 66.096397 10.5896
-0.692316 65.398102 10.4101
-0.070822999 66.847397 10.3617
-0.16757999 66.294899 10.2394
-0.38474101 65.713699 9.94238
0.133412 67.2425 9.9289904
0.138677 66.760101 9.6891098
-0.0462 66.2621 9.3274002
-2.0449901 62.740898 9.3175201
-1.88722 63.527199 8.1114998
-1.75823 64.2248 7.2605901
-1.89755 62.525299 9.5174398
-1.7741899 63.227798 8.3301897
-1.6357599 63.908001 7.3229599
-0.94769502 65.250099 11.4458
-0.91875201 64.544601 10.7736
-1.0951999 64.091698 11.2188
-1.37446 63.5214 11.6664
-0.29283801 66.605301 7.57689
-0.395163 66.243202 7.3310499
-0.50660598 65.719803 7.1336598
-0.23709799 66.997704 7.1772399
-0.40373901 66.708603 6.9198799
-0.25115699 67.2985 6.8290501
-0.80629402 65.747299 11.0401
-0.61003 66.315201 11.1096
-0.45629501 66.877403 11.2011
-0.72767299 64.314003 9.4321003
-0.83709198 63.610401 9.7429399
-0.94516599 63.1073 9.8607998
-0.53453702 65.215401 8.5569496
-0.57151598 64.298401 8.47649
-0.61209297 63.664101 8.53578
0.24204899 68.158897 8.8984404
0.21582399 67.813599 8.5732403
0.077414997 67.416397 8.1868496
0.177001 68.465103 8.3924904
0.143592 68.176399 8.0433397
0.047176 67.838997 7.6909199
0.099950999 68.727501 7.9493599
0.049899999 68.463997 7.5980201
-0.03091 68.159203 7.2842302
-1.28224 66.041901 6.5823898
-1.40966 66.343697 6.6216798
-1.2835 67.0802 6.51719
-1.39724 67.197502 6.61936
-1.31786 67.796898 6.46523
-1.43476 67.887604 6.6240401
-1.17363 68.877197 6.7586799
-1.30005 68.866302 6.8517399
-1.12265 69.2202 6.9254799
-1.2607501 69.1362 7.0048499
-1.13036 69.455803 7.11692
-1.2571501 69.300003 7.1733899
-1.31261 69.575699 7.86377
-1.34534 69.427299 7.8341398
-1.38934 69.463898 8.5316896
-1.42721 69.3284 8.4455204
-1.4383399 69.266502 9.2280998
-1.50995 69.159897 9.0882397
-1.4860801 69.027397 9.7197399
-1.5766701 68.998802 9.57125
-1.48535 68.890999 9.9784002
-1.63032 68.903198 9.9131603
-2.5036399 67.123497 13.5335
-1.95727 66.946503 13.4438
-2.41188 67.556503 13.1345
-1.8465101 67.362198 13.0276
-2.3780301 67.785896 13.0119
-1.79655 67.666496 12.9121
-2.3594999 68.022301 12.908
-1.77198 67.976402 12.8298
-2.3861799 68.504799 12.709
-1.83201 68.365097 12.62
-2.4140699 68.671204 12.5842
-1.87292 68.500504 12.4826
-2.44046 68.785301 12.4594
-1.90762 68.618103 12.3523
-2.3153601 62.9272 9.0677204
-2.1751699 63.556301 8.2722702
-2.0598199 64.395203 7.4506102
-2.1719699 62.831799 9.2509804
-2.0814199 63.6092 8.3232899
-1.98444 64.421898 7.5366998
-1.98418 63.667999 8.17904
-1.89188 64.4645 7.4792299
-1.37747 68.905296 6.8287101
-1.42235 69.063698 6.5767798
-1.34262 69.150497 6.9819498
-1.39483 69.334396 6.7519302
-1.33066 69.291397 7.1518502
-1.3791699 69.481201 6.9594898
-1.60701 69.1894 9.0319099
-1.55999 69.127197 9.05832
-1.50415 69.3992 8.3628798
-1.46741 69.302002 8.4018202
-1.41243 69.545097 7.7172599
-1.38328 69.409203 7.7978101
-1.6597 69.004601 9.5397902
-0.81958598 63.409199 8.3465796
-1.11127 62.883999 9.43262
-1.4793 62.7896 11.0377
-0.402989 67.457298 6.5345502
-0.54048502 66.740097 6.6872602
-0.65278101 65.4823 6.97293
0.035980001 69.056396 7.64255
-0.075923003 68.763298 7.2934299
-0.199334 68.425003 6.9913702
-0.368031 69.210701 9.7728596
-0.106288 69.377098 9.2720098
0.050462998 69.397797 8.6717501
-0.85540801 68.761398 10.1383
-0.77678698 68.575798 10.2065
-0.65923703 68.946899 10.0458
-0.57981497 68.757599 9.9481697
0.24151701 67.721298 9.3997097
-0.082689002 67.616203 9.9855804
0.054304998 68.040199 9.49405
0.12867901 68.419098 9.0796099
-0.114675 67.006798 7.8447099
-0.39972699 66.051498 8.0363398
-0.186019 66.452103 8.3626404
0.082915999 66.861801 8.7399998
-0.33146799 65.830902 8.9398098
-0.220577 67.232498 10.377
-0.35595199 67.062698 10.7448
-0.50469297 67.170601 11.1846
-0.69823802 67.462303 11.6685
-1.3275599 68.072899 12.5051
-0.96740502 67.803703 12.1317
-2.3645201 68.274597 12.8125
-1.7905 68.205002 12.7382
-1.37003 68.440498 6.68751
-1.43707 68.511703 6.6735201
-1.50978 68.1082 6.6245298
-1.47466 68.612503 6.4117699
-1.5958 68.020599 6.36832
-1.09137 68.354797 6.4455199
-1.26235 68.401901 6.5694699
-0.83951497 68.282501 6.4043798
-0.55412102 68.171402 6.4801998
-0.081611 67.443901 7.38622
-0.12661199 67.774696 6.9952202
-0.57656699 65.2033 9.5832796
-0.80375898 64.903999 10.3501
-0.95649397 65.9562 11.8899
-0.887707 65.424599 11.1553
-1.46153 66.825699 12.9276
-1.14309 66.430901 12.4877
-2.45262 67.328102 13.2959
-1.89877 67.128403 13.1997
-1.2785701 64.5448 6.9103498
-1.43431 64.872704 6.7771602
-1.56496 65.197502 6.7678099
-1.12442 64.3172 7.1024499
-0.93772697 64.223602 7.3117399
-0.51253098 64.622803 7.6396899
-0.45520601 65.284599 7.7523499
0.24798401 67.306297 9.1223803
-1.28637 69.407402 7.4221501
-1.33991 69.391502 7.3955202
-1.37637 69.562103 7.2579498
-1.21675 69.572098 7.4011502
0.099555999 68.973396 8.3618698
0.12519 68.711098 8.6981602
-0.69989097 64.296303 7.5050402
-0.29737201 68.008003 6.6846299
0.094311997 69.2733 8.11199
-4.5887299 69.133202 9.8284903
-4.4170699 69.159401 9.8523703
-4.25036 69.151199 9.8777199
-4.6324801 69.241402 9.67204
-4.52144 69.267799 9.6939201
-4.3678799 69.303902 9.7213602
-4.7722902 69.411797 9.4575796
-4.7062802 69.514801 9.4460201
-4.9636402 68.869301 11.2925
-4.8032999 68.9804 11.2544
-4.6635199 69.105598 11.2504
-5.4216399 68.703796 10.6659
-5.2464399 68.812103 10.6646
-5.0634398 68.9263 10.7041
-5.8511901 68.663803 10.0886
-5.6510301 68.752403 10.1131
-5.3828702 68.832497 10.1363
-1.9164701 68.873703 9.9326
-1.7682 68.888603 9.92731
-1.87466 69.085197 9.69765
-1.7592 69.032997 9.6134701
-1.66992 69.316704 9.0561199
-1.52925 69.604401 8.3130999
-1.41882 69.822899 7.5771198
-1.42704 69.888603 6.5569701
-1.5501 70.167503 5.72329
-1.4478 69.7136 6.2719402
-1.55173 69.749397 5.47224
-1.45999 69.378098 6.0509
-1.63854 68.380997 5.1436601
-1.58623 68.184502 5.7265601
-1.86233 67.572502 5.2556701
-1.80346 67.460899 5.7295098
-1.80766 67.356003 6.2620301
-2.08272 66.2556 5.49933
-1.99792 66.347099 5.8400102
-1.9708101 66.437798 6.2581801
-2.2623501 63.861698 6.8120799
-2.1365499 64.014999 6.9490499
-2.0868101 64.194199 7.1125102
-2.5121 63.325001 7.8439898
-2.34075 63.4072 7.9257698
-2.22644 63.483501 8.1044197
-2.7472701 62.9174 8.9048901
-2.5383 62.908298 8.9754696
-6.5318599 65.611603 9.3102798
-6.3256502 65.805099 9.7971201
-6.0496101 66.256798 10.4271
-6.5464301 66.192299 9.2951002
-6.2878599 66.2155 9.75455
-6.0131402 66.560204 10.3267
-6.5950899 66.823898 9.2763596
-6.2758098 66.742599 9.7241697
-5.9839201 66.953598 10.2536
-6.81569 68.1875 9.2496004
-6.3966699 68.049103 9.6433601
-5.9482899 68.015999 10.116
-6.84128 68.704201 9.2821999
-6.42028 68.533997 9.6419001
-5.9329 68.427498 10.0873
-6.72891 69.016602 9.3402205
-6.32761 68.806602 9.6711597
-6.96242 67.274002 7.7771301
-6.7713399 66.644997 7.8428502
-6.6037998 66.005203 7.9767699
-6.8208399 67.0644 8.5283899
-6.6983399 66.434097 8.5595503
-6.60322 65.822899 8.6268301
-6.9769402 68.371902 8.6365204
-6.9949899 68.891899 8.7848301
-6.92097 69.235603 8.9519901
-7.0108399 68.517899 7.9477501
-6.99369 69.0121 8.1427603
-6.9478102 69.360001 8.3619204
-6.47963 64.994499 9.8891497
-6.6269202 64.408096 9.4941502
-6.53584 63.917 10.8859
-6.67415 63.942001 10.0213
-6.6869898 64.128998 8.8352003
-5.9667101 62.937901 9.5964403
-6.1215701 62.8857 9.7846098
-6.2519102 62.898399 9.9238005
-5.8934398 63.506401 8.2530804
-6.09273 63.3036 8.30445
-6.2957301 63.208698 8.3798103
-5.8418298 64.144798 7.32341
-6.0742602 63.920601 7.3042302
-6.3249798 63.830799 7.3310099
-5.97577 66.267601 6.7213502
-6.1122699 66.062302 6.66786
-6.2471299 66.026398 6.6756101
-5.9100399 67.237198 6.4776201
-6.0598898 67.111702 6.38975
-6.2395101 67.0289 6.3919702
-5.79425 68.139198 6.2622499
-5.99612 68.002602 6.1104398
-6.2676001 67.855103 6.1079202
-5.7386699 69.3349 6.5553098
-6.0748 69.301102 6.4597802
-6.4710002 69.186501 6.4987602
-5.6573 69.736397 6.79281
-6.1083398 69.856697 6.6800699
-6.5855899 69.825104 6.7456598
-4.9883099 69.092499 9.7913103
-5.2219 69.027397 9.8712196
-5.50843 68.993797 9.87749
-4.9823198 68.953499 9.9482403
-5.1798401 68.886002 10.0302
-5.9833202 65.845497 11.5796
-6.07864 65.9114 11.0128
-5.6845498 66.357803 11.7031
-5.14884 66.740196 12.3478
-6.1742501 69.131203 9.4968204
-6.4653802 69.115997 9.4096098
-5.8179898 68.922798 9.7810402
-6.086 68.885498 9.72048
-3.8261099 67.173103 13.2554
-3.14064 67.203697 13.4726
-3.83955 67.621101 12.7667
-3.09323 67.646301 13.0396
-3.84059 67.873802 12.6455
-3.06867 67.8657 12.9199
-3.8406301 68.134903 12.5516
-3.05124 68.091904 12.8173
-3.83464 68.662598 12.3554
-3.06253 68.606697 12.6118
-3.7878799 68.829498 12.2499
-3.06481 68.777702 12.4963
-3.724 68.940002 12.1547
-3.0594599 68.888 12.3859
-4.5123601 67.017197 12.8756
-5.2273502 67.175499 11.789
-4.5822902 67.468597 12.3457
-5.3059301 67.490501 11.6438
-4.6367698 67.762802 12.21
-5.3702102 67.838699 11.5505
-4.6813302 68.074997 12.1187
-5.2832699 68.484802 11.4194
-4.6373 68.645302 11.9655
-5.1364498 68.711601 11.3527
-4.5216098 68.8274 11.8781
-4.3837099 68.952301 11.7961
-6.3157701 65.454399 10.363
-6.2252498 65.451302 11.0083
-5.7024598 66.746498 11.1216
-5.72929 67.046501 10.9883
-5.7476301 67.399696 10.8946
-5.6462798 68.194199 10.7424
-5.5522099 68.5037 10.694
-4.26612 69.058197 11.7374
-3.66398 69.040398 12.0851
-4.1624298 69.186798 11.7016
-3.5999899 69.164902 12.0297
-6.4643202 63.224701 10.2714
-6.54287 63.657101 10.7561
-6.5874 63.3461 8.927
-6.6646099 63.535702 9.4415798
-6.6511798 63.938801 7.8854799
-6.7023501 64.028503 8.3206501
-6.4928002 66.080399 7.0549302
-6.5672898 66.097298 7.45541
-6.6605601 66.860802 6.83989
-6.7638502 66.775597 7.2695899
-6.8941398 67.566704 6.6824298
-7.0043802 67.432503 7.16539
-7.0499802 68.755997 6.9573998
-7.0700698 68.6222 7.3835201
-6.9972601 69.1903 7.1874199
-7.0084901 69.060303 7.6050401
-6.9166598 69.496597 7.5131698
-6.93185 69.384003 7.8934498
-6.7277098 69.650597 8.6612301
-6.8371902 69.528801 8.5032701
-6.4983001 69.425697 9.2023602
-6.7255602 69.378502 9.0939398
-5.61694 63.242901 8.9634504
-5.7863302 63.060398 9.28267
-5.6255202 64.111099 7.8522
-5.7319102 63.747799 8.0935097
-5.62677 64.928802 7.2465
-5.6938901 64.508202 7.2783198
-5.7546201 66.864197 6.8392801
-5.8447099 66.590103 6.7739
-5.6675401 67.636398 6.7323399
-5.7693801 67.434898 6.5949001
-5.5039701 68.377098 6.6961699
-5.6345901 68.259102 6.4818201
-5.4058099 69.325302 6.9604602
-5.5300598 69.331802 6.7666202
-5.3529601 69.564102 7.21875
-5.4377198 69.620598 7.0112801
-5.2892399 69.681099 7.5339198
-5.3373699 69.784302 7.3547502
-5.1396999 69.679703 8.4222803
-5.18366 69.748299 8.4657097
-5.0162001 69.5383 9.0176497
-5.0623598 69.583298 9.0883904
-4.86656 69.3498 9.4826899
-4.9231 69.356201 9.5169497
-5.0323601 63.061199 8.3638897
-5.2217398 63.1656 8.5035801
-5.40523 63.284199 8.6725101
-5.07862 63.667801 7.1438098
-5.2473698 63.873798 7.3667598
-5.37077 64.178299 7.5081401
-5.0415001 64.428703 6.2683902
-5.2024598 64.709198 6.5980501
-5.3077698 65.0103 6.9342999
-4.6679101 66.784798 5.50843
-4.8855 66.961197 6.039
-5.0646701 66.990402 6.56497
-4.7488399 67.8451 5.2888699
-4.9632401 67.769203 5.86516
-5.1176 67.744598 6.4588599
-4.8863702 68.7742 5.1265702
-5.0934701 68.587196 5.78057
-5.2385402 68.469498 6.4643302
-4.8206801 70.262901 5.4738998
-5.0503201 69.878304 6.13832
-5.19382 69.525703 6.7219
-4.7754898 70.571899 5.7983899
-5.0148201 70.140503 6.4709902
-5.1682301 69.760399 7.0197501
-5.0040998 70.208199 6.8937898
-5.14504 69.846703 7.3709502
-4.9802499 70.030701 8.1244001
-5.03162 69.792603 8.2902298
-4.8731799 69.797699 8.8322601
-4.91711 69.623901 8.9189796
-4.7199798 69.202698 9.6841202
-4.8177099 69.144897 9.7340097
-4.777 69.042397 9.88626
-4.7269201 62.9911 8.2565203
-4.67275 63.459999 7.0120802
-4.5609698 64.122002 6.0726199
-4.5823798 63.0854 8.2519999
-4.42908 63.561901 6.9934201
-4.2518001 64.255302 6.0637002
-4.4054399 63.242001 8.2653503
-4.1877398 63.773899 6.9973302
-3.9786401 64.545197 6.0911899
-4.2649102 66.6287 5.1508799
-4.22752 68.009499 4.85817
-4.20822 69.068604 4.5789199
-4.0814099 66.68 5.1626801
-3.9869001 67.991096 4.8499398
-3.87287 69.0158 4.5489702
-3.92589 66.870903 5.26228
-3.80404 67.977203 4.97015
-3.63269 68.913902 4.7031398
-4.07725 70.597702 4.7198701
-4.4723701 70.5103 4.98562
-4.0385399 70.974602 4.8722701
-4.4243002 70.864998 5.2051201
-3.8431101 69.268204 9.8467503
-4.11551 69.290901 9.7968702
-3.8046601 69.060799 9.9378796
-4.0367298 69.112701 9.9133101
-3.9584899 63.647999 8.2930899
-4.1782498 63.434101 8.2697296
-3.8271301 64.419403 7.0072999
-3.98228 64.048897 7.0329299
-3.73734 65.292198 6.3003602
-3.81335 64.913002 6.1771002
-3.77282 67.397102 5.7228498
-3.8178401 67.238998 5.4713502
-3.66254 68.157097 5.5829301
-3.70152 68.050903 5.2437601
-3.4813099 68.900299 5.5306401
-3.5248101 68.878601 5.0798998
-3.3936601 69.978302 5.7005601
-3.4107499 70.167397 5.2944498
-3.4939301 70.383904 4.8751502
-3.3977001 70.223503 5.9507499
-3.40521 70.440498 5.5687499
-3.47493 70.700798 5.1420298
-3.3852401 70.3209 6.3084998
-3.37854 70.529198 5.9874902
-3.28438 70.221298 7.5720201
-3.2611401 70.366798 7.5050602
-3.25857 69.912498 8.5017405
-3.2720001 70.036003 8.5071096
-3.25458 69.515099 9.3211098
-3.3162601 69.600304 9.3786201
-3.23703 69.162399 9.6954403
-3.3185401 69.179199 9.7401104
-3.4368501 69.228699 9.7758799
-3.1757901 68.934799 9.8241196
-3.2953401 68.945 9.8685999
-3.4260399 68.973099 9.9035101
-3.3255601 63.332199 8.9041901
-3.5576 63.710201 8.8615103
-3.7412601 63.7309 8.53442
-3.35937 63.703701 7.7912698
-3.50473 63.945801 7.5264902
-3.5917599 64.339897 7.23313
-3.28494 64.267998 6.61377
-3.41236 64.705101 6.4839602
-3.4769299 65.179901 6.4526
-2.8691101 66.477699 5.4219298
-3.0551801 66.989098 5.5644102
-3.2069499 67.311096 5.8130698
-2.8073101 67.819702 5.0098901
-3.03808 67.954597 5.2920699
-3.20228 68.086601 5.6502399
-2.80492 68.801399 4.7048602
-3.0615499 68.823196 5.09269
-3.2527599 68.858704 5.5612402
-2.6893899 70.264801 4.9440899
-2.9867499 70.098503 5.3291001
-3.21293 69.940002 5.7151499
-2.7132199 70.648201 5.19699
-3.01017 70.407303 5.5814199
-3.22965 70.198196 5.9533
-3.07219 70.5476 5.9295001
-3.24896 70.310204 6.2846599
-3.18381 70.386002 7.24541
-3.2156301 70.193901 7.4692001
-3.1854801 69.9963 8.2561197
-3.1886899 69.855797 8.3750896
-3.1459701 69.510803 9.2002602
-3.16994 69.441101 9.2010002
-2.91907 69.121101 9.7705698
-3.09499 69.090401 9.7102404
-3.1698799 69.119102 9.6735897
-2.8326399 68.868103 9.9114904
-3.02561 68.883904 9.8655396
-2.89972 62.895199 8.9024801
-3.0211899 62.9011 8.9308596
-2.7131 63.279499 7.8431001
-2.9312899 63.317001 7.8769999
-2.4895201 63.760799 6.7662201
-2.7769499 63.7794 6.7669001
-2.23418 66.145798 5.3664298
-2.43378 66.0914 5.3613901
-2.0169001 67.639503 5.0135398
-2.2503099 67.680901 4.9297199
-1.8234299 68.557297 4.7986398
-2.1178899 68.688698 4.6340199
-1.74947 70.061302 5.07197
-2.0315299 70.263702 4.8551602
-1.74876 70.534897 5.28794
-2.0274401 70.750999 5.04811
-2.0226901 69.097198 9.8596001
-2.2421501 69.107803 9.9095297
-2.0866399 68.8619 9.9545803
-2.30215 68.857498 9.9699297
-3.6631899 64.454498 7.3312602
-3.55674 65.589897 6.6771798
-3.5167301 65.418198 6.5850701
-3.34236 69.894997 5.8561201
-3.35289 70.1334 6.09129
-3.35028 70.237297 6.41925
-3.25985 70.147202 7.5741601
-3.2209899 69.836403 8.4595499
-3.20433 69.437401 9.2631197
-5.30338 69.3591 6.9839501
-5.2750001 69.583801 7.2568598
-5.2368598 69.685097 7.57021
-5.0866098 69.682198 8.3798904
-4.96521 69.542503 8.97332
-4.8131299 69.355797 9.4746799
-5.9337101 69.172501 9.6259604
-6.6774902 69.794197 8.7806702
-6.3379202 69.489601 9.3203402
-6.83041 68.973198 6.66399
-6.8747702 69.518402 6.9040399
-6.8798099 69.896301 7.2883
-6.3801498 66.033096 6.7943802
-6.4622998 66.945198 6.5429902
-6.6084299 67.707397 6.3127999
-6.3659501 63.008202 10.078
-6.46347 63.234901 8.5804195
-6.5239902 63.856098 7.5357699
-3.7011199 70.902397 4.8600602
-3.7277 70.543701 4.67555
-3.5961201 69.012398 9.9312496
-3.6127701 69.245399 9.8338499
-4.4604101 66.655998 5.23244
-4.49301 67.946701 4.97153
-4.5724101 68.967003 4.7425499
-4.8704801 62.998001 8.2831802
-4.8882899 63.511002 7.0371399
-4.8281898 64.202103 6.1104698
-2.58394 69.114304 9.8699703
-2.5717199 68.860497 9.9521599
-2.3580401 70.3302 4.7926302
-2.36377 70.779602 5.0043201
-2.6547301 66.1819 5.3759198
-2.5297101 67.731903 4.9085598
-2.4699099 68.764603 4.5741
-3.15171 63.039902 8.9271402
-3.1535001 63.472401 7.87009
-3.0667701 63.962799 6.7491002
-3.8515501 63.723801 8.45644
-5.5146999 63.299599 8.8385201
-3.8457 68.413101 12.4555
-3.0529499 68.356003 12.716
-5.3650699 68.183197 11.4819
-4.6883402 68.382797 12.0427
-5.9616899 67.472801 10.1768
-5.7165699 67.800102 10.8105
-6.70649 67.522598 9.2539997
-6.3267498 67.3992 9.6794205
-7.0254998 67.916298 7.8163199
-6.91644 67.733902 8.5504398
-7.0268898 68.207703 6.7526999
-7.0948501 68.064003 7.2182002
-5.7575998 68.827904 6.3299499
-6.01683 68.7108 6.19414
-6.35425 68.551804 6.2107301
-5.44205 68.920601 6.7604098
-5.5735798 68.888802 6.5602999
-5.2302098 69.0755 6.5033598
-5.3331499 68.977898 6.7777801
-5.3646202 68.5942 6.7023501
-4.8907099 69.629799 5.2151799
-5.1034298 69.3302 5.8817501
-4.1465201 69.955101 4.56915
-4.5478101 69.858002 4.7813802
-3.4068601 69.516098 5.5285401
-3.434 69.620399 5.1069798
-3.5318 69.760201 4.6955099
-3.2266099 69.478798 5.54567
-3.3462901 69.485397 5.6881399
-3.3705001 69.064003 5.6638198
-2.7453599 69.641296 4.7247
-3.0246601 69.559303 5.1270499
-1.55145 69.1325 5.24613
-1.74968 69.386101 4.8575201
-2.0512199 69.567398 4.6550398
-1.48321 68.848099 5.8453202
-3.8310201 67.377296 12.9622
-3.1141 67.4132 13.2121
-5.1835098 66.924004 12.0171
-4.5416398 67.2146 12.5616
-6.0873699 66.035698 10.6339
-5.7027798 66.515099 11.3487
-6.3424802 65.5392 9.9513798
-6.5025001 65.076897 9.3394003
-6.5718002 65.1213 8.69734
-6.59758 65.104103 8.1146498
-6.5454302 64.912697 7.2596502
-6.5926499 65.020302 7.63764
-5.9077101 65.061203 6.8660998
-6.09656 64.843697 6.8302498
-6.2890801 64.799202 6.83213
-5.7002001 66.015099 6.9587202
-5.76928 65.513603 6.8771701
-4.83395 65.471802 5.7602301
-5.0191302 65.778603 6.18608
-5.1608601 66.097397 6.6645598
-3.93522 65.577003 5.5535002
-4.1515398 65.2864 5.4960899
-4.4006701 65.1688 5.4916601
-3.75106 66.402298 5.8910799
-3.80457 65.989502 5.6837702
-3.08148 65.207802 5.9092002
-3.22612 65.734497 5.8930898
-3.32025 66.267998 6.0061102
-2.16821 64.893402 6.0131698
-2.36239 64.754402 5.94136
-2.61339 64.717796 5.9542699
-2.06691 65.046799 6.23491
-2.0371399 65.195198 6.5234799
-1.39574 69.913597 6.9931402
-3.14535 70.553001 6.4692502
-3.2413199 70.329498 6.7697001
-3.31218 70.263 6.8927102
-3.3375001 70.339897 6.8330698
-3.30983 70.512604 6.6456699
-5.01548 70.1614 7.4697299
-5.1048198 69.861504 7.7790799
-5.1764302 69.723503 7.9232402
-5.2249398 69.723602 7.9261098
-5.25524 69.8144 7.8625598
-6.85074 69.667999 8.0450096
-6.8445201 69.962898 7.98137
-6.7392902 68.375397 6.4064298
-6.4432998 64.8321 6.9797201
-3.78266 69.899101 4.5227599
-4.6289401 65.246696 5.5488
-2.4033 69.651497 4.5829201
-2.87026 64.863998 5.9575801
-0.6825 68.393402 10.1436
-0.82733297 68.330803 10.5126
-0.87768698 68.215599 10.8481
-0.77340901 68.103401 10.4484
-0.82687598 67.962402 10.7988
-0.951294 68.239799 11.1688
-1.0694799 68.3545 11.4661
-0.90142202 67.989899 11.1385
-1.02455 68.126404 11.4589
-1.21777 68.319901 11.76
-1.2555 68.515099 11.7385
-1.51367 68.526703 12.0302
-1.54498 68.680801 11.9768
-1.93573 68.715897 12.2481
-1.9620301 68.8265 12.1662
-2.4596 68.8713 12.3558
-2.4712 68.959396 12.2624
-3.0483799 68.978897 12.2986
-3.0265801 69.080704 12.2195
-5.1258602 69.016998 10.4235
-4.9098501 69.139999 10.8296
-4.5426002 69.294601 11.2856
-4.0602498 69.367599 11.684
-3.5251 69.335999 11.9757
-2.99418 69.218102 12.1341
-2.4806499 69.080399 12.1685
-1.9960999 68.985497 12.1001
-1.59034 68.900299 11.9524
-1.30599 68.7789 11.7447
-1.1202 68.647102 11.4934
-0.99658197 68.551903 11.2144
-0.91040099 68.528099 10.916
-0.847691 68.602097 10.6145
-0.82786 68.736603 10.3703
-0.88778502 68.833603 10.2516
-0.998128 68.879097 10.1996
-1.1286401 68.912903 10.1603
-1.26828 68.944603 10.1231
-1.41234 68.972702 10.0877
-1.56239 68.985001 10.0522
-1.7195899 68.969597 10.0303
-1.89385 68.942001 10.0127
-2.0929999 68.9198 10.0042
-2.3138599 68.910202 10.001
-2.5471799 68.916397 9.9978304
-2.76933 68.934097 9.9892302
-2.9591 68.957298 9.9738903
-3.11941 68.983704 9.9653902
-3.2592101 69.002899 9.9841099
-3.40907 69.030403 10.0038
-3.5949199 69.073898 10.0086
-3.8097601 69.129898 9.9979496
-4.0357099 69.189697 9.9767504
-4.2445302 69.232597 9.9555597
-4.41853 69.237999 9.9452295
-4.5933599 69.196098 9.9532604
-4.7950702 69.108002 9.9977503
-4.98769 69.024101 10.0753
-5.1160402 68.989799 10.2018
-1.92983 66.609596 6.8525701
-2.00032 65.427803 6.9798899
-1.97385 66.551903 6.6059999
-2.0388801 65.319901 6.7884498
-2.0862899 64.283798 7.3309302
-1.70116 67.694298 6.8998299
-1.81733 67.267097 6.8815999
-1.6681499 67.795601 6.7112398
-1.83648 67.291 6.6429
-1.62919 67.736198 6.9650302
-1.57213 67.928703 6.7940602
-1.5646501 67.660301 6.9717698
-1.5131299 67.744102 6.8159499
-1.56701 67.230698 6.9847398
-1.47675 67.226601 6.8144202
-1.60539 66.588501 6.9751701
-1.49633 66.547096 6.80583
-1.73502 65.491699 7.0556898
-1.64674 65.397598 6.9092398
-1.8298301 64.365799 7.3882999
-5.2783499 67.093803 7.04951
-5.16678 67.043602 6.8923802
-5.3377199 66.379204 7.1602402
-5.2445598 66.329803 7.0008302
-5.4128499 65.349503 7.2807498
-5.3604002 65.185402 7.16991
-5.44313 64.251099 7.7284198
-5.6532202 67.0914 7.0791302
-5.63412 66.361504 7.2212901
-5.5773201 65.340302 7.3761802
-5.7216201 67.024902 6.9639001
-5.6830301 66.291 7.11482
-5.6059299 65.163399 7.3253598
-5.5068402 68.238098 6.9499302
-5.5889101 67.789902 6.9992499
-5.5023398 68.286102 6.8421102
-5.6371398 67.741402 6.8824401
-5.4208798 68.309601 6.93753
-5.3941002 68.4655 6.8099599
-5.3346901 68.2435 6.9033799
-5.2979598 68.303497 6.7642698
-5.2919302 67.791603 6.96241
-5.2027001 67.756897 6.8037
-3.7156601 67.505203 6.1946602
-3.7009101 66.790298 6.3468499
-3.6918099 65.628601 6.6217699
-3.76493 67.482498 5.9848199
-3.73946 66.675003 6.1413298
-3.71891 65.481598 6.4910402
-3.5303099 68.663597 6.0110898
-3.6322401 68.206001 6.0868902
-3.5123601 68.745598 5.8246799
-3.6638999 68.198898 5.8765001
-3.4496801 68.712502 6.0460601
-3.4059899 68.899803 5.84623
-3.3773401 68.628502 6.0487499
-3.3312299 68.704498 5.8666101
-3.37694 68.164497 6.1399398
-3.29212 68.139099 5.9503002
-3.4003 67.465797 6.2538099
-3.2999899 67.422401 6.0700798
-3.4544301 66.759598 6.39395
-3.3790801 66.600098 6.2175598
-3.6299 65.607498 6.7118702
-3.58599 66.780098 6.4397101
-3.5664999 67.493797 6.2942801
-3.5114999 68.200897 6.1765299
-5.4467602 67.815804 7.0218601
-5.4730601 67.111397 7.1097598
-5.4927101 66.3862 7.2358899
-5.49722 65.353897 7.36833
-1.7795399 66.599503 6.9870701
-1.7021101 67.256798 7.0008302
-1.87604 65.487 7.0816498
-3.77705 64.487 7.2261901
-3.7264199 64.4804 7.34899
-5.57026 64.229797 7.87216
-5.50876 64.241997 7.8525701
15.1 23.1984 52.573299
16.1415 25.280399 51.915901
15.891 26.330601 54.731098
16.313499 26.7043 52.942799
16.7209 27.202101 51.270302
