# .PCD v.7 - Point Cloud Data file format
VERSION .7
FIELDS x y z
SIZE 4 4 4
TYPE F F F
COUNT 1 1 1
WIDTH 1664
HEIGHT 1
VIEWPOINT 0 0 0 1 0 0 0
POINTS 1664
DATA ascii
-3.0834701 -64.172203 54.989799
-2.97879 -64.2948 55.358101
-3.2503901 -63.752899 55.2304
-3.1463599 -63.827702 55.5462
-3.3234601 -63.793499 55.245098
-3.25335 -64.288803 55.024399
-3.0973301 -65.000298 54.825001
-2.9092 -65.849602 54.6744
-2.7077301 -66.726303 54.566502
-2.4981 -67.552696 54.478699
-2.2669101 -68.415901 54.354301
-2.00334 -69.400002 54.1432
-1.7266001 -70.412804 53.859402
-1.45864 -71.3339 53.534
-1.20261 -72.106598 53.201302
-0.94978499 -72.711304 52.896999
-0.663077 -73.212196 52.659698
-0.31207499 -73.676804 52.520302
0.0779 -74.097198 52.4799
0.479826 -74.458603 52.521599
0.91513199 -74.791801 52.586201
1.39692 -75.128998 52.617802
1.85669 -75.4618 52.6147
2.2180099 -75.767799 52.5896
2.45506 -76.008904 52.5527
-2.6775801 -65.124802 55.4118
-2.88726 -64.376297 55.6404
-3.06725 -63.870499 55.794899
-2.1883199 -66.848396 55.0434
-2.42451 -65.980301 55.2131
-1.84894 -68.558701 54.676899
-2.0186501 -67.6791 54.875099
-1.3429101 -70.553802 54.162201
-1.61057 -69.558403 54.429401
-0.878815 -72.101799 53.691299
-1.09905 -71.403801 53.911598
-0.44874501 -73.182198 53.361198
-0.66796601 -72.678299 53.508099
0.121373 -74.1026 53.1525
-0.198504 -73.656502 53.246399
1.10813 -74.888496 53.010101
0.54944998 -74.513298 53.070801
1.7979 -75.2024 52.986698
-3.25155 -63.683201 55.6133
2.5662999 -76.164497 52.516201
-5.0569401 -54.402199 57.226799
-5.3681402 -55.084 57.464401
-5.3385601 -53.494598 57.718601
-5.6005998 -54.242802 57.934898
-5.8158398 -55.084499 58.110901
-5.6957998 -53.1647 58.252201
-5.8807998 -53.880699 58.4142
-6.0662599 -52.973301 58.866699
-6.18086 -53.635899 58.966499
-6.37499 -52.848701 59.448101
-6.4468999 -53.4338 59.536301
-6.5144501 -52.764099 59.763199
-6.61443 -53.301102 59.995201
-6.7059002 -52.660801 60.327599
-6.8044801 -53.169998 60.640202
-7.4270701 -53.705002 62.707802
-7.6998 -53.768398 63.6106
-7.9939098 -53.9104 64.551697
-7.2167602 -53.0326 62.187199
-7.4682698 -53.062698 63.0938
-7.73594 -53.191601 64.036697
-7.0458999 -52.433498 61.6898
-7.2452302 -52.427502 62.520901
-7.4618602 -52.449799 63.4104
-8.3005695 -54.148899 65.554497
-8.0054102 -53.346401 65.033798
-7.69555 -52.476101 64.358498
-7.7410202 -57.759998 62.792301
-7.7090902 -57.1049 62.563999
-7.3648 -58.4123 61.616299
-7.31464 -57.728901 61.3438
-6.9416599 -59.1591 60.6012
-6.8607001 -52.534401 60.927898
-6.99369 -53.0784 61.3536
-7.17799 -53.7127 61.8232
-7.4384098 -54.489601 62.3769
-7.6939902 -55.357498 62.968399
-7.6731901 -54.487202 63.2817
-7.88661 -55.270401 63.8699
-8.3048 -59.368301 66.102097
-8.5434999 -59.657001 67.059502
-8.6607599 -60.0247 68.044502
-8.57339 -60.4217 69.066803
-8.36448 -60.792702 70.074203
-5.75703 -61.963902 58.933998
-6.61305 -59.752201 59.934299
-6.33886 -60.325199 59.504501
-5.2059999 -56.693802 57.018398
-4.8859 -56.251598 56.775902
-5.09021 -58.494701 56.736599
-8.1340303 -56.6703 65.045097
-7.9355102 -56.800598 63.771801
-8.0713396 -57.434601 64.884201
-7.9409499 -57.471298 63.904701
-8.0234699 -58.124199 64.727402
-7.9065599 -58.1492 63.901901
-8.4756002 -55.4328 65.944199
-8.2213898 -55.298199 65.186996
-8.4142103 -56.137699 65.932503
-8.1816902 -55.935001 65.159698
-8.3260403 -56.864201 65.826202
-8.0107098 -55.919498 64.374001
-8.0405703 -55.282902 64.565002
-7.9035702 -59.981201 64.837799
-8.0931196 -59.1017 65.188499
-8.1983004 -58.289299 65.502502
-7.9045401 -58.971298 64.261002
-8.2638502 -57.570202 65.7071
-6.5528798 -62.169102 61.252399
-6.7298698 -61.7841 61.6609
-6.9094901 -61.495499 62.203098
-5.4444799 -64.526497 59.828098
-5.8091302 -63.744099 60.217999
-6.10882 -63.076099 60.573601
-5.0099802 -65.345299 59.412601
-7.6048598 -56.358799 62.2756
-7.8582101 -56.0905 63.4366
-7.2056398 -56.883999 61.078098
-6.35673 -63.057499 61.372601
-6.3034601 -62.205399 60.425098
-6.3523402 -62.578602 60.909698
-6.15416 -61.4757 59.5924
-6.2355199 -61.845798 59.991402
-6.0596299 -61.094501 59.1968
-9.4171495 -55.784 68.686203
-9.1697102 -55.3811 67.842499
-8.7990198 -55.005402 66.835602
-7.9015398 -54.554298 64.1026
-8.1543102 -54.6563 64.927498
-8.4546099 -54.786598 65.835899
-1.60422 -67.597504 71.551903
-1.23139 -68.1689 70.852303
-1.60342 -68.544998 70.386497
-1.91892 -68.9263 69.905197
-2.1408 -69.243896 69.4953
-4.4074302 -66.042198 72.870598
-5.6035199 -64.3657 74.179199
-6.1348 -55.3111 76.177399
-6.45614 -55.9814 76.360901
-4.6837602 -54.055901 76.2145
-3.8608401 -54.0532 76.525597
-2.97998 -53.857101 76.675499
-2.1013501 -53.543499 76.7286
-5.3910599 -54.268902 75.961403
-5.7806902 -54.769901 76.034401
-9.5932302 -56.209702 71.218201
-9.6082201 -55.764099 71.385498
-9.5251999 -55.350101 71.554497
-9.3281698 -54.859501 71.6465
-9.0488901 -54.172798 71.649101
-5.4554801 -69.030502 66.7174
-5.6009002 -68.832298 66.485497
-5.6961799 -68.655098 66.240601
-5.29809 -69.070297 66.533699
-5.4500799 -68.8992 66.314499
-5.5550399 -68.739403 66.090599
-5.62639 -68.618896 65.900002
-5.7579002 -68.522797 66.0177
-5.6745701 -68.5364 65.746696
-5.7960501 -68.434799 65.827599
-5.70681 -68.4832 65.624496
-5.81778 -68.381798 65.6735
-5.7207899 -68.450401 65.5242
-5.82511 -68.350098 65.547897
-5.7144499 -68.43 65.437202
-5.8194098 -68.326302 65.440903
-5.6963401 -68.416603 65.362701
-5.8053298 -68.305603 65.346603
-5.6728501 -68.408699 65.300903
-5.7846498 -68.288002 65.259697
-5.6309299 -68.414101 65.2453
-5.7444601 -68.283501 65.174004
-5.5576401 -68.440697 65.1894
-5.6724901 -68.301399 65.085899
-5.4607201 -68.485901 65.134201
-5.5728798 -68.341301 64.997299
-5.29002 -68.484398 64.817299
-5.2003298 -68.617599 65.004997
-5.4496598 -68.401001 64.909897
-5.3470802 -68.544899 65.077698
-5.0049901 -68.702599 64.909203
-5.0819001 -68.593102 64.718803
-4.77283 -68.792397 64.832802
-4.8334899 -68.7127 64.645897
-4.2698698 -68.929703 64.673599
-4.2665801 -68.9505 64.860497
-4.5581899 -68.827698 64.630501
-4.5216398 -68.8787 64.818001
-3.70351 -69.102203 64.905296
-3.78075 -69.056099 65.065697
-3.9816501 -69.016602 64.7677
-4.01933 -69.003799 64.945503
-3.21139 -69.298203 65.260803
-3.3382299 -69.2024 65.366402
-3.4442999 -69.199402 65.076302
-3.5509801 -69.125 65.2127
-2.8580501 -69.516098 65.385803
-2.6821699 -69.603302 65.580902
-3.0105901 -69.385902 65.4394
-2.84289 -69.458504 65.604202
-3.1506701 -69.275597 65.508698
-2.9886301 -69.338501 65.640297
-2.9612 -69.5569 66.526901
-3.0443101 -69.424896 66.433296
-2.7571101 -69.559502 66.3302
-2.85851 -69.421997 66.2659
-2.63591 -69.563103 66.161903
-2.75805 -69.423798 66.126198
-3.5510199 -69.5467 66.947701
-3.6175699 -69.433601 66.810097
-3.24037 -69.554802 66.743698
-3.3176 -69.432297 66.628998
-5.0387502 -69.3526 67.040604
-5.25383 -69.2173 66.902702
-4.8978901 -69.318802 66.835297
-5.0975399 -69.219101 66.7089
-4.58043 -69.363197 66.9702
-4.64995 -69.432503 67.198196
-4.7401299 -69.355904 66.918404
-4.8478899 -69.411598 67.137299
-4.1304402 -69.396896 66.992897
-4.1357698 -69.494102 67.1978
-4.37075 -69.3759 66.999702
-4.4085598 -69.4599 67.223801
-3.88504 -69.419502 66.932404
-3.8504801 -69.5252 67.104103
-5.5887499 -68.611198 65.729797
-5.6220498 -68.556297 65.629097
-5.63731 -68.520798 65.544502
-5.6311002 -68.500603 65.470398
-5.6123199 -68.4907 65.409599
-5.58814 -68.488503 65.364799
-5.5465202 -68.498901 65.329201
-5.4756198 -68.528198 65.295898
-5.3835301 -68.5737 65.263
-5.2768102 -68.632103 65.226402
-5.1368999 -68.6996 65.168404
-4.9471502 -68.773003 65.081497
-4.72333 -68.847298 65.009102
-4.4879298 -68.916801 64.995499
-4.2574 -68.969101 65.0345
-4.0423598 -68.998001 65.110001
-3.8364899 -69.0243 65.2173
-3.6328101 -69.069702 65.349503
-3.43922 -69.128998 65.481102
-3.27653 -69.186699 65.582703
-3.1062901 -69.248596 65.6884
-2.8405199 -69.309402 66.103104
-2.9178901 -69.304802 66.214203
-3.0894301 -69.311699 66.360497
-3.37289 -69.331001 66.555099
-3.6800301 -69.347504 66.736198
-3.92452 -69.347801 66.840401
-4.1344199 -69.3377 66.8778
-4.3490701 -69.328201 66.874001
-4.53933 -69.325401 66.8451
-4.6785898 -69.326401 66.799698
-4.8183098 -69.301804 66.724503
-5.0071802 -69.224098 66.6036
-5.2045798 -69.099602 66.434196
-5.3594298 -68.947601 66.225601
-5.46839 -68.801399 66.019501
-5.54076 -68.689903 65.855499
1.58951 -79.078102 55.185902
-2.43647 -69.720901 66.041801
-2.46295 -69.707497 65.897598
-2.2702501 -69.885803 66.063301
-2.29828 -69.8759 65.908302
-2.1075399 -70.042999 66.079102
-2.14078 -70.038696 65.913399
-2.7079401 -69.655403 65.343201
-2.5687101 -69.792603 65.301399
-2.5226099 -69.761299 65.565002
-2.3734701 -69.917 65.546501
-2.54813 -69.6679 65.748901
-2.7102699 -69.514702 65.752701
-2.6233499 -69.550102 65.888603
-2.85374 -69.387604 65.765999
-2.76138 -69.417397 65.886703
-2.9653101 -69.2929 65.791199
-2.8631499 -69.317596 65.8964
-2.72756 -69.426003 66.003601
-2.8226099 -69.318604 66
-2.59463 -69.563202 66.019699
-1.06699 -71.405602 64.666801
-1.26878 -71.043098 65.112396
-1.4677 -70.821899 65.363197
-1.62782 -70.654701 65.507896
-1.75327 -70.515404 65.596603
-2.2308099 -69.997803 65.744301
-2.3847799 -69.834702 65.748802
-6.98526 -61.878601 63.005798
-6.92801 -62.266399 63.225201
-6.8965602 -62.617001 63.541801
-7.1228099 -61.876099 63.381199
-7.0483599 -62.171101 63.466
-7.0105801 -62.407398 63.679798
-7.2602301 -61.917999 63.604099
-7.3645802 -61.9725 63.728298
-7.2454901 -61.5467 63.451
-7.3669 -61.6945 63.7215
-7.4411898 -61.8326 63.821899
-7.39748 -61.2122 63.7384
-7.44699 -61.565102 63.958099
-7.4945402 -61.753201 63.981701
-7.1897001 -62.1287 63.627998
-7.1522398 -62.287899 63.771702
-7.3131199 -62.111099 63.745098
-7.28195 -62.214401 63.8349
-6.9979 -62.556198 63.994999
-7.0286102 -62.564301 64.3395
-7.1364698 -62.372398 64.002701
-7.1558399 -62.3503 64.252998
-7.2695599 -62.262402 63.995399
-7.2762699 -62.248501 64.169502
-7.32582 -62.144001 64.286499
-7.2267799 -62.196098 64.445503
-7.12958 -62.366501 64.646004
-7.3962898 -61.988701 64.312302
-7.3348598 -61.939098 64.502296
-7.33147 -61.8727 64.909698
-7.4477901 -61.3834 64.405502
-7.4277201 -61.681301 64.280197
-7.4651098 -61.837399 64.173401
-7.4144101 -62.014702 63.8437
-7.4115 -62.067299 63.989201
-7.4713001 -61.916698 63.986801
-7.3563099 -62.153099 63.902901
-7.3561101 -62.165699 64.087402
-7.42416 -62.0257 64.1511
-7.1930599 -62.544399 65.261597
-7.4390202 -61.8666 65.520599
-7.0390501 -62.8325 64.858398
-6.9289098 -62.973701 64.422096
-7.2456698 -60.9673 62.908501
-7.53092 -60.597301 63.701
-7.08532 -61.452801 62.872398
-6.79493 -63.301399 63.927502
-6.89358 -62.860401 63.964001
-7.6507902 -61.112598 65.2575
-7.6487198 -60.7663 64.574699
-4.96381 -61.493198 56.145901
-4.8264599 -61.615299 56.144699
-4.6176 -61.8955 56.117298
-5.0612001 -61.425499 56.332699
-4.9703999 -61.521702 56.415501
-4.9042401 -61.687199 56.548401
-5.1412401 -61.257301 56.4842
-5.0847998 -61.2729 56.6171
-5.0731101 -61.296902 56.816898
-5.0945201 -60.951199 56.339401
-5.1479802 -61.065498 56.4613
-5.0275102 -60.7897 56.4202
-5.0991802 -60.984501 56.596401
-5.0358701 -60.313099 56.613499
-5.11935 -60.829399 56.825901
-4.62251 -61.0849 56.014198
-4.8031998 -61.158298 56.039799
-4.9386802 -61.192501 56.070999
-4.7813301 -60.681198 56.2239
-4.9026899 -60.905499 56.1945
-5.01367 -61.022202 56.187
-4.5585299 -61.489101 55.9646
-4.7729201 -61.436699 56.015598
-4.9268799 -61.382198 56.058498
-5.0578899 -61.362999 56.1898
-5.1442599 -61.242199 56.3475
-5.1128702 -61.2299 56.2383
-5.12398 -61.0924 56.289799
-5.0402598 -61.213799 56.1408
-5.3631601 -59.936298 57.170799
-5.2007999 -59.475498 56.820702
-5.3099899 -60.638901 57.230701
-5.1666098 -61.372501 57.1138
-4.8892999 -59.681301 56.4711
-4.6229801 -60.3307 56.201599
-4.3923602 -60.956699 55.9711
-4.2300901 -61.911201 55.786201
-4.4463301 -62.3064 55.959999
-4.2558899 -61.482201 55.834
-4.7220998 -62.399101 56.381302
-4.9538298 -61.991901 56.783501
-4.17028 -66.005302 57.834599
-4.49612 -65.045197 57.838902
-3.6991899 -67.677399 57.601601
-3.9180601 -66.847397 57.7388
-2.01332 -73.207497 56.838902
-2.3432801 -71.695396 57.301498
1.78123 -65.526398 53.173901
1.67342 -65.647598 53.2323
1.4276 -65.872002 53.236
1.63818 -65.311798 53.218102
1.49955 -65.347504 53.291199
1.21061 -65.407898 53.339001
1.74733 -65.050301 53.2598
1.62625 -64.994102 53.366501
1.35956 -64.884399 53.479301
1.82324 -65.270798 53.158298
0.800286 -62.802601 54.196301
0.85666102 -63.917999 53.8312
0.72287297 -64.786499 53.5564
0.66564602 -65.513496 53.347698
0.803047 -66.181999 53.170399
-2.2197001 -69.624702 68.917801
-2.0529499 -69.524696 69.004402
-2.36813 -69.4216 69.305901
-2.5940299 -69.507896 69.2453
-2.7841499 -69.6213 69.0606
-2.43924 -69.663902 68.971901
-2.60431 -69.7332 68.862
-3.11853 -69.775497 68.429497
-3.3530099 -69.787903 68.120003
-2.68854 -69.853401 68.152199
-2.98264 -69.8507 67.802299
-2.3826201 -69.943497 67.538101
-2.63551 -69.914398 67.368103
-2.1147101 -70.036797 67.028099
-2.33515 -69.985397 66.936096
-1.697 -69.755402 68.161102
-1.98202 -69.8237 68.152802
-1.5396301 -69.878403 67.654503
-1.78973 -69.931 67.617401
-2.0424299 -69.722298 68.558098
-1.85337 -69.649902 68.600899
-4.4553599 -69.480103 68.490303
-4.4608102 -69.339996 68.866798
-4.8312602 -69.344498 68.438904
-4.8566899 -69.176201 68.830002
-4.0013099 -69.321404 69.218498
-4.4401798 -69.1474 69.260803
-4.8692198 -68.951599 69.232201
-5.1630802 -69.207199 68.3311
-5.2123399 -69.0028 68.732803
-5.4844599 -69.038902 68.197502
-5.56041 -68.803001 68.603897
-5.24856 -68.7379 69.130203
-5.6085901 -68.508499 68.988701
-5.8292198 -68.800499 68.066803
-5.9337201 -68.547501 68.466797
-6.1654301 -68.4589 67.903297
-6.2877698 -68.1847 68.289803
-5.9790702 -68.249298 68.836601
-6.3168201 -67.878197 68.642799
-6.4500499 -68.007896 67.668701
-6.5710702 -67.6894 68.037399
-6.6606498 -67.542198 67.372498
-6.78198 -67.166801 67.713203
-6.5771599 -67.341698 68.372101
-6.7821999 -66.765999 68.027397
-6.78578 -67.1605 67.039902
-6.9281301 -66.7323 67.336502
-6.8365598 -66.8797 66.706497
-7.0051498 -66.409103 66.951897
-6.9571199 -66.292801 67.627296
-7.07268 -65.943901 67.210602
-6.8281798 -66.694298 66.401604
-7.00806 -66.194298 66.598297
-6.76893 -66.589302 66.119202
-6.9418302 -66.072197 66.269402
-7.0967202 -65.709 66.8125
-7.0397601 -65.568703 66.430298
-6.6686101 -66.547302 65.845901
-6.8189402 -66.023903 65.949501
-6.5489502 -66.553902 65.573097
-6.67203 -66.0355 65.633202
-6.9240198 -65.5047 66.055
-6.7757101 -65.5121 65.689301
-6.4295001 -66.597198 65.297096
-6.5311399 -66.095299 65.318901
-6.3077002 -66.676697 65.025703
-6.3957601 -66.199898 65.014198
-6.6198201 -65.588097 65.337997
-6.4723601 -65.722099 65.003197
-6.17623 -66.7939 64.769501
-6.2572999 -66.348602 64.727402
-6.0295401 -66.948097 64.532204
-6.1055298 -66.538803 64.461197
-6.33917 -65.903099 64.687599
-6.1937299 -66.123299 64.395103
-5.8626599 -67.141296 64.316498
-5.9317899 -66.7714 64.218399
-5.67136 -67.385696 64.127899
-5.73488 -67.055702 64.005402
-6.0099902 -66.381104 64.129402
-5.79636 -66.693298 63.8936
-5.4478898 -67.689499 63.974602
-5.5098901 -67.398697 63.832699
-5.1693602 -68.032501 63.875
-5.2294502 -67.792397 63.721401
-5.56072 -67.077698 63.696201
-5.2745199 -67.533798 63.5676
-4.8155999 -68.385597 63.847301
-4.86836 -68.216599 63.692299
-4.39223 -68.7118 63.900501
-4.4318299 -68.622101 63.7481
-4.9075899 -68.043503 63.535198
-4.4594498 -68.538803 63.591702
-3.91997 -68.985199 64.040901
-3.9403901 -68.967499 63.889999
-3.45439 -69.234703 64.273201
-3.44491 -69.275398 64.130501
-3.9461 -68.959602 63.729401
-3.41942 -69.326202 63.972401
-3.04884 -69.489998 64.589302
-2.99736 -69.5718 64.469597
-2.7130599 -69.7285 64.934196
-2.6229899 -69.8367 64.844101
-2.93543 -69.667198 64.331497
-2.5311301 -69.959801 64.735603
-2.4452901 -69.920097 65.250099
-2.3346801 -70.0438 65.186302
-2.24054 -70.057701 65.516197
-2.12255 -70.187698 65.472603
-2.2291999 -70.175697 65.105499
-2.01419 -70.316399 65.414299
-2.0932701 -70.142502 65.727997
-1.9719501 -70.2715 65.6987
-1.99854 -70.180901 65.907204
-1.87234 -70.303596 65.889503
-1.86283 -70.391899 65.656799
-1.75902 -70.412399 65.860497
-1.95679 -70.179199 66.084602
-1.81963 -70.292702 66.079498
-1.98891 -70.139702 66.296501
-1.8317699 -70.238098 66.310699
-1.69411 -70.386497 66.064102
-1.68215 -70.312401 66.313202
-2.11552 -70.067398 66.576302
-1.92849 -70.1436 66.621597
-1.74041 -70.193604 66.648399
-1.87586 -70.062897 67.0784
-3.2513599 -69.6026 68.958298
-3.6021299 -69.471802 69.111801
-2.9539199 -69.715302 68.773003
-2.7123101 -69.793999 68.605103
-2.2811201 -69.871803 68.062599
-2.07849 -69.953903 67.583298
-2.2083199 -69.809502 68.3797
-2.32845 -69.805099 68.482803
-2.36882 -69.834396 68.326897
-2.40851 -69.817101 68.455704
-2.54934 -69.833603 68.389198
-2.49387 -69.817902 68.481796
-2.2021699 -69.761597 68.556602
-2.2913899 -69.726097 68.729301
-2.32458 -69.782402 68.559799
-2.3691299 -69.766403 68.636902
-2.4191699 -69.7761 68.655899
-2.4131701 -69.745102 68.781303
-2.4924099 -69.800003 68.633598
-2.5213699 -69.784897 68.7202
-2.5841 -69.815399 68.567703
-2.51828 -69.813301 68.557404
-2.38974 -69.8004 68.536003
-2.4405301 -69.806099 68.556801
-2.4484301 -69.813103 68.512199
-2.41559 -69.7892 68.598602
-2.4760599 -69.804703 68.579803
13.7072 -22.439501 45.2076
13.4372 -21.538601 45.465
13.2898 -20.801001 46.309601
13.6041 -22.409901 45.909302
13.4195 -21.5935 46.8423
13.4628 -22.469 47.069302
11.9632 -32.386902 45.154202
12.6565 -31.1448 45.0177
13.2788 -29.9224 44.883999
11.9849 -32.017899 46.229301
12.7253 -30.690201 46.0611
13.2905 -29.3727 46.0312
12.0569 -31.491899 47.253101
12.8202 -29.9398 47.234501
13.2775 -28.423 47.1245
12.9977 -25.8249 50.206699
13.1795 -27.2152 48.479
13.2634 -25.4849 48.4884
13.4725 -26.817499 47.0257
13.4928 -25.097 46.9617
13.6596 -28.1476 46.0289
14.0669 -27.8899 44.932999
13.8075 -26.690201 45.980099
14.2212 -26.6194 45.016602
13.8067 -25.0704 45.943199
14.2008 -25.1085 45.037201
8.3851204 -27.920601 61.125801
9.0393696 -28.404301 60.116699
9.5950499 -29.0007 59.068401
8.6227198 -26.850901 60.928699
9.3571396 -27.337 59.826
9.98137 -27.893499 58.672501
8.8297901 -25.758801 60.768299
9.6333599 -26.192499 59.603901
10.3205 -26.718399 58.352501
1.92123 -33.6507 32.066601
2.3472099 -31.9133 31.3109
3.2734699 -31.2027 30.83
1.95468 -35.2076 33.633999
2.33324 -33.8806 33.085201
2.8459899 -33.1003 32.709702
2.0425701 -36.243599 35.120201
2.40693 -35.4594 34.827999
2.69504 -34.753502 34.589001
1.98356 -30.048 29.389999
2.9493501 -27.930099 28.8043
4.19978 -27.0634 28.551399
1.93485 -31.8876 30.5979
2.63502 -29.9174 29.814699
3.73736 -29.1663 29.3745
4.9184198 -23.206301 28.736799
3.5295 -24.2099 28.4004
2.2164199 -26.146 28.235201
5.1211801 -21.868 29.094101
3.7064099 -22.6439 28.6861
2.38446 -24.028099 28.2771
5.3000202 -20.6544 29.357201
3.8318601 -21.1348 29.031
2.53196 -21.9841 28.534901
6.99648 -27.7729 62.802299
7.6757698 -27.869801 61.994202
7.1331201 -26.629 62.708302
7.8516002 -26.4505 61.9319
7.2595801 -25.431801 62.6306
8.0083599 -25.4034 61.802799
9.0843096 -16.3216 61.380199
8.2499905 -16.0119 62.3125
7.5448699 -15.761 63.051601
9.0598297 -16.9338 61.285599
8.2269697 -16.594999 62.234299
7.5240998 -16.3297 62.9813
9.04249 -17.5583 61.2001
8.2091198 -17.197201 62.162498
7.5065699 -16.925301 62.914501
10.1172 -33.4967 48.878799
10.568 -32.4645 49.6604
10.9832 -31.253901 50.518002
9.7766705 -34.070099 49.160599
10.2428 -33.1017 49.993301
10.6824 -31.9475 50.898499
9.5544395 -34.591801 49.489399
10.0259 -33.686199 50.374298
10.4489 -32.606499 51.317001
11.1469 -30.091801 53.568901
10.8598 -31.3563 52.415001
11.4034 -29.306499 53.123299
11.1089 -30.630501 51.967899
11.6624 -28.591299 52.726398
11.4062 -29.9168 51.563
6.1845298 -36.7271 42.4505
6.5915399 -36.8927 44.080601
7.1679401 -36.8377 45.471901
5.1517901 -36.9799 42.2589
5.75107 -37.106899 43.870899
6.51089 -37.069099 45.313099
4.4990101 -37.116001 41.539001
5.1272302 -37.3223 43.313599
5.9290099 -37.341099 44.9744
3.9833801 -36.781502 40.073601
3.72594 -36.111698 38.129398
4.8041301 -36.603001 40.375301
4.6048002 -36.0839 38.486
5.8876801 -36.4832 40.716099
4.6366501 -35.448101 36.6675
3.7820201 -35.198101 36.254002
11.211 -28.9844 54.6744
11.0705 -28.1029 55.872601
10.7956 -31.007999 54.059399
10.8317 -30.0373 55.241798
10.6952 -29.212799 56.387299
10.4184 -31.8832 54.644001
10.4238 -31.025499 55.8661
10.2838 -30.2682 56.965
13.1547 -22.4084 50.636799
13.3236 -22.5504 48.682899
13.1725 -21.4063 50.780102
13.2901 -21.5555 48.694199
13.1791 -20.5632 50.936001
13.2445 -20.7195 48.674599
12.4958 -19.6609 54.890499
12.5052 -18.8687 55.091499
12.5158 -18.061899 55.322601
11.8248 -19.116199 56.769501
11.8303 -18.368299 56.936298
11.8387 -17.6147 57.1264
10.9542 -18.565901 58.501099
10.9632 -17.867001 58.633499
10.9798 -17.1665 58.778999
9.9872503 -18.030899 59.974701
10.0028 -17.373501 60.0802
10.026 -16.7204 60.1978
10.158 -33.296398 51.781601
10.5399 -32.157101 52.897202
9.8659697 -33.8908 52.238701
10.2176 -32.875801 53.394299
8.9107103 -35.5168 50.192902
8.2446299 -36.164299 49.061298
7.4955101 -36.7066 47.814098
9.2570496 -35.094299 49.8573
8.6428299 -35.7873 48.843201
7.95047 -36.361401 47.749199
8.9868803 -35.341702 48.571602
8.3720798 -35.969898 47.602798
9.7442398 -34.2729 50.801498
9.4388905 -34.770199 51.213001
6.72229 -37.118301 46.4627
7.24295 -36.805698 46.587799
7.7583299 -36.484901 46.5877
10.7893 -27.3503 57.0951
10.4271 -28.507099 57.5215
10.0074 -29.609501 58.0173
8.6315498 -35.967602 45.4701
8.3975401 -36.1572 44.233601
9.4847002 -35.344299 45.418701
9.3385696 -35.608799 44.260601
10.366 -34.5509 45.350899
10.2695 -34.879501 44.249599
9.2086201 -34.996399 47.335499
8.8769102 -35.604599 46.5322
9.8833399 -34.376701 47.246601
9.6551704 -34.9585 46.453499
10.6177 -33.6381 47.174999
10.4836 -34.130299 46.357498
9.6500502 -34.3144 48.115601
10.197 -33.685101 47.916698
10.9373 -32.785099 47.865398
10.6089 -32.849701 48.589901
11.1677 -32.247898 48.2771
8.7723398 -35.5191 47.457298
9.28407 -34.856602 48.326401
7.8599801 -36.474499 45.509701
8.3017197 -36.089401 46.559898
7.2616301 -36.523701 42.673302
7.4749599 -36.560299 44.1605
7.0777102 -36.410599 41.063
12.2225 -29.7251 49.697701
12.1129 -30.8374 48.250401
12.8238 -27.753599 50.024399
12.8976 -28.883699 48.498501
12.3229 -23.067801 54.487202
11.6981 -22.142 56.449501
10.8864 -21.314699 58.235001
12.1537 -23.978001 54.607899
11.5887 -23.033199 56.442501
10.8426 -22.196699 58.159599
11.9363 -24.838301 54.814899
11.4443 -23.9303 56.480801
10.7762 -23.123199 58.1007
9.9431105 -20.647499 59.749199
9.0128899 -20.1394 60.9977
9.9374304 -21.525 59.657501
9.0212002 -21.0098 60.916698
9.9211903 -22.466101 59.566799
9.0249796 -21.9503 60.830101
8.1817102 -19.784201 61.983601
7.47328 -19.5487 62.7388
8.1853399 -20.6399 61.930199
7.46626 -20.396999 62.705101
8.18466 -21.565901 61.871498
7.4528999 -21.3113 62.667801
12.3905 -27.1241 51.922798
12.3398 -28.5228 50.733601
12.6856 -26.5343 51.2981
11.3686 -32.146 47.994202
11.3339 -32.682999 47.193699
11.1975 -33.550301 45.265202
11.2907 -33.101799 46.286201
12.0259 -27.8547 52.350601
11.8632 -29.128099 51.1754
11.5942 -30.4606 50.164299
11.6799 -31.158199 48.984402
11.1236 -31.7547 49.322201
13.84 -22.3983 43.968201
13.2925 -21.369499 43.966
12.9459 -20.5457 44.091
14.6221 -25.1422 43.949299
14.6574 -26.499001 43.917099
14.4268 -27.8421 43.877602
13.3331 -30.256399 43.8839
12.6458 -31.5487 44.0186
11.9138 -32.818901 44.1325
11.1272 -33.944302 44.2085
2.0767701 -28.145 28.593901
3.26771 -25.996401 28.373199
4.6307101 -24.9881 28.431601
2.60444 -20.302601 28.779499
2.57653 -18.871201 28.9671
4.01688 -18.222099 29.455601
5.3452902 -17.813101 29.915001
3.9784601 -19.591299 29.2726
5.3473701 -19.131599 29.6688
6.5528102 -20.3554 29.125999
6.5943599 -19.033001 29.5613
6.6585302 -17.649099 30.0725
2.4981401 -17.8297 29.117201
2.5150599 -16.9648 29.226601
3.96877 -17.2411 29.6164
3.8862901 -16.507099 29.740499
5.3707099 -16.837299 30.1292
5.34199 -16.0741 30.2962
2.7946999 -35.9995 36.252201
2.9587801 -36.7873 37.750198
14.3265 -23.699499 43.960701
13.9991 -23.657 45.101501
13.4782 -23.661501 47.041
13.71 -23.6127 45.995201
13.3098 -23.851601 48.5844
13.0912 -23.805799 50.443298
13.8075 -28.713301 44.9165
13.9565 -29.052099 43.862999
11.0121 -16.509899 58.915298
11.8605 -16.8988 57.311699
12.5327 -17.2789 55.556
11.0572 -15.8997 59.039101
11.8942 -16.2274 57.483501
12.559 -16.537901 55.778702
13.2116 -19.695801 51.163399
13.3048 -19.878599 48.876598
13.3086 -19.927299 46.5424
13.2617 -18.783001 51.453201
13.4253 -19.0077 49.1688
13.4594 -19.122299 46.8181
13.3146 -17.8507 51.777699
13.554 -18.083099 49.508999
13.6518 -18.2598 47.141499
13.3697 -16.973801 52.098
13.6692 -17.1735 49.858101
13.8536 -17.3806 47.494801
13.0077 -19.819201 44.2756
12.6165 -19.6423 42.0751
13.3294 -19.131399 44.559799
13.036 -19.0159 42.3395
13.6752 -18.384899 44.880001
13.5109 -18.372101 42.638901
13.9179 -17.5716 45.193699
13.9032 -17.6646 42.943901
12.306 -19.7164 39.826099
12.1627 -19.868799 37.630901
12.7896 -19.078699 40.0686
12.6356 -19.3731 37.878601
13.3357 -18.4499 40.359901
13.1978 -18.810499 38.128101
13.7757 -17.7309 40.671902
13.65 -18.073099 38.413601
12.0782 -20.097401 35.488499
11.8344 -20.612301 33.508499
12.5666 -19.6015 35.757301
12.2331 -19.987499 33.791
13.1266 -19.1035 36.049301
12.6961 -19.3937 34.105
13.5353 -18.413099 36.394699
13.0741 -18.611601 34.485802
11.4409 -21.1749 31.707399
10.8996 -21.305599 30.2096
11.6431 -20.396299 31.947399
10.8992 -20.4445 30.4314
11.895 -19.5972 32.263
10.9319 -19.6164 30.6812
12.0918 -18.660601 32.6493
10.8496 -18.6737 31.069099
10.1713 -20.180599 29.2981
10.0298 -19.524 29.5749
9.5894604 -18.3428 30.264
13.9951 -16.559401 47.821899
14.0554 -16.7435 45.4977
14.1126 -16.8536 43.251499
14.0937 -15.7671 48.139198
14.1678 -15.8987 45.828201
14.1396 -15.943 43.554001
14.1714 -14.9557 48.4734
14.2516 -15.0286 46.178799
14.2055 -15.0077 43.907101
14.2387 -14.1046 48.836601
14.3225 -14.1195 46.559399
14.268 -14.044 44.293499
14.0371 -16.8605 41.0047
13.8991 -17.111 38.7784
14.1511 -15.9092 41.334499
14.0254 -16.038 39.1968
14.0989 -14.909 41.6534
13.9869 -14.916 39.604401
14.1291 -13.8895 42.034901
13.9386 -13.6938 39.986801
13.7311 -17.450701 36.845798
13.2983 -17.5439 34.995098
13.8251 -16.246599 37.314899
13.4089 -16.347799 35.6064
13.7829 -15.0181 37.805801
13.2817 -15.1011 36.216
13.6751 -13.5013 38.322601
13.18 -13.291 36.893398
12.2978 -17.449699 33.238701
10.9759 -17.285299 31.783199
12.4247 -16.133301 33.911598
10.9281 -15.8464 32.537399
12.2991 -14.814 34.609402
10.8499 -14.5003 33.310501
12.2896 -13.0492 35.518799
10.9071 -12.9244 34.204498
9.2992496 -16.967199 30.9597
7.9264898 -16.353201 30.8978
9.2708502 -15.5152 31.7474
7.83711 -15.2742 31.3939
9.2806396 -14.1975 32.569
7.8902502 -14.3919 31.728201
9.3192902 -13.1196 33.0336
7.9137702 -13.5577 32.033199
6.6055298 -14.092 31.190599
6.6212401 -14.8674 31.007099
6.6133199 -15.671 30.7925
5.2297502 -14.625 30.4779
5.2941399 -15.349 30.402901
3.7973101 -15.8235 29.8183
2.53392 -16.1905 29.3179
3.6993401 -15.1457 29.8724
2.55671 -15.4433 29.403
13.4323 -16.2038 52.375999
13.7639 -16.3463 50.182201
13.5024 -15.4885 52.630501
13.8449 -15.5742 50.490398
13.5791 -14.7973 52.871799
13.918 -14.8101 50.804401
13.656 -14.0899 53.124699
13.9895 -14.0729 51.095699
12.6478 -15.1855 56.170502
13.1331 -15.369 54.486401
12.7086 -14.534 56.345402
13.2028 -14.6923 54.697601
12.7751 -13.868 56.5196
13.271 -14.0038 54.908199
3.9398999 -37.326099 41.2034
4.1055398 -37.259998 41.3974
3.12782 -36.6437 37.711102
3.54215 -37.042198 39.436699
3.26301 -36.4468 37.698601
3.6881101 -36.862499 39.723999
3.4042799 -36.2873 37.931301
2.98982 -35.662498 36.169701
3.0340199 -34.306599 34.389702
3.1429501 -35.449299 36.097099
3.3875 -34.047501 34.211601
3.39605 -35.242199 36.0965
3.6940701 -34.002998 34.164299
3.48227 -32.517399 32.275799
4.0624299 -30.5648 30.327
3.8638799 -32.506001 32.1161
4.4201999 -30.9979 30.2082
4.2203598 -32.891998 32.080399
4.7343898 -31.7132 30.0959
4.5745201 -28.663401 28.979099
5.0499101 -26.6401 28.3202
4.9145899 -29.1064 28.7845
5.4211502 -26.874201 28.084299
5.1373 -29.8971 28.615801
5.5893502 -27.586901 27.8339
5.5394802 -24.393101 28.361601
5.7842598 -22.620701 28.818501
5.9586201 -24.3293 28.1451
6.3290801 -22.1975 28.67
6.1404099 -24.9196 27.811701
6.6008201 -22.1203 28.432699
6.0533099 -21.550301 29.0399
6.5720801 -16.5469 30.506701
11.3871 -12.191 59.794201
10.3694 -12.0377 61.067299
9.3157902 -11.8546 62.1521
8.3771696 -11.6664 63.021301
7.6106601 -11.3864 63.756302
12.5973 -15.8457 55.983002
11.9381 -15.5962 57.639599
11.9904 -14.9833 57.784901
11.1094 -15.3235 59.153
11.1653 -14.755 59.263199
9.2378502 -14.2317 61.704601
9.2038603 -14.7406 61.621601
9.1636295 -15.2396 61.5438
10.2118 -14.4944 60.5835
10.1632 -15.0272 60.491001
10.1126 -15.5581 60.400398
11.3412 -12.9047 59.6348
12.1153 -13.7264 58.058899
11.2816 -13.5551 59.498798
12.0502 -14.3656 57.921299
11.2224 -14.1687 59.376801
10.3383 -12.7126 60.923199
9.3021603 -12.4971 62.022499
10.298 -13.3394 60.796501
9.2844296 -13.107 61.9044
10.2562 -13.933 60.684299
9.2638702 -13.687 61.798401
8.3722496 -12.2893 62.903702
7.6072502 -12.0765 63.606899
8.3681698 -12.8878 62.794701
7.60783 -12.6867 63.497002
8.3639097 -13.4596 62.694401
7.6116099 -13.2546 63.404202
8.3551798 -13.9958 62.604698
7.6131701 -13.7866 63.320599
11.4875 -26.43 55.259998
11.3094 -27.2015 55.514
11.6811 -27.402901 53.9296
11.4642 -28.1343 54.2589
11.701 -25.653099 55.034401
11.2839 -24.785 56.566101
10.6889 -24.018 58.091099
11.1358 -25.5977 56.684502
10.5985 -24.8766 58.120399
11.002 -26.406601 56.834999
10.5046 -25.7349 58.185501
9.88657 -23.389299 59.511501
9.0148602 -22.8888 60.760799
9.8406296 -24.288099 59.490299
8.9899397 -23.8176 60.716301
9.7785196 -25.191099 59.5047
8.9425898 -24.754801 60.707001
8.1740103 -22.505699 61.814098
7.4313698 -22.264601 62.629398
8.1492996 -23.4494 61.770199
7.3976898 -23.270201 62.603199
8.1025801 -24.404499 61.7565
7.3453398 -24.315901 62.591999
11.9618 -26.6672 53.6189
12.2671 -25.9107 53.2719
12.7507 -24.239401 52.4468
12.5363 -25.1401 52.846802
12.8754 -23.0138 52.486698
12.9293 -21.8752 52.644001
12.4211 -22.120199 54.511398
12.4648 -21.215599 54.6189
12.4837 -20.4184 54.739498
11.814 -19.825399 56.650398
10.9422 -19.2223 58.4081
11.7949 -20.538401 56.564602
10.9277 -19.8664 58.345299
11.7622 -21.3071 56.494801
10.9117 -20.5469 58.2939
9.9712801 -18.651899 59.9021
9.0264702 -18.1604 61.139801
9.9570904 -19.2617 59.8531
9.0143003 -18.7617 61.096401
9.9482098 -19.906 59.810001
9.0097399 -19.402201 61.054401
8.1934605 -17.7925 62.1091
7.4912 -17.525101 62.860298
8.1826401 -18.3983 62.0676
7.4804702 -18.143299 62.815701
8.1794901 -19.0469 62.028099
7.47611 -18.8055 62.775501
12.942 -20.953199 52.804798
12.9438 -20.132799 52.983002
12.953 -19.3076 53.210201
12.9693 -18.4617 53.4697
13.0263 -16.814899 54.008301
13.0735 -16.068501 54.258099
12.9911 -17.620501 53.739399
7.5694299 -15.2401 63.117401
8.2804899 -15.4763 62.385502
9.1210499 -15.7595 61.465401
7.5921502 -14.7533 63.181099
8.3121901 -14.9773 62.454601
7.6071 -14.2784 63.247299
8.3378897 -14.4936 62.526001
10.0644 -16.116301 60.304401
4.1344399 -34.254799 34.320099
4.7427101 -33.5336 32.186798
5.3329301 -32.8153 29.909401
4.9573598 -34.841599 34.773201
5.4817801 -34.427502 32.752399
6.0109701 -34.192501 30.935699
5.9777999 -35.4431 35.378601
6.3681402 -35.1819 33.370201
6.74545 -35.028599 31.579901
8.5376396 -35.604401 32.430801
9.4748802 -35.6623 32.588299
10.3892 -35.635899 32.606701
8.3889999 -35.724998 34.3409
9.4230499 -35.6488 34.529301
10.4062 -35.4809 34.5718
8.1837702 -35.886398 36.410301
9.2793198 -35.664902 36.6064
10.3061 -35.333 36.667801
7.8988099 -36.0891 26.4279
8.3757601 -36.164902 26.440901
8.8291798 -36.177799 26.441799
7.66255 -35.750099 27.396
8.1063499 -35.737099 27.3848
8.5590601 -35.648499 27.3501
7.0639901 -35.8251 35.9963
5.7631102 -35.825401 37.2411
6.93325 -36.067699 37.8022
8.0693903 -36.034199 38.1828
5.7557502 -36.1903 38.9687
6.9568601 -36.255402 39.4188
8.0668097 -36.126202 39.742599
15.2199 -26.026899 38.1371
14.8729 -26.8484 36.080399
14.2922 -28.077999 33.864201
14.9535 -24.236401 38.1702
14.6507 -25.053101 35.7794
14.1867 -25.946699 33.638302
14.1957 -22.802 38.231701
13.9854 -23.352699 35.702801
13.5972 -24.2068 33.421398
10.216 -35.091599 42.998299
10.2141 -35.1991 41.553799
10.2087 -35.253101 40.015499
11.076 -34.251202 43.019699
11.0934 -34.4641 41.606701
11.1072 -34.6506 40.076698
11.8719 -33.206799 42.9991
11.8782 -33.539398 41.622101
11.8965 -33.8843 40.102402
7.9952102 -26.5453 23.7913
8.0361605 -28.008699 22.3423
7.3475199 -27.4368 24.290701
7.4193501 -28.874599 22.814899
6.76373 -28.631599 24.7293
6.8654799 -30.003 23.260799
9.1730404 -35.770699 39.9333
10.2328 -35.273602 38.453201
9.18855 -35.7202 38.375301
13.837 -30.8116 35.636398
13.873 -30.723301 37.837799
13.7553 -30.644199 39.6143
13.5351 -31.948099 36.1064
13.5235 -31.570299 38.074902
13.5569 -31.0387 39.711899
13.2474 -32.9328 36.3577
13.1826 -32.470901 38.285099
13.1441 -31.953899 39.905701
14.1931 -29.489 34.945999
14.3374 -29.8269 37.433899
14.7311 -28.481001 36.7248
14.7776 -28.997601 39.1394
15.1313 -27.6506 38.573399
13.1172 -25.111601 31.440901
12.6373 -26.1276 29.6917
12.6333 -22.853399 33.299099
12.2993 -23.6315 31.421101
11.9411 -24.5404 29.6828
11.8795 -21.565901 33.302299
11.5969 -22.2967 31.512899
11.1267 -22.8678 29.665899
12.6096 -31.4485 22.4307
12.3516 -30.1786 22.213301
11.8615 -29.029699 22.116699
12.8174 -29.8074 24.138399
12.6195 -28.677299 23.969801
12.2274 -27.587601 23.791901
13.0857 -21.8214 37.931801
12.9186 -22.1168 35.554298
12.1895 -20.5546 37.583801
12.0937 -20.8682 35.380402
10.9132 -34.918098 26.806
11.2988 -36.1194 26.117201
11.3998 -34.507702 26.496799
11.8015 -35.8494 25.7085
11.8209 -33.948898 26.096399
12.1401 -35.3922 25.1497
9.6235504 -35.582401 27.304199
9.8222103 -36.415501 26.475599
10.2849 -35.306301 27.103001
10.5665 -36.3382 26.354799
9.2693396 -36.310299 26.476
9.05089 -35.647099 27.3542
12.5785 -20.3459 41.980598
13.152 -21.222099 42.1539
13.9852 -22.3314 42.4053
12.2942 -20.451799 39.7911
13.2228 -21.841299 40.162201
14.2321 -22.7187 40.513699
15.0164 -25.0543 42.439499
15.0464 -26.5951 42.350201
14.7202 -28.0949 42.444801
15.3073 -25.441999 40.405899
15.2299 -27.125999 40.490898
14.8577 -28.5186 40.886799
12.7524 -33.841 36.567299
12.6538 -33.406502 38.453098
12.6004 -32.912498 40.0592
12.0596 -34.573299 36.6828
11.9569 -34.233799 38.5168
6.3292298 -30.292999 25.0098
6.4852099 -31.3957 24.094601
6.1712699 -31.9487 25.766199
6.3884802 -32.713402 25.001699
13.2186 -33.2351 31.2691
13.5296 -31.9904 31.925501
13.6242 -30.986601 32.334999
13.2964 -33.249199 34.028999
13.4975 -32.184399 33.958599
13.7022 -31.031 34.113899
12.1462 -34.897598 34.494701
12.1422 -34.928799 32.2332
12.8259 -34.205101 34.300098
12.8354 -34.148499 31.8804
6.76227 -34.732101 27.014
6.9644599 -35.010502 26.1054
7.2092199 -35.4646 27.294901
7.41923 -35.723801 26.3353
13.7996 -28.406601 31.7456
13.4721 -28.582001 30.014601
13.6242 -26.796301 31.618799
13.2123 -27.305201 29.867599
6.3656101 -33.5093 26.495701
6.5748601 -33.9767 25.6952
13.4087 -30.548401 42.726101
13.2059 -31.3151 41.408001
13.5826 -30.621799 41.320202
13.8928 -29.694401 33.054298
7.3425899 -35.597599 33.937099
7.6037598 -35.4394 32.087399
11.0268 -25.6415 23.4104
10.6782 -26.8589 21.82
10.2098 -25.209499 23.107201
9.9911604 -26.447701 21.5994
9.3712397 -25.2889 23.0109
9.2884998 -26.622999 21.5716
8.6499395 -25.7906 23.295601
8.64534 -27.227301 21.8543
11.705 -26.488501 23.6294
11.3015 -27.8197 21.9776
9.2100296 -35.784599 41.472301
9.2569599 -35.747002 42.949001
8.1448202 -36.195 41.320599
8.2583399 -36.2202 42.847198
12.6407 -31.958099 42.888901
12.5979 -32.431999 41.553501
11.1522 -34.8186 38.502701
11.2368 -35.021198 36.700199
11.3085 -35.394299 32.461399
11.3244 -35.2812 34.567402
12.4507 -33.785801 23.525
12.5574 -32.381302 24.9566
12.4425 -34.263802 23.9426
12.5465 -32.882999 22.9918
12.756 -31.1451 24.276199
12.2155 -33.231602 25.585899
12.3455 -34.8624 24.503201
6.9106202 -22.176701 28.0341
7.4941401 -19.994101 28.7199
8.0306501 -18.378099 29.5341
13.5569 -30.9224 30.983101
13.418 -31.9928 30.477301
13.4181 -30.972799 30.089701
13.7025 -29.731701 31.4503
13.4806 -29.824301 30.0583
14.9616 -23.9461 40.561001
14.647 -23.690901 42.5201
14.1496 -29.2934 42.6483
14.3579 -29.7437 39.380501
14.2811 -29.5683 41.1618
13.1857 -31.256201 28.8794
13.0879 -32.366199 29.148399
12.8875 -33.314201 29.6399
12.9065 -31.557501 27.523001
12.6793 -32.544201 27.819099
12.3592 -33.373901 28.275999
12.6664 -31.799101 26.0839
12.3363 -32.665798 26.578199
11.9177 -33.465199 27.0844
12.4758 -34.102299 30.0833
11.8481 -34.790501 30.48
11.9382 -34.0424 28.712999
11.3798 -34.6241 29.109301
11.4753 -34.080799 27.512899
10.9696 -34.571899 27.877701
11.087 -35.256001 30.767401
10.2466 -35.519901 30.9541
10.7048 -35.082699 29.4293
9.9632702 -35.394001 29.6486
10.3542 -35.0228 28.211901
9.6874104 -35.362301 28.4464
9.3723602 -35.653599 31.057899
8.5057402 -35.6646 31.0166
9.2051601 -35.556099 29.756599
8.46066 -35.6129 29.7591
9.0417004 -35.508801 28.5282
8.4408302 -35.562 28.5296
7.7042499 -35.5028 30.7551
6.9703002 -35.125198 30.3423
7.7364898 -35.6465 29.7171
7.0894198 -35.451401 29.509501
7.88308 -35.641998 28.5361
7.3523002 -35.614399 28.4904
6.3541498 -34.357201 29.763901
5.90308 -33.063301 28.962999
6.5656099 -34.8167 29.0392
6.1524801 -33.711201 28.3468
6.8354502 -35.295399 28.312799
6.3543301 -34.5368 27.938101
5.3638401 -30.7435 28.3325
5.7149601 -28.3633 27.496599
5.7130599 -31.2444 27.8724
5.79773 -29.088301 27.0012
5.90769 -32.077499 27.4189
5.9289699 -30.073799 26.552999
5.9675899 -33.240299 27.2785
5.9547 -31.271999 26.2869
6.2838402 -25.6651 27.406601
6.2137599 -26.649799 26.8645
6.8116202 -24.233801 27.162901
6.3141999 -27.7516 26.306101
6.90414 -25.549101 26.4021
6.34548 -28.984301 25.766701
6.9279499 -26.874599 25.681801
7.4418402 -22.488199 27.5737
8.1135597 -21.467899 27.843201
7.52178 -24.006399 26.5375
8.1362896 -23.1628 26.5002
7.5077901 -25.577999 25.503099
8.0495501 -24.981701 25.113199
9.0057001 -19.178801 28.9296
9.7136803 -19.9986 28.6912
8.7976599 -21.436899 27.6682
9.4789801 -22.020201 27.483299
8.7472801 -22.9732 26.1863
9.3774595 -23.404301 25.9991
8.5690699 -24.838699 24.703501
9.2660599 -24.7145 24.508301
10.3328 -21.500999 28.8064
10.1925 -23.000601 27.672899
10.9581 -24.1586 28.032499
10.0715 -24.2477 26.199699
10.926 -24.9524 26.6129
10.1727 -24.689899 24.7068
11.0674 -25.1089 25.070601
11.7196 -25.496401 28.1577
12.5049 -26.444599 28.258499
11.782 -25.6917 26.8736
12.4688 -26.6747 26.9622
11.8285 -25.8876 25.3368
12.409 -26.9193 25.531099
13.0244 -27.5816 28.373501
13.2696 -28.8197 28.519199
12.9217 -27.816799 27.0532
13.1232 -29.056499 27.174299
12.7989 -28.052401 25.736799
12.9659 -29.283001 25.876499
13.279 -30.063601 28.6833
13.0879 -30.3314 27.3312
12.8985 -30.584999 25.9727
9.1510601 -28.2957 20.425301
9.6784296 -28.0914 20.338699
10.2243 -28.4072 20.4706
9.1472998 -29.847099 19.321301
9.7877398 -29.8832 19.203199
9.1733303 -31.847099 18.1402
6.8920598 -35.979698 24.9583
6.5434299 -35.189098 24.537399
6.4194999 -34.221298 23.8778
6.5584002 -37.778 23.6199
6.34308 -37.030899 23.172701
6.3408999 -36.184502 22.694099
6.2080498 -39.769402 22.292801
6.0643301 -39.070999 21.896099
6.1723199 -38.211601 21.462099
5.9442902 -39.888599 20.1483
5.7732 -41.371601 18.9699
5.83149 -40.748501 20.552
5.7133398 -42.176102 19.398701
5.9753199 -41.449001 20.9576
5.8805799 -42.816299 19.8335
7.78127 -34.139999 19.1688
8.3950005 -32.885502 18.448299
7.4376001 -36.097099 18.039
7.9841299 -34.987202 17.253799
8.6270704 -34.376301 16.768499
7.0208201 -38.0313 16.738701
7.4916301 -37.1227 15.9946
8.0850496 -36.595501 15.524
6.23175 -45.620098 17.8267
5.9977598 -44.148899 18.872999
5.8696599 -44.945202 17.35
5.7607098 -43.532001 18.3997
5.82265 -44.348598 16.797001
5.76757 -42.834702 17.9016
10.8202 -29.431601 20.4825
11.4477 -30.735399 20.485701
10.3522 -31.104401 19.0411
10.9825 -32.565102 19.0285
9.8315201 -32.940701 17.756599
10.5276 -34.273602 17.757601
9.8294001 -35.617199 16.525999
9.2515202 -37.236698 15.3746
9.2592201 -34.811798 16.5359
8.7182598 -36.735001 15.3689
9.73244 -37.694901 15.551
10.0372 -38.1134 15.6808
8.8178797 -39.0145 14.3059
9.2706203 -39.372601 14.4907
9.7221298 -39.864899 14.7342
8.3933296 -40.974499 13.1776
8.8846502 -41.310799 13.4021
9.3896904 -41.700901 13.6249
7.8915801 -37.097599 25.35
8.4500103 -37.294201 25.4023
8.95366 -37.422199 25.4317
7.1786799 -40.606998 22.7626
6.60216 -40.2915 22.6021
6.9214201 -42.219799 21.4307
6.35917 -41.941898 21.24
6.7358799 -43.570999 20.292801
6.1463599 -43.198299 20.027201
7.9737902 -30.0749 21.0672
7.3572001 -31.1507 21.6521
6.8256001 -32.258598 22.442801
8.5818796 -29.0665 20.6415
8.5399599 -30.9328 19.5289
7.9218202 -32.1586 20.1157
12.3389 -33.432301 21.098
12.0124 -32.078899 20.677601
6.9755001 -38.399899 23.9678
7.5359702 -38.8251 24.2162
7.35607 -36.646099 25.217899
11.6432 -36.8508 18.5361
11.2145 -35.617699 18.053499
12.0021 -35.244499 19.7929
11.6151 -33.918201 19.3267
10.3155 -36.264999 16.6796
10.8943 -37.224499 16.983999
11.3183 -38.2612 17.3969
10.5875 -38.801601 16.023199
11.0154 -39.630501 16.3351
11.5984 -37.980598 24.997499
12.1557 -37.726002 24.5383
12.4475 -37.245399 23.901501
9.9229803 -37.901402 25.495899
10.7528 -38.0312 25.3405
9.3760405 -37.654099 25.4855
8.3919697 -40.815899 22.9242
8.7782202 -40.944801 22.989
9.2435598 -41.153301 23.069799
8.7056904 -39.1474 24.393
9.1112499 -39.356998 24.4953
9.6254301 -39.618 24.537901
10.0153 -41.401001 23.135799
10.8649 -41.477402 22.924299
10.4614 -39.833199 24.378401
11.3587 -39.841599 23.969801
11.9981 -39.535198 23.3622
11.5006 -41.211102 22.320801
12.3134 -39.037498 22.669399
11.8524 -40.719501 21.5695
6.90025 -36.236698 20.66
6.8853698 -34.351799 21.704599
7.29985 -35.2883 20.0235
7.3411598 -33.394501 20.944
6.5204401 -33.201 23.1724
8.1566401 -39.022999 24.362101
7.8291001 -40.742802 22.858
6.4906101 -37.236801 21.092899
6.5397701 -35.268002 22.243401
7.9089298 -43.8937 20.4144
7.3564901 -43.779598 20.3692
7.72966 -45.3825 19.1894
7.1408901 -45.071999 19.201
6.48247 -44.650799 19.129499
7.5457501 -46.785301 17.9765
6.9218502 -46.2929 17.9895
8.6483898 -44.053101 20.392599
8.2557602 -43.974899 20.4067
8.4967403 -45.578701 19.1007
8.1147099 -45.529499 19.1495
8.3572998 -47.0373 17.867701
7.97611 -46.994202 17.931999
10.2876 -40.4361 15.0093
10.7057 -41.097599 15.2719
9.9470196 -42.165199 13.8764
10.3371 -42.709 14.1455
10.0306 -44.137798 20.2934
9.3186302 -44.130699 20.3978
9.6665297 -45.5429 18.936399
9.0729103 -45.5863 19.0578
9.3217697 -46.9491 17.6472
8.8400402 -47.017502 17.791599
6.41046 -41.835098 13.996
6.29634 -42.459202 14.7983
6.2083902 -43.119499 15.6204
6.6802702 -39.939098 15.3471
6.48701 -40.6427 16.1227
6.3073401 -41.383701 16.879
6.73137 -38.834 17.476999
6.4493899 -39.6772 18.144199
8.8985701 -42.598701 21.6882
8.4765501 -42.4617 21.6546
8.1208 -42.385799 21.6278
9.95397 -46.4147 16.914101
10.3517 -45.021 18.123199
10.805 -43.5961 19.325701
9.6783504 -46.797001 17.3685
10.0732 -45.400299 18.6401
10.5109 -43.987301 19.942801
6.0770001 -40.527699 18.599899
6.0124898 -42.112301 17.4401
6.00106 -43.743801 16.2631
7.56704 -42.338699 21.554399
11.3221 -42.188702 20.4258
10.9857 -42.6441 21.166901
10.4163 -42.8442 21.629
6.7035098 -37.9883 19.437401
6.2873802 -38.947498 19.8298
7.0560398 -37.060699 18.8183
7.6153898 -38.8008 14.3025
8.2421799 -38.757301 14.2069
7.2161002 -40.986698 13.1213
7.8139701 -40.845798 13.0485
7.0577998 -39.294701 14.7225
6.72158 -41.335899 13.4333
9.6245403 -42.778702 21.7432
12.239 -35.583401 22.039499
12.2719 -35.981602 22.3799
12.3845 -36.375702 22.6991
11.9461 -40.1064 20.700701
11.4773 -41.557301 19.5583
11.0064 -42.945801 18.501101
11.8617 -39.549 19.992599
11.4766 -40.944401 18.8013
11.0832 -42.270599 17.724199
11.0652 -40.492901 16.615101
10.9743 -41.246399 16.899099
10.7416 -41.847 15.5366
10.6424 -42.5312 15.8237
10.3755 -43.3255 14.4279
10.2898 -43.911999 14.7464
10.7129 -43.590599 16.686199
10.5879 -44.330002 17.401501
10.3429 -44.9599 15.6431
10.2018 -45.715302 16.2871
11.7066 -37.844002 18.923901
11.6368 -38.634899 19.269501
11.3811 -39.1936 17.7201
11.304 -39.973598 18.030001
12.4891 -36.726601 23.2542
12.1882 -38.030899 21.339001
12.3273 -38.5224 22.023399
12.3325 -34.680099 21.6691
11.9647 -37.1703 20.6397
12.0413 -36.348499 20.2701
11.0178 -41.768902 17.221001
10.6748 -43.047001 16.1754
10.3195 -44.401699 15.1343
11.3665 -40.486 18.3349
11.7105 -39.131599 19.567301
12.0273 -37.646198 20.940201
5.77912 -50.544201 13.2385
5.4651098 -51.420399 12.3819
5.5328302 -51.554298 12.514
6.6572599 -51.275299 13.876
6.4687099 -52.345402 13.128
6.6228399 -52.370201 13.1441
5.5655599 -49.746799 12.4147
5.3049002 -50.6991 11.5294
5.33992 -50.929501 11.787
8.7000599 -51.0639 13.1284
8.4128199 -52.1936 12.4592
8.5303097 -52.034599 12.2138
6.2771802 -47.133701 9.23176
6.0990801 -48.091801 8.3337803
5.9651599 -47.327099 9.5502396
5.7790799 -48.3424 8.7212
5.75599 -47.6945 10.0455
5.5683098 -48.745701 9.2568998
7.18226 -47.209301 9.0622797
7.6908398 -47.459999 9.21385
8.1527205 -47.794498 9.4780703
7.07686 -48.141998 8.1090298
7.5868702 -48.402199 8.2738199
8.0200901 -48.770599 8.5874205
6.30129 -52.2262 13.042
8.1767597 -51.4389 13.7221
7.7990098 -51.4697 13.854
7.42068 -51.445301 13.9326
7.8408699 -52.472698 12.9532
7.5481501 -52.469398 13.0551
7.2200499 -52.428101 13.1418
8.03512 -52.438499 12.8328
6.0568199 -44.849899 14.3513
5.8880301 -46.422298 13.1914
5.9258399 -45.4049 15.0035
5.8176298 -46.934299 13.8085
5.81639 -45.916401 15.5482
5.76968 -47.379501 14.323
5.7335401 -47.757702 12.2158
5.52738 -48.915501 11.383
5.71626 -48.204102 12.8195
5.5493398 -49.3657 11.9434
5.7098098 -48.626801 13.2835
9.26297 -48.892502 14.853
9.0186796 -49.206001 15.2703
8.7065802 -49.342899 15.5196
8.9601297 -50.003201 13.9514
8.7332897 -50.266899 14.3658
8.4289398 -50.413101 14.586
8.4620895 -51.331001 13.4742
9.0016699 -48.2131 16.5166
9.3297901 -48.063999 16.2519
9.5924397 -47.709599 15.8238
8.5808601 -48.275799 16.671
8.14851 -48.2878 16.7619
8.3113298 -49.3876 15.6725
7.8990698 -49.3783 15.7642
8.0542202 -50.4231 14.7499
7.6558399 -50.397099 14.8379
7.09691 -49.137798 15.7555
7.5219798 -49.3214 15.8071
7.3287501 -48.030399 16.823999
7.7687898 -48.240101 16.8207
7.05795 -51.397999 13.9462
6.8669801 -50.204899 14.7532
7.2816501 -50.337101 14.8631
6.1799302 -46.973301 16.517799
6.08426 -48.293301 15.238
6.7390099 -47.576401 16.734501
6.5629702 -48.7654 15.5627
5.9681201 -49.4534 14.144
6.3913498 -49.836601 14.5312
6.19349 -50.935398 13.5838
5.8306899 -47.826099 14.8086
5.7708101 -49.0061 13.7478
5.6331 -50.130501 12.8259
5.8745699 -46.436298 16.0679
5.9281602 -45.807201 12.4279
6.0231199 -45.2299 11.6945
5.7867098 -47.118401 11.5177
5.8944502 -46.553299 10.8255
5.6227198 -48.276299 10.6846
6.1040001 -44.223301 13.5387
6.1922498 -43.633701 12.7588
8.3540802 -46.685799 10.2998
7.8722501 -46.358898 10.0524
7.3629498 -46.107101 9.8986797
8.6414299 -45.316101 11.2177
8.1444597 -44.974602 10.9719
7.6314101 -44.716 10.8046
7.98559 -42.951 11.9543
8.5015097 -43.215599 12.1387
9.0105104 -43.584301 12.3788
9.52351 -43.992901 12.6473
9.8790598 -44.442299 12.9433
9.0977001 -45.682899 11.5002
9.41576 -46.068199 11.823
8.7574997 -47.032101 10.592
9.0382299 -47.387402 10.9274
8.5086298 -48.156601 9.8052797
8.7515697 -48.522099 10.1689
6.6444998 -44.637699 10.8795
6.44946 -46.0103 10.0311
6.2662001 -44.838799 11.1769
6.1158099 -46.187 10.33
6.8979702 -42.9412 11.9326
6.4635701 -43.199501 12.2181
7.4313698 -42.8568 11.8651
7.1164198 -44.599098 10.7642
6.8759398 -45.9865 9.88908
6.6946101 -47.096298 9.0679197
9.4602804 -48.3591 14.236
9.1423397 -49.505699 13.3586
8.8606796 -50.629902 12.5293
9.5732203 -47.769901 13.5796
9.2435102 -48.992401 12.6907
