# .PCD v.7 - Point Cloud Data file format
VERSION .7
FIELDS x y z
SIZE 4 4 4
TYPE F F F
COUNT 1 1 1
WIDTH 1600
HEIGHT 1
VIEWPOINT 0 0 0 1 0 0 0
POINTS 1600
DATA ascii
7.6652498 -43.6381 75.594597
7.4677801 -43.830898 74.499397
7.0938001 -42.649502 81.147903
7.70191 -43.472698 76.589104
2.10957 -45.494499 68.102501
1.11584 -45.585701 67.865601
2.4879601 -41.397499 86.562202
1.5364701 -41.262901 86.788399
4.5538998 -45.099701 69.213799
0.48156601 -42.579201 87.346603
-0.36974299 -42.429199 87.187897
-1.16912 -42.376301 87.018097
0.45075399 -43.2052 87.5196
-0.38132501 -43.024502 87.364998
-1.16557 -42.969002 87.213097
0.446439 -43.793701 87.682899
-0.37674499 -43.5872 87.526604
-1.16018 -43.518002 87.375397
-1.16851 -41.665501 86.741699
-0.34955099 -41.708199 86.913696
0.52256203 -41.848999 87.088303
3.82988 -44.638199 86.912201
3.8166499 -43.985199 86.670601
3.82149 -43.220901 86.327103
3.0171599 -44.468399 87.308098
3.0506401 -43.8354 87.093498
3.1006601 -43.1073 86.820801
2.21363 -44.288898 87.564003
2.25562 -43.6614 87.376404
2.3206799 -42.9743 87.178398
5.6325102 -45.029202 85.505898
5.46983 -44.276199 85.232201
5.3449998 -43.512299 84.961197
4.7295399 -44.853001 86.355202
4.6382799 -44.110401 86.0355
4.57093 -43.3508 85.717697
6.10006 -43.710602 84.014297
6.7256999 -43.9305 82.838203
5.2537198 -42.7495 84.7108
6.0016799 -42.946201 83.800697
6.6532001 -43.1651 82.6604
6.9472299 -45.495701 83.195396
6.8237 -44.7131 83.015404
6.4024601 -45.248199 84.463097
6.2333498 -44.482399 84.2379
7.3643198 -44.362 80.046898
7.3833299 -43.601398 79.926399
7.1303 -44.152401 81.445602
7.10567 -43.388802 81.302902
7.3473701 -45.984699 80.269997
7.3492098 -45.167198 80.149597
7.2235198 -45.751202 81.719398
7.1679001 -44.947899 81.577301
7.62638 -43.966801 77.694801
7.5408201 -43.792198 78.724899
7.5889502 -44.704201 77.838097
7.5042901 -44.547901 78.848396
7.55581 -45.493198 77.964996
7.4703302 -45.352501 78.951897
7.5290198 -46.2962 78.107002
7.4456501 -46.169399 79.074097
7.67801 -44.141499 76.805397
7.6433101 -44.831402 76.976402
7.68156 -44.285999 75.902802
7.6756601 -44.9538 76.253304
7.6110501 -45.5863 77.132103
7.5836601 -46.369701 77.298798
7.6434102 -45.657398 76.483398
7.6138902 -46.426399 76.652702
7.1264901 -44.612598 73.479599
7.44314 -44.477798 74.528297
7.6441102 -44.344398 75.476601
7.0900698 -45.2826 73.558701
7.4134598 -45.1483 74.565399
7.6147699 -45.072102 75.430298
7.5752101 -45.805599 75.469002
7.5345402 -46.590099 75.563904
7.3710899 -45.898701 74.641502
7.3181601 -46.682999 74.732903
7.03934 -46.021801 73.662498
6.9763899 -46.785 73.773697
6.2259302 -45.0453 71.545097
6.7104602 -44.8139 72.467598
6.1637201 -45.689201 71.699501
6.65976 -45.472198 72.5849
6.6023502 -46.180901 72.719498
6.53795 -46.903 72.853897
6.1052899 -46.362301 71.8629
6.0454102 -47.0378 72.020203
5.0785398 -46.103901 70.258301
5.1319599 -45.494598 70.036697
5.6382098 -45.904301 70.918999
5.6992698 -45.277599 70.729103
5.01229 -47.5914 70.602402
5.0443501 -46.8162 70.444199
5.54252 -47.290699 71.251198
5.58675 -46.5485 71.109901
2.96627 -46.0546 68.661598
3.5202 -45.949001 68.875198
3.9853101 -45.837002 69.101097
2.9742601 -46.764301 68.879601
3.5127599 -46.659302 69.096298
3.9596801 -46.548401 69.320801
3.9450099 -47.291 69.5504
3.9360399 -48.061401 69.781303
3.5137401 -47.409199 69.330498
3.5192599 -48.204899 69.575401
2.9876001 -47.5201 69.111298
3.0020299 -48.331799 69.361298
2.19608 -48.476002 69.050903
1.18962 -48.577099 68.822998
2.1840701 -47.681301 68.794296
1.1856 -47.797798 68.560898
2.17149 -46.935299 68.557899
1.1811 -47.059502 68.318703
1.1767 -46.357498 68.0895
2.16137 -46.2299 68.334801
1.41502 -42.7747 87.345299
1.36067 -43.437801 87.526199
1.33522 -44.050098 87.696701
1.47996 -42.010799 87.078499
2.3963499 -42.167702 86.871803
7.6157799 -46.501202 76.143997
7.6491299 -45.724201 76.0103
7.6768999 -44.990898 75.929703
4.53511 -45.681099 69.487
4.4942002 -46.342098 69.710297
4.4707799 -47.091999 69.913696
4.44871 -47.854801 70.113197
-1.1475199 -44.728699 87.726601
-0.292133 -44.798302 87.870399
0.56252199 -44.999802 88.014198
-1.1540101 -44.0989 87.542999
-0.345103 -44.167999 87.690804
0.48701301 -44.372398 87.842003
0.650819 -45.710098 88.221397
-0.231465 -45.491299 88.081497
-1.1423 -45.4081 87.940102
3.96596 -46.6064 87.540802
3.9058199 -45.876701 87.314102
3.03319 -46.386398 87.924004
3.0158401 -45.678799 87.699501
2.26757 -46.191399 88.137604
2.2350399 -45.486 87.920502
2.2104199 -44.869499 87.7388
3.00703 -45.057098 87.504204
3.8601 -45.244598 87.117599
6.35392 -47.149399 86.092903
6.08073 -46.450699 85.9384
5.1701798 -46.827 86.901497
5.0057302 -46.133701 86.716797
5.8348498 -45.7668 85.763802
4.8565502 -45.491299 86.543297
7.59094 -47.8144 83.812698
7.3182001 -47.020401 83.583
7.1774902 -47.5256 85.136299
6.8729 -46.7435 84.900101
6.6101599 -45.999401 84.681503
7.1019702 -46.263 83.382599
7.4134998 -47.550701 80.636597
7.4355998 -47.302399 82.085197
7.4777699 -48.324299 80.8535
7.6084399 -48.0867 82.305603
7.3061299 -46.535999 81.891197
7.36832 -46.779499 80.4394
7.4897299 -47.863201 78.508301
7.4338999 -47.735901 79.455803
7.4716401 -48.684502 78.751404
7.43785 -48.5243 79.6838
7.43542 -46.959702 79.249199
7.5087399 -47.0769 78.292503
7.5599699 -47.1469 77.493301
7.5352898 -47.950802 77.711197
7.58705 -47.206501 76.834801
7.55901 -48.027901 77.034302
7.5304999 -48.908199 77.265198
7.5098801 -48.806499 77.958
7.40662 -49.088501 75.932198
7.1607599 -49.169201 75.031898
6.8239002 -49.423901 74.037399
7.4439101 -48.1982 75.768799
7.2006502 -48.253201 74.917801
6.8435898 -48.305199 73.983498
6.9079099 -47.529999 73.873398
7.2592802 -47.455399 74.817596
7.4900799 -47.376999 75.657204
5.9606199 -48.8344 72.187698
5.9939098 -47.832699 72.112
6.4294 -48.569302 73.027603
6.4710102 -47.612099 72.972603
6.4249001 -49.7687 73.124001
5.9744401 -50.194801 72.313599
5.45365 -49.069401 71.4786
5.4511199 -50.408501 71.634201
4.9222598 -49.300201 70.913498
4.9078202 -50.580799 71.112396
5.494 -48.102699 71.360298
4.9661198 -48.371899 70.753601
3.02774 -50.180401 69.955597
3.0157499 -49.2075 69.634598
3.53338 -50.025101 70.120499
3.52702 -49.0583 69.829201
3.91978 -49.806599 70.253601
3.9282 -48.869099 70.007202
3.04021 -51.290699 70.340401
3.53684 -51.178699 70.475098
3.9105301 -50.9818 70.554199
2.22753 -51.323898 70.0355
1.19841 -51.342899 69.800697
2.21574 -50.2589 69.657997
1.19534 -50.306801 69.432503
1.1928 -49.400902 69.109299
2.2064099 -49.324402 69.333397
1.416 -45.248699 88.030602
1.4853899 -45.9603 88.240303
1.35783 -44.6283 87.858299
7.5142899 -49.005199 76.630501
7.5472698 -48.116798 76.435303
7.5823898 -47.2878 76.281097
4.4190998 -48.633999 70.303802
4.3893499 -49.553501 70.505997
4.3729601 -50.7784 70.7537
3.2358799 -41.544201 86.184601
3.8623199 -41.694 85.706703
4.5117202 -41.844898 85.146103
3.82813 -42.445202 86.011803
4.5214701 -42.586201 85.4291
3.154 -42.310001 86.5019
-8.0328398 -48.559601 84.637001
-8.5645504 -49.108101 83.467598
-8.6135397 -49.547501 82.251503
-8.2159595 -49.5714 84.884903
-8.5411901 -50.178799 83.675797
-8.50914 -50.7859 82.549004
-7.9509501 -49.328999 85.357903
-5.5209198 -48.793598 87.8666
-5.7266698 -49.384499 88.1576
-5.08885 -48.629501 88.128403
-5.1669998 -49.314098 88.615196
-4.4665198 -48.4216 88.461098
-4.50038 -49.125801 88.989899
-3.7750599 -48.191101 88.703903
-3.79199 -48.9053 89.236
-3.0023201 -47.9366 88.8498
-3.0173099 -48.6427 89.388199
-2.12112 -47.673801 88.939201
-2.1467299 -48.3377 89.5037
-0.722233 -52.741402 70.3022
0.13674399 -52.672901 70.184097
-0.78640902 -54.208401 70.612602
0.123679 -54.1786 70.522903
-5.9695902 -47.771301 86.686096
-7.06426 -48.165901 85.734299
-6.52706 -48.911598 86.8927
-7.25664 -49.000999 86.062698
-6.0920401 -49.1385 87.598602
-5.65203 -48.445099 87.442497
-4.4443002 -47.187401 87.641502
-5.1185899 -47.463299 87.278603
-4.4513998 -47.807499 87.996101
-5.0812201 -48.057301 87.675697
-3.75389 -46.907398 87.901604
-3.7680299 -47.553902 88.244301
-2.97558 -46.596298 88.060097
-2.9954 -47.274601 88.395103
-2.0892 -46.292599 88.128899
-2.1068799 -46.996399 88.474403
-7.7115898 -49.864399 79.437897
-7.7880402 -50.905998 79.949097
-8.22472 -49.742001 80.8022
-8.1999397 -50.9748 81.283897
-7.4816098 -50.916 78.853104
-7.3647199 -50.007599 78.328697
-7.2635798 -50.9687 77.935204
-7.15556 -50.1548 77.4245
-7.0809798 -51.008099 77.106102
-6.9907699 -50.271301 76.635101
-6.91254 -51.041599 76.347298
-6.8361402 -50.363998 75.930099
-6.3889699 -50.6469 74.523903
-6.5556898 -51.393101 74.983398
-6.6624098 -50.458599 75.281502
-6.7402101 -51.191101 75.628403
-6.3290801 -51.562698 74.440498
-5.9082699 -50.8442 73.630898
-5.3654099 -51.065701 72.7976
-5.9408698 -51.762901 73.754799
-5.47822 -52.0135 73.044502
-4.7838101 -51.536999 72.062302
-4.1332998 -52.761501 71.408096
-5.0135999 -52.502102 72.433296
-4.6289101 -53.812302 71.982498
-3.9396901 -56.029999 71.505798
-4.4464798 -56.5327 71.898399
-3.3845799 -52.8344 70.8508
-2.72068 -52.817001 70.523399
-3.3563299 -55.778702 71.1912
-2.7251999 -55.490898 70.9496
-1.5836101 -52.6968 70.277298
-1.29405 -52.7822 70.310898
-1.3609999 -54.441898 70.650398
-2.04948 -55.0452 70.766403
-2.0938201 -52.770699 70.343399
-7.6744499 -43.0397 80.853996
-7.2733598 -42.765598 82.109299
-6.76474 -42.516998 83.128197
-1.91405 -45.482201 68.1754
-1.3908 -45.511398 68.073898
-0.78451198 -45.532001 68.005096
-3.2849801 -45.259701 68.8601
-4.02037 -45.086601 69.440102
-4.7361302 -44.8974 70.151497
-2.9081299 -41.278801 86.412498
-2.0161099 -41.0625 86.445602
-7.8118801 -43.5341 78.042
-7.6896701 -43.733501 76.831596
-7.5197701 -43.9207 75.794197
-6.0437899 -44.553902 71.889198
-5.4175 -44.712799 70.972801
-7.0500102 -44.2817 73.906303
-6.5942101 -44.445999 72.886002
-7.8360801 -43.302502 79.434998
-7.3246398 -44.129902 74.864998
0.090208001 -45.578899 67.881302
-4.6429901 -41.701 85.765999
-3.8383601 -41.498001 86.1717
-2.55656 -45.397202 68.433403
-2.8275599 -42.7239 86.967003
-2.78283 -43.346699 87.148697
-2.7648301 -43.9342 87.3144
-1.97859 -42.499599 87.003304
-1.95608 -43.093399 87.184402
-1.94857 -43.655998 87.346298
-1.99832 -41.780399 86.724602
-2.8718801 -41.997398 86.698898
-5.8007698 -45.059502 85.807297
-5.1163402 -44.8241 86.375
-4.4099898 -44.578602 86.8041
-5.7896099 -44.4053 85.568497
-5.15484 -44.194302 86.152
-4.4623899 -43.9552 86.605598
-5.7824998 -43.6409 85.225197
-5.2044802 -43.470501 85.867897
-4.5399799 -43.2743 86.391296
-7.1982698 -45.590302 84.033798
-6.5293002 -45.345402 85.063499
-7.0434499 -44.823502 83.7966
-6.4324598 -44.594601 84.765297
-6.9268899 -44.049099 83.553299
-6.3607402 -43.828899 84.463501
-6.8474498 -43.278702 83.322403
-7.42837 -44.3022 82.462097
-7.3505101 -43.530201 82.268799
-7.7506299 -44.563599 81.177299
-7.7060399 -43.793098 81.012901
-7.9114399 -46.1455 81.490601
-7.6907501 -45.864498 82.846199
-7.8183198 -45.3535 81.335503
-7.54175 -45.0849 82.657501
-7.7021098 -45.020901 78.318298
-7.8092599 -44.805801 79.731499
-7.7588501 -44.263699 78.189102
-7.8189301 -44.041599 79.590599
-7.5962501 -46.638302 78.555496
-7.8238401 -46.409302 79.992996
-7.6412702 -45.822899 78.429703
-7.8069901 -45.602798 79.859299
-7.4587402 -44.626598 75.964104
-7.3912702 -45.359299 76.1194
-7.62362 -44.455399 76.9851
-7.5509601 -45.206402 77.121101
-7.3198099 -46.143799 76.258301
-7.2567101 -46.942902 76.410599
-7.4720898 -46.006001 77.237602
-7.4053602 -46.818802 77.370102
-7.2927299 -44.796299 75.087799
-7.07968 -44.931599 74.209198
-7.2382598 -45.4823 75.268997
-7.0956502 -45.5998 74.558601
-7.1771002 -46.233101 75.435402
-7.0557299 -46.300201 74.796898
-7.1206999 -47.012798 75.611702
-6.9990902 -47.065498 74.976097
-5.9651799 -45.1852 71.9776
-5.8899798 -45.8503 72.069504
-6.5211201 -45.0886 72.926201
-6.4429102 -45.754299 72.975601
-6.9419599 -44.9823 73.803101
-6.8403101 -45.7043 73.771797
-6.7474899 -46.431999 73.825798
-6.3543501 -46.499001 73.066803
-5.80053 -46.583302 72.189301
-6.66187 -47.210999 73.935097
-6.2560501 -47.276699 73.175499
-5.6988101 -47.339298 72.319397
-4.6167698 -45.519501 70.301102
-4.53585 -46.157101 70.471901
-5.3153901 -45.339901 71.087799
-5.23598 -45.992401 71.220001
-5.1496301 -46.694901 71.371101
-4.4580698 -46.824299 70.650902
-5.0553098 -47.410099 71.523804
-4.3773298 -47.493599 70.824402
-3.1213801 -46.462502 69.317596
-3.83096 -46.318501 69.832603
-3.1756001 -45.857899 69.083504
-3.9012799 -45.697498 69.627602
-3.00669 -47.942101 69.682297
-3.6937399 -47.694698 70.191498
-3.06882 -47.171101 69.513298
-3.7686801 -46.9576 70.036499
-0.71514702 -46.215698 68.239197
-0.71102899 -46.925499 68.456802
-1.3099999 -46.160301 68.320999
-1.2915601 -46.8694 68.545097
-1.8220201 -46.091 68.434799
-1.7855 -46.799702 68.661598
-1.7591701 -47.540501 68.895897
-1.28083 -47.6189 68.780403
-0.71122402 -47.6819 68.686996
-1.73629 -48.309502 69.130501
-1.27297 -48.414501 69.025497
-0.71179199 -48.494202 68.935204
0.15281101 -48.565399 68.816498
0.153998 -47.7701 68.561401
0.155366 -47.023499 68.326599
0.154835 -46.317699 68.104599
-3.71615 -42.9991 86.756599
-3.6471601 -43.656898 86.951698
-3.6082301 -44.2663 87.129501
-3.7846601 -42.2411 86.474403
-4.6135898 -42.4743 86.067497
-6.8794799 -47.135201 74.480904
-6.9485898 -46.362598 74.335503
-7.0205002 -45.633701 74.2435
-2.4561501 -45.9869 68.684898
-2.40997 -46.6441 68.918098
-2.3686199 -47.391102 69.128998
-2.32656 -48.151199 69.335899
-2.00402 -44.873199 87.674004
-1.96635 -44.238899 87.504799
-2.8484199 -45.148998 87.622803
-2.7902999 -44.515701 87.466003
-2.9197199 -45.866299 87.811699
-2.05089 -45.570801 87.872803
-5.9053102 -47.0382 86.408302
-5.1058302 -46.742401 86.990196
-4.42803 -46.484299 87.3694
-5.8585801 -46.303699 86.193802
-5.0992298 -46.033699 86.768501
-4.4081802 -45.7766 87.158302
-4.3963599 -45.158501 86.980797
-5.10009 -45.411598 86.573997
-5.8242798 -45.668201 86.0065
-7.8482499 -47.770599 84.463501
-6.9102302 -47.355301 85.515503
-7.6084499 -47.0494 84.367798
-6.7686601 -46.648701 85.365898
-7.3893499 -46.3452 84.246597
-6.6400399 -45.994099 85.224297
-8.47577 -48.517101 81.969398
-8.3986797 -48.206902 83.349197
-8.2276201 -47.700298 81.7994
-8.1171503 -47.3992 83.180298
-7.8769102 -46.632999 83.019302
-8.0377903 -46.925098 81.645599
-7.6083498 -48.207699 78.9132
-7.65308 -48.986099 79.1175
-7.9786601 -47.976601 80.316704
-8.1285801 -48.775002 80.5
-7.8752098 -47.200001 80.149399
-7.58639 -47.433498 78.723602
-7.1742702 -48.504501 76.825897
-7.1409001 -49.323601 77.074898
-7.3452501 -48.382301 77.760201
-7.3326802 -49.1703 77.989098
-7.36691 -47.607101 77.550903
-7.2117 -47.720699 76.6036
-7.0746999 -47.7869 75.814201
-6.94698 -47.842201 75.167297
-7.0307398 -48.587799 76.040001
-6.8940902 -48.660099 75.376099
-6.8427701 -49.5368 75.616096
-6.9881401 -49.440601 76.294601
-6.4057002 -49.6926 74.347504
-6.4816799 -48.807201 74.171097
-5.9566698 -49.742901 73.526901
-6.0485301 -48.832699 73.397797
-5.38308 -49.957802 72.636902
-5.4863901 -48.844501 72.568802
-5.5907001 -48.076698 72.4394
-6.1515198 -48.042 73.278999
-6.57201 -47.992001 74.0439
-4.1780901 -49.277901 71.024498
-4.8456502 -49.062401 71.734001
-4.2796001 -48.282001 70.933296
-4.95608 -48.1119 71.661598
-4.7597299 -50.257801 71.840698
-4.1027398 -50.635601 71.157501
-3.50564 -49.4613 70.450699
-2.8424001 -49.639801 70.022697
-3.4229701 -50.7966 70.616096
-2.76299 -50.916302 70.2323
-3.6013501 -48.5005 70.316704
-2.9288001 -48.717201 69.847801
-0.711766 -50.343899 69.526497
-1.25306 -50.234402 69.571404
-1.67689 -50.051399 69.611504
-0.71141601 -49.370499 69.207001
-1.2643501 -49.267899 69.279503
-1.71015 -49.1157 69.360298
-0.71518499 -51.454899 69.9095
-1.23717 -51.387501 69.927399
-1.63459 -51.2243 69.917999
0.145153 -51.415001 69.796501
0.15014701 -50.349201 69.420998
0.15203699 -49.4142 69.097702
-3.6588199 -45.470699 87.448402
-3.71223 -46.187599 87.643997
-3.61689 -44.845798 87.287598
-6.6752 -49.625801 75.002502
-6.7396498 -48.741699 74.796204
-6.8102999 -47.917301 74.629799
-2.2737801 -48.926701 69.535896
-2.21138 -49.842201 69.748703
-2.14591 -51.063499 70.005798
-6.2538199 -42.301201 83.949303
-5.7577701 -42.101601 84.637398
-5.2523198 -41.901199 85.248001
-5.7845101 -42.865601 84.908897
-6.3133898 -43.060101 84.185997
-5.25284 -42.6777 85.5373
3.5457499 -65.884003 89.959602
3.023 -66.285797 89.678596
2.57462 -66.757599 89.262001
3.7519701 -66.305099 89.660004
3.2976899 -66.647202 89.431198
2.9361501 -66.988503 89.145302
3.92816 -66.664902 89.363503
3.52335 -66.939201 89.1884
3.19835 -67.201401 88.974403
4.5792799 -65.1259 90.1548
4.0864201 -65.497002 90.120903
4.7051601 -65.634903 89.821503
4.2407498 -65.964897 89.797699
4.8166099 -66.1091 89.4841
4.3759298 -66.385696 89.471001
5.2615099 -64.435699 89.902802
4.9702501 -64.778702 90.062202
5.4250798 -65.020897 89.567902
5.0988402 -65.322502 89.725403
5.57019 -65.582603 89.248497
5.2102699 -65.841202 89.392899
7.6253099 -61.665199 86.170998
7.5437198 -62.4035 86.124397
7.4818501 -63.104698 86.0877
7.6557002 -61.639801 85.481903
7.5587401 -62.412399 85.551697
7.4804101 -63.1381 85.619301
7.62256 -61.633801 84.727303
7.5206399 -62.512798 84.998299
7.4377999 -63.256302 85.1791
7.5689301 -62.3624 83.6586
7.5729699 -62.045601 84.190002
7.4295001 -63.086399 84.135399
7.4681602 -62.770699 84.530899
7.3204699 -63.738499 84.449501
7.3751302 -63.465099 84.787598
7.5342002 -62.832699 83.417503
7.4021201 -63.450001 83.847801
7.2894902 -64.048599 84.162498
7.48036 -63.243599 83.237602
7.3532701 -63.829498 83.613297
7.2414198 -64.386398 83.912003
7.3900299 -63.674999 83.016403
7.2466102 -64.242104 83.391197
7.1353002 -64.755501 83.685799
7.2419801 -64.212601 82.805099
7.0861802 -64.724899 83.185699
6.98598 -65.180801 83.489502
5.77844 -67.675201 82.7948
5.85671 -67.540199 83.197899
5.8428302 -67.541298 83.465797
5.2768602 -68.347504 82.985298
5.2990298 -68.161201 83.350098
5.3158498 -68.057297 83.609299
4.6245699 -68.963898 83.239403
4.68961 -68.654602 83.570198
4.7374701 -68.479698 83.833099
6.69908 -65.686897 82.425598
6.6230302 -65.996201 82.932297
6.58218 -66.274498 83.280998
6.2852898 -66.639801 82.642303
6.2925501 -66.775002 83.0401
6.2651801 -66.920998 83.3405
3.4363799 -69.918297 84.167702
3.58143 -69.394402 84.430702
3.68119 -69.088898 84.607803
3.06654 -69.804901 84.736298
3.2060001 -69.4897 84.866898
3.3059199 -69.2313 84.985901
2.8320301 -69.735001 85.083397
2.9401901 -69.494698 85.205399
3.0321901 -69.2882 85.294998
2.4486201 -69.569397 85.552498
2.5759699 -69.392303 85.658302
2.67715 -69.252899 85.715103
2.2872801 -69.376099 85.768997
2.4324701 -69.2603 85.848999
2.5494201 -69.159302 85.893097
2.13743 -69.112396 86.025497
2.30428 -69.058098 86.077904
2.4469299 -68.998497 86.110802
4.3868098 -67.593102 88.093803
4.0369101 -67.785698 87.807999
3.7417099 -67.959602 87.455902
4.5451398 -67.647102 87.802002
4.2337399 -67.790802 87.570602
3.9414699 -67.935204 87.266502
4.6519499 -67.653702 87.518501
4.3681402 -67.765099 87.337303
4.0918899 -67.8825 87.085602
4.7928901 -67.419502 88.204002
4.8787198 -67.517303 87.904297
4.94031 -67.555199 87.612099
5.1517 -67.283203 88.200302
5.1954598 -67.413399 87.9151
5.21592 -67.481102 87.632301
5.4699101 -67.175797 88.127098
5.4842501 -67.337196 87.858704
5.4657898 -67.430603 87.598701
5.7751198 -67.043999 88.017303
5.7606502 -67.233299 87.757896
5.70895 -67.350601 87.514999
6.19906 -66.993896 87.184402
6.3055902 -66.802101 87.438103
6.39258 -66.542801 87.719597
5.9617901 -67.193802 87.380096
6.0394301 -67.049103 87.6259
6.0868301 -66.834602 87.894997
6.8931298 -65.856697 87.127998
6.6704402 -66.190399 87.452698
6.7195101 -66.289398 86.873901
6.5378199 -66.530701 87.175903
6.5376401 -66.641502 86.642601
6.3916998 -66.799797 86.926102
7.1238599 -65.468102 86.473503
7.0401301 -65.615997 86.792503
6.9127598 -66.029198 86.302299
6.84056 -66.123596 86.575699
6.7135201 -66.486099 86.138802
6.6422701 -66.539001 86.374199
7.1722202 -65.378197 85.931999
7.1633601 -65.394402 86.1884
6.9721999 -65.9841 85.8582
6.9524102 -65.9888 86.064796
6.7890902 -66.472801 85.782501
6.75985 -66.469597 85.943901
7.1374202 -65.4683 85.463699
7.1614199 -65.4058 85.693802
6.9808898 -66.0326 85.496201
6.9816399 -66 85.672699
6.81779 -66.491997 85.514503
6.8077798 -66.481201 85.643204
7.10425 -65.559601 85.235001
6.9678302 -66.081902 85.318802
6.8181601 -66.508499 85.3862
7.0616298 -65.679398 85.012703
6.9398899 -66.153603 85.142197
6.8010201 -66.541901 85.256302
7.0067701 -65.8284 84.805099
6.8936901 -66.252602 84.970398
6.7584 -66.602501 85.124702
6.9317999 -66.004799 84.615097
6.8229299 -66.3787 84.807602
6.6886902 -66.690399 84.994797
6.69415 -66.462997 84.307701
6.8286901 -66.210899 84.446999
6.5829601 -66.730904 84.529503
6.7210302 -66.532898 84.658203
6.4542999 -66.957703 84.755501
6.5900898 -66.805397 84.870903
6.2918301 -67.107101 84.142303
6.5222502 -66.771896 84.204498
6.1688499 -67.253304 84.361198
6.40275 -66.9814 84.428497
6.0419402 -67.361801 84.578102
6.2726498 -67.1521 84.653503
5.59694 -67.713097 84.158897
5.9830899 -67.431 84.125603
5.51582 -67.729301 84.354103
5.8717999 -67.509399 84.3339
5.4433298 -67.721703 84.555801
5.7624402 -67.555801 84.543503
4.6957698 -68.122704 84.418602
4.71417 -68.052299 84.572701
4.7535901 -67.971298 84.736397
4.2906399 -68.300003 84.670799
4.3524599 -68.194 84.783798
4.4319901 -68.080704 84.904503
3.9416299 -68.456398 84.957199
4.03619 -68.319801 85.024399
4.1427898 -68.177803 85.097198
5.14925 -67.9356 84.250397
5.1156502 -67.9039 84.430099
5.0987301 -67.856003 84.619003
3.0327699 -68.596497 86.110001
3.1941199 -68.445396 86.074997
3.35272 -68.286003 86.030899
3.1120501 -68.468697 86.358597
3.28315 -68.344597 86.304497
3.4398999 -68.208504 86.239799
3.2655599 -68.308701 86.679497
3.4472101 -68.218399 86.592003
3.60165 -68.110802 86.497597
3.8278501 -67.999702 86.792198
3.6732399 -68.079597 86.925697
3.4804499 -68.135002 87.063202
4.67658 -74.785896 79.1409
4.72119 -73.1866 79.367897
4.8059702 -71.613701 79.632698
4.5195198 -75.0765 79.5448
4.6038699 -73.530296 79.7705
4.7165699 -71.956802 80.046303
4.38164 -75.378998 79.912003
4.49332 -73.947601 80.151802
4.6256499 -72.389999 80.445297
4.19487 -78.028397 79.634102
4.4035602 -77.866997 79.1297
4.5900402 -77.888702 78.598198
4.2944498 -76.849297 79.6987
4.4637599 -76.563797 79.344704
4.6594501 -76.3666 78.907402
4.1148601 -77.267899 80.049103
4.2670298 -75.759804 80.134598
4.08319 -76.307098 80.454597
3.7574699 -78.789299 80.391098
3.99335 -78.446404 80.061302
3.7246301 -78.145103 80.6465
3.94508 -77.7369 80.362396
3.6629 -77.288597 80.987999
3.9035201 -76.828697 80.713898
3.74809 -79.293297 80.174004
3.7447901 -79.702003 80.025299
4.0021601 -79.052101 79.8181
4.0073299 -79.503601 79.659203
4.1858101 -78.845001 79.372597
4.1672602 -79.374603 79.203697
3.0491099 -79.390503 80.738503
3.42974 -79.098602 80.608597
3.01578 -78.819 81.016899
3.40254 -78.5 80.8722
2.9435401 -78.049599 81.406403
3.3351901 -77.695198 81.236702
2.9739799 -80.232201 80.373398
3.3736999 -79.9627 80.245102
3.0239699 -79.842201 80.528297
3.40411 -79.567101 80.395798
2.2372999 -79.866203 80.818604
2.66079 -79.6502 80.812202
2.1675999 -79.328003 81.057899
2.60742 -79.097298 81.076401
2.0652299 -78.597 81.4114
2.5178199 -78.351196 81.456703
2.24177 -80.622902 80.501297
2.6154699 -80.455597 80.469597
2.2580099 -80.279701 80.644096
2.6565399 -80.084099 80.619797
1.20911 -80.101097 80.670303
1.74639 -80.025497 80.751602
1.15987 -79.577599 80.899803
1.68049 -79.497803 80.980598
1.09073 -78.861603 81.229599
1.58799 -78.778099 81.315102
1.27509 -80.787598 80.356796
1.78714 -80.734299 80.4394
1.24616 -80.485298 80.493797
1.77974 -80.4188 80.5784
5.0556302 -69.188499 81.152
4.7756901 -70.755203 80.794403
5.1655798 -68.8983 80.719704
4.8689899 -70.3825 80.382797
5.2629399 -68.730103 80.263496
4.9498901 -70.112503 79.952003
4.4851298 -72.943901 80.852798
4.26301 -73.567596 81.252296
4.3478098 -74.484299 80.501602
4.1528502 -75.064499 80.831497
3.57634 -74.769203 81.966202
3.94561 -74.194099 81.622803
3.6004801 -73.201797 82.452202
4.02178 -72.5886 82.099602
4.3969998 -71.883698 81.710297
3.61219 -71.748497 82.956596
4.0900798 -71.104401 82.600899
4.6666098 -70.076897 82.188698
3.6022501 -76.159203 81.453102
3.9028499 -75.637199 81.147102
2.7891901 -75.671303 82.477898
3.1974101 -75.256104 82.274498
2.7253399 -74.045197 82.988098
3.17522 -73.673203 82.767097
2.6319101 -72.501297 83.540802
3.1446199 -72.149498 83.282501
2.8622301 -77.010201 81.926903
3.25632 -76.616898 81.735397
2.3290501 -76.037598 82.517197
1.84401 -76.347 82.438904
2.42032 -77.341599 81.971001
1.95215 -77.612 81.903297
1.36405 -76.578003 82.316299
0.88154203 -76.681602 82.221802
1.47849 -77.8134 81.785698
0.99590099 -77.905602 81.691704
2.1144099 -72.850899 83.5495
1.61527 -73.229103 83.463898
2.2430201 -74.466301 83.009201
1.7445101 -74.825401 82.933601
1.1186399 -73.4804 83.390198
0.61930001 -73.588097 83.3283
1.25071 -75.085098 82.835403
0.75528598 -75.197701 82.756599
2.0867901 -70.275398 85.002403
1.66302 -70.463898 84.8573
1.22465 -70.586098 84.743202
2.2835801 -71.180901 84.331703
1.88937 -71.513 84.205803
1.42646 -71.765999 84.102501
0.78782302 -70.683098 84.651001
0.35036001 -70.735901 84.585098
0.95326602 -71.946899 84.025398
0.477945 -72.028999 83.966003
0.93561798 -69.224297 85.751701
0.55063802 -69.238998 85.694901
0.164221 -69.257301 85.643898
1.06188 -69.775902 85.276001
0.65659201 -69.824997 85.183197
0.25135601 -69.860199 85.114197
1.38816 -66.758202 88.937401
0.97074503 -66.435898 89.171799
0.51797402 -66.110703 89.395599
1.35147 -67.171097 88.437698
0.98320103 -66.937897 88.633698
0.57148898 -66.694199 88.822899
1.3323801 -67.550903 87.915398
0.99959803 -67.387497 88.0606
0.62163901 -67.209396 88.207001
-0.44696 -65.683098 89.608398
-0.345727 -66.354698 88.982101
-0.244958 -66.953903 88.332199
0.034701999 -65.809898 89.567299
0.117354 -66.4561 88.958099
0.195701 -67.0298 88.315903
0.74719399 -68.319298 86.834602
0.36201701 -68.228401 86.929398
-0.033728 -68.188797 86.9618
0.832165 -68.778397 86.253098
0.45343399 -68.742599 86.276802
0.069247998 -68.732399 86.2715
7.5985699 -62.250198 76.2285
7.65135 -62.229401 76.811897
7.6950798 -62.216599 77.333199
7.4205799 -63.679401 76.436302
7.4644098 -63.427101 76.944801
7.4906001 -63.3503 77.4795
7.1824198 -64.885002 76.681
7.2274899 -64.608597 77.115303
7.25561 -64.440598 77.653
6.9383302 -65.795998 76.853699
6.6855602 -66.737396 77.054497
6.9232602 -65.932503 76.255501
6.68749 -66.835297 76.601997
6.6708202 -66.889397 75.991898
7.5303402 -63.3358 77.929802
7.7557802 -62.383099 78.169098
7.2965999 -64.445999 78.292099
7.5553999 -63.448601 78.3853
7.7696199 -62.576199 78.606003
7.3294702 -64.4823 78.658401
7.5753398 -63.5681 78.879402
7.7761798 -62.7383 79.106697
7.0181398 -65.486298 78.353203
6.7049398 -66.503304 78.054802
6.9613099 -65.5382 77.8442
3.0109799 -70.316803 84.379898
2.7180901 -70.4674 84.555298
3.55035 -70.673302 83.534897
3.09495 -71.034302 83.842697
2.67465 -71.201202 84.112701
3.0590601 -64.871902 90.595497
3.2897501 -65.402496 90.266998
3.72609 -64.516602 90.735802
3.89996 -65.0121 90.429298
4.2973299 -64.1586 90.760101
4.4342999 -64.632896 90.465302
4.1128502 -63.192699 91.350098
3.5304401 -63.463799 91.371101
2.8559401 -63.683701 91.313004
4.1939702 -63.689499 91.052696
3.6087699 -64.007698 91.052803
2.92594 -64.301102 90.952103
1.5303 -63.963299 91.014397
2.1704099 -63.855099 91.172203
1.43786 -63.115398 91.477798
2.10479 -63.082199 91.582901
2.7908001 -62.998699 91.666397
1.32487 -62.150002 92.002296
2.0021701 -62.200401 92.039902
2.6839001 -62.1805 92.076797
1.67987 -65.5308 90.037804
2.3703301 -65.215401 90.3508
1.60981 -64.741699 90.556602
2.2276101 -64.555603 90.762199
-0.195436 -59.684399 93.276802
-0.062618002 -60.7789 92.664703
0.087413996 -61.9076 92.0065
0.39778501 -59.8368 93.2342
0.53345501 -60.951199 92.617401
0.679021 -62.054401 91.9851
1.0382 -59.987801 93.174797
1.18379 -61.096901 92.582397
-1.13281 -59.506199 93.231697
-1.0246 -60.5499 92.686302
-0.90629601 -61.641102 92.071098
-0.69461298 -59.5536 93.2715
-0.57323498 -60.615002 92.699402
-0.43572801 -61.725101 92.0634
-0.55397803 -64.837097 90.218697
-0.057642002 -64.977203 90.169998
0.464533 -65.326599 89.984299
-0.66725099 -63.8423 90.826698
-0.155247 -63.9776 90.7854
0.47243199 -64.321297 90.634903
7.8400502 -60.260101 84.789902
7.8808398 -60.227299 85.490601
7.7872701 -60.2756 86.312698
7.7193699 -60.891102 84.778603
7.7515702 -60.9282 85.484802
7.6947699 -60.968201 86.234299
4.8780098 -62.4855 91.166298
4.9298701 -62.966301 90.842697
4.9993501 -63.424301 90.5355
5.18713 -62.056499 91.042099
5.1985898 -62.547699 90.704597
5.2269101 -63.0145 90.381203
5.506 -61.563599 90.841499
5.4717302 -62.073399 90.4916
5.45469 -62.553501 90.153297
4.5440998 -62.865002 91.272797
4.61835 -63.344299 90.968002
4.7097702 -63.799301 90.675598
4.73142 -61.272598 92.024002
4.81427 -61.935001 91.537903
5.0992999 -60.812901 91.886597
5.15275 -61.490898 91.4198
5.49793 -60.256001 91.6614
5.5145798 -60.969398 91.2229
3.9063399 -61.8755 92.099197
4.0297899 -62.618698 91.672699
4.3550501 -61.618698 92.084801
4.46416 -62.3125 91.619598
4.6822 -56.593399 103.221
4.7265701 -56.660301 103.034
4.8254199 -56.614899 102.772
4.9633198 -56.449699 103.736
4.9938202 -56.508701 103.584
5.0527802 -56.459499 103.333
5.3280001 -56.279598 103.998
5.3529701 -56.327499 103.855
5.3620801 -56.2929 103.608
4.8199201 -56.0695 103.295
4.7165399 -56.367001 103.312
5.0329299 -55.953098 103.652
4.9799199 -56.229698 103.765
5.3187399 -55.849998 103.817
5.33599 -56.0812 103.98
5.7005901 -56.014702 103.857
5.7521901 -56.057499 103.696
5.7202902 -56.048 103.452
6.12253 -55.690201 103.273
6.1834402 -55.760101 103.162
6.1154499 -55.779099 102.94
5.6842299 -55.781101 103.679
5.3089199 -55.681599 103.434
5.71524 -55.543999 103.176
6.2153101 -55.426601 102.708
5.2659202 -55.5728 103.007
5.63624 -55.386398 102.663
6.2532902 -55.185299 101.915
7.1786299 -55.0173 100.8
7.9450202 -54.925701 99.747803
6.2459102 -55.009998 101.065
7.13377 -54.906898 100.171
7.94068 -54.834 99.176804
6.1809301 -54.9095 100.406
7.0686598 -54.824699 99.572899
7.8622799 -54.7729 98.7043
9.0202599 -55.928902 92.110001
8.8331404 -55.947201 92.255798
8.5934896 -55.7173 92.085701
8.7048597 -56.000301 90.624802
8.4279099 -56.153702 90.871696
8.0823498 -55.997299 90.871002
8.4503698 -55.8703 89.430199
8.0574303 -56.2202 89.849899
7.4875002 -56.4035 90.406898
8.9184904 -55.358002 93.5084
9.13762 -55.494202 93.668098
9.3043003 -55.498402 93.613297
8.97334 -55.047901 94.895401
9.2098799 -55.055199 94.992996
9.3940601 -55.026699 95.008904
8.5721197 -55.231998 88.916603
8.49506 -54.3442 88.509201
8.7735901 -55.495899 90.017899
8.7033501 -54.841 89.416298
9.0675097 -55.566601 91.492302
9.0112801 -55.088699 90.807098
7.1872201 -53.395302 92.1791
7.8239899 -53.476501 91.1633
8.2852602 -53.7257 90.448402
7.0834398 -53.1339 91.484398
7.70048 -53.214802 90.339996
8.1475496 -53.490101 89.491501
7.0726099 -52.8326 91.175201
7.65346 -52.949001 90.019699
8.0626097 -53.2132 89.158203
7.36098 -53.740799 93.358002
7.5267301 -54.084099 94.725899
7.9820299 -53.810501 92.659103
7.9678898 -54.1259 94.455399
8.4243097 -53.984402 92.218803
8.4705496 -54.224998 94.179802
6.4140201 -53.559299 93.280296
6.3495798 -53.331299 92.717796
6.3302302 -53.097698 92.464699
5.5622802 -53.9398 94.243103
5.55336 -53.719898 93.778198
5.5641198 -53.465099 93.509804
5.6064801 -54.128201 94.952202
5.68927 -54.2952 95.912399
6.5333099 -53.832199 94.196098
6.6710901 -54.105 95.3442
4.1384401 -55.418201 96.342499
4.30829 -55.4487 97.435699
4.4706702 -55.4338 98.572304
4.7961702 -54.754601 96.2621
4.9294701 -54.831902 97.373596
5.0714898 -54.8913 98.470802
5.8035798 -54.448101 97.065498
5.9138198 -54.579102 98.128799
4.2338099 -58.881802 94.520897
4.61128 -58.6362 94.0961
5.0099702 -58.239399 93.6241
4.3783102 -58.562199 95.752998
4.6138301 -58.4659 95.2836
4.8069501 -58.151001 94.906998
4.4717102 -58.305801 96.939003
4.6651502 -58.271099 96.561203
4.8108501 -57.991001 96.281601
5.3628001 -58.784 92.638397
4.9212399 -59.338299 93.000603
4.5190902 -59.787701 93.2696
5.4583702 -59.447102 92.162003
5.03233 -60.0327 92.4589
4.62994 -60.500702 92.654404
2.29842 -60.1567 93.139397
2.50755 -61.192799 92.595596
2.92852 -60.059601 93.2089
3.14428 -61.080399 92.634499
3.3366599 -62.0676 92.096397
3.5705199 -59.8311 93.415901
3.7255499 -60.905399 92.695099
1.84815 -61.1903 92.576302
1.67211 -60.114498 93.136597
8.4802303 -53.872799 84.0578
8.6360598 -53.885601 85.070503
8.70895 -53.946499 85.971802
8.4589195 -54.564098 84.162201
8.6101704 -54.562302 85.131401
8.67173 -54.6115 86.0354
8.4252396 -55.302799 84.247101
8.5643101 -55.322399 85.190102
8.6161299 -55.380402 86.108498
8.4185801 -56.0256 84.296501
8.5328798 -56.053299 85.245903
8.5643101 -56.107399 86.202003
8.4192495 -56.7836 84.320297
8.4945297 -56.813499 85.298401
8.4795904 -56.874599 86.3041
6.3916702 -58.948898 90.922302
6.32161 -59.7089 90.487
6.2220302 -60.4104 90.054901
6.8097301 -58.227402 90.379601
6.7171302 -59.0285 89.975601
6.6248698 -59.815102 89.487
7.2994699 -57.410301 89.635597
7.2720098 -58.221802 89.1623
7.1779399 -59.106701 88.690201
8.3292398 -55.550499 87.457001
8.2348003 -55.668201 87.942101
8.1559296 -55.8503 88.470901
8.2105398 -56.2495 87.7855
7.9776602 -56.378101 88.433098
7.7455101 -56.529499 89.037498
8.0172396 -57.007 88.107201
7.6687698 -57.199299 88.859398
6.40025 -58.241402 91.3442
6.8360801 -57.6339 90.711403
7.28547 -57.0186 89.9319
6.3787398 -57.793301 91.814003
6.8427 -57.298302 91.012703
7.2883 -56.815899 90.0933
6.8642201 -57.073399 91.617996
6.32342 -57.683998 92.814201
7.3537402 -56.674 90.178101
6.86163 -57.209499 91.3396
6.3604298 -57.722 92.362
7.77354 -56.336498 89.200203
8.2980299 -55.783199 88.750504
7.8698001 -56.264999 89.357903
8.4220695 -54.761398 87.226303
8.4408302 -53.8465 87.129204
8.4262199 -54.897598 87.576698
8.4864397 -54.077999 87.480904
8.4798603 -55.028 87.885696
8.5648499 -54.198399 87.6922
8.5138502 -55.101398 88.252502
8.5411701 -54.292999 87.970001
8.24405 -53.065102 87.494003
7.9558902 -52.2323 88.0177
8.3856897 -53.361 87.712097
8.2205801 -52.768902 88.111198
8.4649801 -53.515202 87.880997
8.3652201 -53.144299 88.119202
8.4303904 -53.624199 88.134102
7.4313002 -52.193199 90.514397
7.3208299 -51.865799 90.4058
7.0559301 -51.6031 90.219101
7.0991001 -52.198502 91.1726
7.0015702 -51.855 90.9851
6.7107401 -51.583698 90.756798
6.8903999 -52.234501 91.521896
6.6547599 -51.927101 91.489799
6.2813301 -51.616699 91.295601
5.5032802 -52.861301 93.203697
5.32091 -52.5168 92.907997
5.0411701 -52.0853 92.501602
4.7463398 -53.315102 93.766602
4.56954 -53.012199 93.467499
4.3007398 -52.616199 93.089104
4.06217 -53.8064 94.102097
3.93962 -53.523602 93.815598
3.6688499 -53.094398 93.463203
3.8497701 -55.134998 95.184303
4.6956701 -54.477299 94.884399
4.06986 -54.656898 94.822502
4.7483902 -54.2076 94.474602
4.1476002 -54.338902 94.541298
4.7969298 -53.909698 94.183998
4.7178302 -54.647202 95.445099
3.9935601 -55.305599 95.632004
3.3132701 -55.827301 95.178902
2.9907899 -56.511501 94.912201
3.5499401 -56.017502 95.538803
3.3492899 -56.7672 95.290398
3.8006699 -56.182701 96.1716
3.68839 -56.951302 95.920097
4.0427599 -56.887299 98.2379
4.1606498 -56.1623 98.451599
3.91099 -56.973999 97.037498
4.0076199 -56.2164 97.271103
3.6859601 -57.640099 95.736198
3.7724299 -58.204601 95.520798
3.89066 -57.579399 96.866302
3.9575801 -58.041199 96.648102
4.01052 -57.433899 98.041298
4.0735602 -57.831799 97.784401
4.2497001 -58.137699 97.385399
4.1377101 -58.386501 96.258797
3.9519801 -58.617699 95.133698
3.0948701 -58.371201 94.296204
3.48967 -58.3214 94.748703
2.9675701 -57.449001 94.650398
3.36005 -57.591999 95.0383
2.0448799 -58.1744 93.962402
2.59197 -58.3288 94.049896
2.14783 -57.0634 94.189102
2.5619299 -57.292999 94.364899
2.36782 -56.072899 94.292198
2.6586001 -56.2775 94.564102
2.1157401 -59.181702 93.6073
2.7214 -59.199902 93.672203
3.27514 -59.0914 93.900703
0.94174302 -57.6772 94.065201
0.92980599 -58.848801 93.712196
1.5084701 -57.917301 93.993797
1.5259 -59.033199 93.640602
-0.30912599 -57.5075 94.063797
-0.28687501 -58.623798 93.770897
0.30897501 -57.559898 94.0989
0.30461901 -58.7192 93.767097
-1.29682 -57.427502 93.868698
-1.22385 -58.501099 93.641998
-0.83209401 -57.4491 93.960602
-0.78443801 -58.533901 93.710899
1.62006 -55.071098 93.972397
0.70222902 -54.972599 93.959297
-0.107614 -54.833801 93.918404
1.15531 -56.4589 94.134102
0.45263699 -56.316101 94.140099
-0.243011 -56.245899 94.096603
-0.78790599 -54.764801 93.815697
-1.39578 -54.7612 93.714897
-0.83120501 -56.192799 93.983704
-1.35295 -56.180801 93.882797
6.7939 -54.320702 96.542297
6.8943 -54.481499 97.5709
7.6715798 -54.318199 95.8937
7.8411002 -54.490799 96.879303
8.2907104 -54.3867 95.6605
4.9466901 -56.5284 102.465
5.0604701 -56.431702 102.177
5.1247702 -56.377899 103.012
5.1917901 -56.295399 102.69
5.3669901 -56.2332 103.276
5.3700299 -56.171501 102.932
5.6609001 -56.025101 103.121
5.6000099 -55.999802 102.778
6.0025902 -55.791599 102.63
5.8838301 -55.801701 102.314
2.5769999 -80.268303 77.691704
2.7056999 -80.477501 77.431297
2.76385 -80.525597 77.205803
2.86936 -80.093399 77.7145
2.8937299 -80.359802 77.499001
2.94909 -80.426201 77.252998
3.0886199 -79.999001 77.735397
3.0908101 -80.229897 77.537102
3.1589999 -80.289597 77.2855
1.83009 -69.661903 85.481796
1.65342 -69.203796 85.869102
1.4659899 -69.732201 85.371498
1.3136801 -69.218399 85.806099
4.8330698 -64.270897 90.377701
5.1127601 -63.9048 90.225502
1.89458 -67.835602 87.731796
1.6299599 -67.704697 87.800903
1.87226 -68.131897 87.2481
1.61858 -68.062401 87.281403
1.33992 -67.983299 87.338898
1.9048899 -68.461601 86.7705
1.6628799 -68.444 86.768501
1.39275 -68.422798 86.7724
7.6364498 -51.802399 89.082703
7.2849498 -51.409199 88.858902
6.90802 -50.8843 88.477402
7.3708701 -51.674702 89.649101
6.98526 -51.298 89.372498
6.54175 -50.784801 88.9561
6.6430402 -51.243198 89.901497
6.13762 -50.748501 89.475098
5.7290001 -50.792099 90.006401
5.3084698 -50.9048 90.544296
6.2761798 -51.245399 90.418602
5.8488698 -51.304901 90.939697
4.8538499 -51.0728 91.090797
4.32412 -51.293999 91.659203
5.3224101 -51.4207 91.486
4.7011499 -51.594299 92.051697
5.71522 -51.734402 91.878799
2.2357399 -51.3409 92.318497
1.30502 -51.319 92.428596
0.35415101 -51.2575 92.397598
2.18645 -51.929001 92.901802
1.2374001 -51.6759 92.874603
0.29149801 -51.506001 92.833099
2.1383901 -52.689899 93.312202
1.1544501 -52.4133 93.277901
0.209663 -52.148602 93.2258
2.1856401 -49.495602 90.322601
1.40631 -49.358898 90.384697
0.590931 -49.171398 90.328598
2.18325 -50.0392 90.849602
1.39151 -49.932999 90.896599
0.56057698 -49.768799 90.813698
2.16752 -50.503799 91.341698
1.37331 -50.448399 91.390701
0.51662499 -50.327 91.2985
-0.303348 -48.924301 90.216103
-1.2441601 -48.799999 90.120903
-0.33388099 -49.5354 90.666298
-1.26634 -49.418701 90.550003
-0.37658 -50.1395 91.127998
-1.2896399 -50.049198 90.9935
-1.43668 -52.021301 93.026901
-0.64187503 -52.0256 93.130203
-1.41635 -51.4398 92.627998
-0.58785802 -51.438301 92.737297
-1.37341 -51.157299 92.146004
-0.52903301 -51.1796 92.271103
3.8916199 -49.798199 89.819702
2.9911599 -49.629101 90.113197
3.6915901 -50.3395 90.546799
2.95681 -50.152599 90.676201
3.45048 -50.721901 91.127899
2.7181101 -50.576401 91.2435
1.97167 -80.822098 76.956299
1.96357 -80.698898 76.707298
1.9679 -80.611603 76.4991
2.0586901 -80.817902 77.028099
2.0460899 -80.704903 76.764503
2.05703 -80.620399 76.552399
2.18591 -80.757698 77.170601
2.1400001 -80.686203 76.843102
2.1440899 -80.613602 76.620697
2.5325899 -79.619698 74.742996
2.50122 -79.818802 75.1007
2.44751 -80.016296 75.476501
2.3582499 -79.668404 74.698997
2.31672 -79.888603 75.083
2.25686 -80.092598 75.473099
2.20768 -79.690903 74.671898
2.1637001 -79.923599 75.074203
2.10692 -80.130402 75.471397
2.0202799 -80.431503 76.074501
2.0588901 -80.299896 75.804703
2.1510401 -80.425201 76.128403
2.2020299 -80.2743 75.827103
2.3364301 -80.383598 76.1903
2.3928399 -80.212997 75.8554
2.3794799 -80.569397 76.688797
2.24174 -80.596298 76.661201
2.3613999 -80.499496 76.481903
2.1970699 -80.5327 76.444
1.9883699 -80.5298 76.297401
2.09361 -80.535797 76.355698
2.4551699 -80.641098 77.167999
2.3254099 -80.6689 77.150803
2.4063301 -80.627502 76.928802
2.2748101 -80.654999 76.897499
3.3173699 -80.167099 76.657997
3.2408299 -80.255997 76.977798
3.06687 -80.316399 76.669899
3.0099299 -80.3965 76.962898
2.8301499 -80.423401 76.668999
2.7970901 -80.496597 76.938103
2.5885201 -80.507797 76.678802
2.5917599 -80.572304 76.935898
2.6366501 -80.575897 77.198997
3.4256599 -79.896599 76.080902
3.37974 -80.045097 76.3657
3.1478801 -80.073402 76.139999
3.1131001 -80.2108 76.409302
2.8861301 -80.205498 76.179901
2.8596599 -80.332001 76.435204
2.6083801 -80.306801 76.200798
2.59479 -80.425102 76.454498
3.4734099 -79.563103 75.4785
3.4554901 -79.7276 75.778702
3.18981 -79.719597 75.487198
3.17259 -79.899696 75.820396
2.93363 -79.836304 75.4888
2.9107201 -80.029099 75.8489
3.4619999 -79.2938 74.932503
3.48051 -79.422798 75.201401
3.1808701 -79.424896 74.900002
3.1984501 -79.563301 75.183098
2.9433999 -79.509903 74.852303
2.9509101 -79.663597 75.157097
2.72825 -79.569199 74.796997
2.7163301 -79.744698 75.127296
2.6803999 -79.931396 75.483498
2.6423199 -80.129204 75.858803
4.1401401 -79.1045 75.455902
4.4419198 -78.817902 75.458099
4.7349801 -78.423599 75.491501
4.1190901 -79.256897 75.701897
4.4197898 -78.987503 75.7006
4.7049098 -78.626099 75.745796
4.0743299 -79.421501 75.962898
4.3681798 -79.162498 75.956596
4.6443801 -78.829102 76.009903
3.7469299 -79.6707 76.013298
3.7841101 -79.506401 75.733902
3.8039401 -79.353401 75.465897
4.76226 -77.9869 74.9132
4.7462401 -78.205597 75.214798
4.4486098 -78.470001 74.917297
4.44558 -78.647003 75.2006
4.1409202 -78.827797 74.936302
4.1461601 -78.968697 75.207703
3.7980299 -79.098 74.944099
3.8112099 -79.2248 75.209702
2.2262001 -79.189598 74.070396
2.2537301 -78.925797 73.905403
2.3441701 -78.655403 73.7994
2.3636 -79.209 74.105797
2.4034901 -78.990402 73.938599
2.53496 -78.806602 73.846001
2.51124 -79.226799 74.166397
2.5596099 -79.059601 74.007599
2.6728499 -78.942802 73.934196
2.91682 -78.864899 73.931099
3.2474 -78.746803 73.9347
2.75998 -79.084396 74.090698
2.98859 -79.0215 74.119598
3.2950699 -78.903503 74.138
2.8342299 -79.223396 74.305199
3.0532701 -79.158798 74.357597
3.34396 -79.028999 74.384201
2.8970499 -79.364998 74.564003
3.12448 -79.291801 74.622498
3.4079299 -79.160202 74.655602
3.5760701 -77.077698 73.7145
3.71735 -77.304298 73.609596
3.87027 -77.617798 73.6063
3.1261799 -77.450104 73.763603
3.2857299 -77.670303 73.669098
3.45784 -77.973396 73.664902
2.7048199 -77.811302 73.779602
2.87187 -78.000099 73.704903
3.0541899 -78.263199 73.710197
3.1765699 -78.526299 73.789001
3.63045 -78.520599 73.9067
3.56902 -78.275002 73.750298
4.0365 -78.193298 73.859001
3.9744 -77.933403 73.697197
3.9967899 -76.713699 73.623299
4.3829002 -76.314598 73.544403
4.1356602 -76.922302 73.523499
4.5316701 -76.490303 73.456001
4.28373 -77.216499 73.540001
4.6868401 -76.746101 73.495499
4.4414201 -77.781898 73.813202
4.3843098 -77.521896 73.643097
4.8378801 -77.272102 73.776901
4.7877898 -77.024101 73.605698
4.0770898 -78.365898 74.070503
4.1054802 -78.5047 74.330002
3.6717401 -78.6828 74.114197
3.7114501 -78.8097 74.366501
3.7590499 -78.953003 74.653801
4.1268001 -78.664597 74.631699
4.4710798 -77.964699 74.0355
4.8534098 -77.456497 74.0084
4.4772 -78.116302 74.303703
4.8387299 -77.613998 74.287598
4.46387 -78.287102 74.608101
4.7999401 -77.788101 74.597
5.3639302 -74.023102 74.012199
5.48458 -73.167 74.201897
5.59868 -72.170799 74.332199
5.5570502 -74.076401 73.972397
5.67978 -73.218597 74.183098
5.7873402 -72.226303 74.332298
5.7708502 -74.165497 74.020401
5.89887 -73.301804 74.240799
6.0014501 -72.310898 74.406197
6.32687 -70.2948 74.860199
6.2820501 -71.380096 74.764603
6.23453 -72.498398 74.624199
6.30935 -70.2397 74.6483
6.2263999 -71.3078 74.602402
6.1590199 -72.4077 74.492302
6.21381 -70.1772 74.486603
6.0917902 -71.227798 74.486801
5.93326 -74.279999 74.090401
6.0662198 -73.4039 74.313599
6.01582 -74.404602 74.211998
6.1508298 -73.5093 74.434402
5.6071301 -74.902603 73.787102
5.37851 -75.561302 73.599602
5.4075699 -74.784302 73.741096
5.1964302 -75.398598 73.551598
5.2223401 -74.713997 73.798599
5.02248 -75.298599 73.6222
4.7347202 -75.836899 73.536797
4.89609 -75.9739 73.457497
5.0630398 -76.184502 73.506104
5.7499399 -75.053596 73.860397
5.8194499 -75.210098 73.9869
5.4988098 -75.760498 73.683296
5.55372 -75.953903 73.821198
5.1695199 -76.426697 73.606499
5.2178702 -76.651703 73.763397
6.2772999 -70.393303 75.489197
6.23878 -71.495598 75.336304
6.1884799 -72.641602 75.156998
6.3052201 -70.346397 75.143402
6.27215 -71.4403 75.010498
6.2285099 -72.571198 74.846397
6.0134501 -74.527496 74.426399
6.1465201 -73.606003 74.648003
5.9706998 -74.657898 74.727798
6.1020799 -73.707298 74.951103
4.9100199 -69.643997 81.658997
4.6347299 -71.272903 81.247803
6.2673602 -70.438202 75.872101
6.2705302 -70.506798 76.2313
6.2216401 -71.555298 75.7183
6.2211099 -71.6259 76.098503
6.1623902 -72.7286 75.534302
6.1528902 -72.835098 75.921303
5.9333601 -74.809097 75.091599
6.0680399 -73.8293 75.320999
5.9021301 -74.990898 75.471703
6.04704 -73.977203 75.705902
5.78686 -75.491997 74.5075
5.53371 -76.253304 74.345497
5.82026 -75.350998 74.205399
5.5580802 -76.109497 74.045303
5.2257199 -76.824699 73.994202
5.2040501 -76.976303 74.2854
5.7523899 -75.655296 74.868202
5.7150502 -75.856499 75.243797
5.4999399 -76.420197 74.696701
5.45858 -76.628403 75.060699
5.1633601 -77.147598 74.614502
5.1191201 -77.355103 74.953903
6.2567301 -70.593803 76.8246
6.1989598 -71.800003 76.7556
6.11696 -73.112099 76.600899
6.2785902 -70.520103 76.526398
6.2243299 -71.700401 76.431396
6.1473198 -72.961197 76.269501
5.8660798 -75.210899 75.8265
6.0272899 -74.154198 76.059998
5.8124099 -75.4664 76.1632
5.9865899 -74.362198 76.395798
5.40763 -76.884201 75.403603
5.6657901 -76.103401 75.596199
5.34763 -77.164803 75.720901
5.6020198 -76.384003 75.926697
5.0831499 -77.601402 75.277603
5.0468798 -77.859299 75.575996
5.27737 -77.449501 76.019798
5.1863399 -77.756203 76.327202
4.9973402 -78.104897 75.8507
4.9232001 -78.356499 76.133003
5.5208302 -76.687599 76.248199
5.7280302 -75.7575 76.4991
5.4116902 -77.034897 76.581497
5.60074 -76.103401 76.847397
5.96981 -70.751099 77.693497
5.9412398 -72.153702 77.473297
5.8852501 -73.553703 77.264801
6.1751599 -70.628899 77.1996
6.11234 -71.942703 77.109703
6.03338 -73.298401 76.941101
5.9021702 -74.605797 76.734497
5.7591 -74.897903 77.077103
5.6821699 -72.344002 77.815804
5.4650898 -73.889198 77.828598
5.7477698 -73.660698 77.473099
5.4161901 -76.515404 77.227699
5.5573902 -75.188499 77.422203
5.1515002 -76.9543 77.687202
5.3362699 -75.307899 77.766602
5.06745 -78.099098 76.656601
5.2662501 -77.444801 76.931801
4.9367499 -78.437302 76.951401
5.0989099 -77.801498 77.279099
4.9354801 -78.093697 77.573402
4.66435 -78.878098 77.416901
4.8441 -78.614601 77.155098
4.08956 -79.542999 77.196297
4.27806 -79.413002 76.927101
4.4241199 -79.251404 76.628098
4.37323 -79.277 77.279503
4.5573702 -79.096298 77.030098
4.6934099 -78.892097 76.757004
6.0287099 -70.107803 74.3647
5.8916702 -71.149597 74.391197
5.8565001 -70.0569 74.349297
5.7167001 -71.094101 74.380096
6.4437299 -66.481499 73.921898
6.7162399 -66.518303 73.916298
6.9074702 -66.616898 74.130096
6.3413901 -67.360901 73.998199
6.5996399 -67.391899 74.003304
6.7818699 -67.475502 74.207397
6.2004299 -68.279999 74.125298
6.4307699 -68.316101 74.136497
6.60711 -68.389 74.317398
6.8541598 -66.726303 74.494499
6.7009802 -66.8396 74.934303
6.73528 -67.560303 74.542198
6.5942798 -67.633499 74.954102
6.59412 -68.455399 74.601097
6.49156 -68.507004 74.950104
6.0276899 -69.148903 74.2547
6.2231398 -69.192596 74.269501
6.4000301 -69.260201 74.421097
6.3984199 -69.364601 74.920097
6.4406199 -69.318199 74.642502
6.5000801 -67.831398 75.835602
6.4001098 -68.609299 75.715698
6.64429 -66.883202 75.390198
6.5225701 -67.698097 75.394402
