# .PCD v.7 - Point Cloud Data file format
VERSION .7
FIELDS x y z
SIZE 4 4 4
TYPE F F F
COUNT 1 1 1
WIDTH 1592
HEIGHT 1
VIEWPOINT 0 0 0 1 0 0 0
POINTS 1592
DATA ascii
-5.8775401 -25.338699 77.7453
-5.44909 -23.8941 77.988098
-5.3197298 -25.261801 78.230598
-6.3035302 -26.624901 77.3964
-6.2157202 -27.640499 77.547699
-5.7738099 -26.5165 77.925598
-5.6838598 -27.502899 78.068703
-5.2055702 -26.4093 78.400497
-5.1083202 -27.358 78.5373
-6.1317902 -28.5327 77.675003
-6.0420399 -29.3608 77.763702
-5.5996099 -28.368999 78.194801
-5.5107799 -29.1705 78.293602
-5.0237098 -28.189301 78.662697
-4.9507599 -28.9611 78.767403
-5.9541101 -30.1759 77.785103
-5.4322 -29.9561 78.336403
-4.8915901 -29.7148 78.836197
-1.50679 -8.0486603 75.247398
-2.9274199 -8.6095695 75.272301
-1.49234 -8.5541096 75.322304
-2.9009099 -9.0956202 75.343498
-1.47916 -9.0756903 75.3992
-2.8769701 -9.6046305 75.422203
-4.1712198 -9.1737804 75.103104
-5.1743798 -9.6725597 74.806
-4.13731 -9.64746 75.177101
-5.1392398 -10.1354 74.885498
-4.1069698 -10.152 75.260498
-5.1072001 -10.5973 74.972603
-5.9362602 -9.6040697 74.395897
-5.9563799 -9.0438299 74.307701
-5.97191 -8.4314404 74.2136
-6.4935999 -9.9602003 74.043701
-6.5014801 -9.4263496 73.9562
-6.5064101 -8.8176498 73.8713
-7.0128598 -10.2883 73.6334
-7.01196 -9.7610798 73.552399
-7.0092802 -9.1817799 73.471901
-5.9855199 -7.7906799 74.115997
-6.0012398 -7.1507702 74.0177
-6.51267 -8.1802101 73.7836
-6.5220098 -7.5377898 73.695
-7.01018 -8.5444498 73.3974
-7.0153499 -7.8973899 73.32
-6.02175 -6.5354099 73.921303
-6.04282 -5.9407001 73.826103
-6.53474 -6.91049 73.607002
-6.5483699 -6.29882 73.518799
-7.02388 -7.2564101 73.240601
-7.0334401 -6.6245399 73.1586
-6.0597601 -5.3561902 73.730202
-6.07335 -4.7726598 73.630302
-6.56042 -5.6974201 73.428596
-6.5711699 -5.0963302 73.333603
-7.0419998 -5.9998298 73.073196
-7.0507998 -5.3734198 72.9814
-6.0866399 -4.1790299 73.522903
-6.1073599 -3.5550799 73.403503
-6.5826998 -4.4819298 73.229698
-6.6009698 -3.83042 73.112396
-7.0622902 -4.7316499 72.880096
-7.0808201 -4.0489502 72.7649
-6.1409101 -2.8644099 73.266296
-6.1790299 -2.0157299 73.097397
-6.6297202 -3.1049299 72.9758
-6.6598501 -2.2265699 72.809601
-7.1080799 -3.28916 72.629898
-7.1331 -2.3860099 72.468002
-5.8805399 -10.5215 74.568001
-5.9101901 -10.083 74.482002
-6.4576898 -10.8753 74.211304
-6.4788499 -10.4293 74.128899
-6.9921098 -11.229 73.787804
-7.0065699 -10.769 73.7108
-6.9706802 -11.7004 73.868202
-6.4324698 -11.3357 74.295097
-5.8508701 -10.9789 74.653603
7.2774901 -37.775101 66.387398
6.8703399 -38.136101 65.512604
6.3684502 -38.511101 64.650902
7.5060902 -37.249401 66.526398
7.0419898 -37.612499 65.503197
6.46702 -38.000301 64.509201
7.72719 -36.784302 66.620201
7.2007198 -37.153702 65.400497
6.5707698 -37.5429 64.266098
3.72264 -39.695801 61.875
3.7302101 -39.2169 61.523399
3.7218499 -38.7696 61.0896
4.4078202 -39.5826 62.287701
4.4442701 -39.151199 61.946201
4.4716601 -38.751301 61.523899
5.0992398 -39.3274 62.920799
5.1504798 -38.910801 62.606602
5.2009101 -38.529598 62.209702
0.45106301 -38.7085 60.338501
1.33139 -38.648701 60.448898
2.1745501 -38.613701 60.6563
0.51736599 -39.1926 60.770901
1.41655 -39.150501 60.904701
2.2593501 -39.123001 61.116699
0.582555 -39.752899 61.157101
1.49447 -39.7104 61.292702
2.3310599 -39.6754 61.497799
5.8967299 -38.0639 63.163101
5.8295898 -38.478802 63.502899
5.7663999 -38.938 63.748798
2.9638801 -38.683998 60.843399
3.01687 -39.172298 61.291302
3.05304 -39.696098 61.6572
7.9287901 -36.367298 66.6772
7.33006 -36.776001 65.202103
6.64816 -37.174099 63.8993
7.6951399 -36.0079 66.665604
7.01794 -36.459099 64.927101
6.4045501 -36.882099 63.470798
5.9557099 -37.6978 62.7192
5.2337399 -38.168701 61.735298
5.7643099 -37.470901 62.366001
5.1142802 -37.9935 61.467899
4.4714098 -38.4296 61.123501
3.6796 -38.468102 60.742298
4.3874302 -38.256599 60.816601
3.59831 -38.294701 60.397598
2.87643 -38.390701 60.5257
2.0606999 -38.3377 60.363998
2.7644 -38.210602 60.1572
1.92544 -38.159302 59.985199
1.22769 -38.406399 60.180801
0.37934601 -38.478298 60.070499
1.10904 -38.246399 59.798
0.30086699 -38.331001 59.689098
8.7482901 -34.359901 70.410301
8.5953102 -35.0653 69.752403
8.2931099 -35.730099 69.167603
8.3261604 -35.306301 68.610397
8.3609304 -35.7803 68.277702
8.0937204 -36.293201 67.929199
6.6605201 -42.941799 78.969101
6.6494799 -42.0709 78.845703
5.9873199 -42.817902 80.068802
5.9545798 -41.946098 79.924004
5.2361202 -42.688301 80.956497
5.1958499 -41.8148 80.789497
6.6668901 -41.240398 78.637802
6.6953101 -40.409302 78.351997
5.9539399 -41.102299 79.710403
5.98493 -40.252899 79.4217
5.18922 -40.959599 80.5672
5.2285099 -40.0979 80.277901
4.0181098 -44.581299 65.083603
3.5234499 -44.637798 64.856903
2.9361701 -44.696201 64.651299
4.0264101 -44.160099 64.870598
3.5318301 -44.206501 64.637901
2.93785 -44.256699 64.434799
2.9339399 -43.8853 64.227501
2.9225299 -43.564201 64.028603
3.5251901 -43.8447 64.425797
3.51109 -43.534401 64.222702
4.0115099 -43.805302 64.658203
3.9915099 -43.4977 64.449997
5.2284799 -43.888599 65.961098
5.84056 -43.673698 66.780502
6.39463 -43.444099 67.718597
5.20574 -44.3092 66.129402
5.7982602 -44.110298 66.912697
6.33776 -43.8979 67.818497
6.5023899 -42.612801 67.408096
6.4502001 -43.002102 67.577797
5.8772402 -42.899502 66.389801
5.8670001 -43.268101 66.6119
5.21737 -43.1791 65.546204
5.2269802 -43.513302 65.767601
-1.02628 -38.668499 82.612999
-1.10978 -39.737202 82.770302
-1.14052 -40.760502 82.891602
-0.13798501 -38.8391 82.738197
-0.240219 -39.900398 82.907898
-0.272012 -40.898499 83.042801
0.805785 -39.192299 82.803299
0.69113803 -40.234299 82.9869
0.64849597 -41.1852 83.144302
0.64080602 -41.9902 83.349602
-0.268767 -41.778801 83.198799
-1.12321 -41.681198 83.027298
7.4769802 -43.132999 76.272499
7.6589499 -43.130001 74.9916
7.7315602 -43.055302 73.904602
7.4810801 -42.268101 76.265701
7.6692901 -42.366199 75.013
7.7385302 -42.347301 73.880203
7.7511501 -41.7756 73.796898
7.7525401 -41.145802 73.607201
7.6835699 -41.561401 74.888298
7.6882501 -40.9254 74.694901
7.4963298 -41.4459 76.1259
7.5184202 -40.716202 75.855698
7.2288499 -43.035999 69.788399
7.1943898 -43.510601 69.867104
6.86022 -43.230202 68.729698
6.80691 -43.693901 68.811401
6.9781599 -42.3559 68.480202
7.3126602 -42.140999 69.528099
6.9180398 -42.785801 68.612503
7.2718701 -42.5891 69.671097
7.6662002 -42.6805 71.9217
7.6764102 -43.218399 71.998901
7.4979801 -42.856899 70.8685
7.4893799 -43.355099 70.952301
7.54248 -41.8904 70.573601
7.68401 -41.636398 71.602501
7.5215998 -42.3992 70.740196
7.6771698 -42.210098 71.7864
7.1403298 -43.0429 77.676804
7.1434598 -42.171001 77.594803
7.1760602 -41.353401 77.394302
7.2031698 -40.5494 77.110397
7.7379098 -42.4977 72.914902
7.7494602 -42.007801 72.787102
7.7502098 -41.384499 72.596802
7.7446098 -43.062 72.933899
2.0769 -44.358101 64.120796
2.0966001 -44.800201 64.330299
1.03172 -44.443401 63.879002
1.08104 -44.8862 64.081703
0.953794 -43.722401 63.498001
2.0381501 -43.646999 63.727699
0.99049598 -44.0653 63.687099
2.0591099 -43.981899 63.921902
2.6056199 -42.225101 83.059799
2.6354401 -41.391102 82.8368
1.63887 -42.129501 83.305702
1.6740299 -41.321999 83.087097
1.72162 -40.467499 82.851097
2.6772101 -40.548401 82.588898
1.83244 -39.456902 82.661499
2.7797501 -39.656601 82.313904
4.6005101 -44.055599 65.310501
4.5890298 -44.4716 65.506599
4.5666499 -43.3811 64.888
4.5854101 -43.6973 65.102898
6.7322898 -39.563499 77.984299
7.2179098 -39.817402 76.795502
7.51085 -40.0555 75.592102
6.76057 -38.8363 77.643997
7.2128 -39.101799 76.475304
7.4790702 -39.357601 75.299202
7.43642 -38.6306 74.971901
7.4012299 -37.8895 74.622704
7.19138 -38.366199 76.128098
7.17342 -37.6208 75.762497
6.7722802 -38.096699 77.285797
6.78368 -37.350899 76.9132
1.05713 -36.953201 82.349503
0.101205 -36.619099 82.2854
-0.799263 -36.492901 82.186996
0.930134 -38.077301 82.593697
-0.019696999 -37.734901 82.5326
-0.91515398 -37.5755 82.416298
-0.58010399 -34.605999 81.7864
-0.68534201 -35.541901 82.001099
0.330322 -34.775501 81.879601
0.21763401 -35.689999 82.098099
1.2964799 -35.118301 81.923103
1.17777 -36.006901 82.143303
6.1918602 -37.091499 77.9618
5.5336599 -36.8605 78.841301
6.14536 -37.840698 78.332001
5.4565802 -37.614399 79.201897
6.09657 -38.584 78.688004
5.3764801 -38.361099 79.546501
5.2948198 -39.205799 79.925903
6.0377898 -39.370098 79.055603
7.35078 -40.968601 69.185204
7.33705 -41.566898 69.371902
7.0977101 -41.243401 68.252998
7.0538998 -41.8158 68.399002
6.76228 -41.5359 67.323097
6.6656699 -42.106899 67.414902
7.37501 -39.6493 68.630798
7.3597398 -40.323399 68.931602
7.1353798 -39.962898 67.662201
7.1173902 -40.6208 67.992798
6.8615899 -40.258301 66.8368
6.8224101 -40.919498 67.136597
6.5819802 -40.5369 66.172501
6.5531902 -41.173401 66.517197
6.4934301 -41.770401 66.739799
6.2239399 -40.834702 65.5494
6.24998 -41.415798 65.983597
6.2869 -41.9189 66.375198
6.3757501 -42.3232 66.846802
2.8551099 -42.955898 63.5951
2.9019499 -43.2631 63.823799
1.9630899 -42.987999 63.2906
2.0091901 -43.319801 63.520699
0.88188499 -43.028198 63.065102
0.917732 -43.3783 63.2924
0.80561799 -42.1525 62.493198
1.81187 -42.125401 62.692001
2.6658399 -42.097401 62.962101
0.84618503 -42.661999 62.808998
1.8941 -42.634998 63.025398
2.77001 -42.616402 63.3204
7.6459398 -40.3839 71.2117
7.6697102 -41.022499 71.414597
7.5356798 -40.676701 70.194702
7.5436001 -41.296299 70.394897
7.5376101 -39.326302 69.682899
7.6217699 -39.005798 70.7314
7.5310302 -40.013699 69.953903
7.62747 -39.705399 70.982201
7.7234101 -40.504101 73.405701
7.7260599 -40.755798 72.402397
7.6775899 -39.834099 73.182198
7.6895499 -40.101398 72.192703
7.6329498 -39.128601 72.932098
7.65734 -39.4095 71.960503
7.6022601 -38.4119 72.6455
7.6380701 -38.698299 71.709999
7.6595502 -40.269199 74.481903
7.6148701 -39.588799 74.218597
7.5680099 -38.877998 73.914299
7.5314798 -38.150101 73.5896
3.0387101 -37.5126 81.8517
2.09396 -37.252102 82.2061
2.9033301 -38.5989 82.101601
1.95977 -38.362999 82.450401
2.3478401 -35.402199 81.761299
2.223 -36.293201 81.986397
3.29688 -35.656399 81.393402
3.1714599 -36.559299 81.625099
5.2152801 -42.8713 65.290802
5.2017698 -42.5513 64.988503
5.84551 -42.600899 66.0625
5.8074999 -42.2439 65.703003
5.7602401 -41.743698 65.300903
5.1554399 -42.072498 64.616699
5.7171202 -41.178101 64.860603
5.1005001 -41.513901 64.1884
3.9618101 -42.894001 63.992001
3.9834599 -43.2062 64.236099
3.46029 -42.9417 63.783798
3.49685 -43.245098 64.016403
3.82658 -41.960499 63.2915
3.9024501 -42.515301 63.686001
3.28722 -42.0546 63.118599
3.3831899 -42.592602 63.496799
4.55479 -42.760899 64.3936
4.5063801 -42.339401 64.0588
4.4430799 -41.780602 63.647202
4.5655098 -43.080601 64.659302
7.4875102 -38.307899 67.988297
7.41085 -38.972198 68.3125
7.2550602 -38.638699 66.950104
7.1742001 -39.2971 67.3097
6.9661598 -38.956799 66.051903
6.8942099 -39.607101 66.448799
7.8010602 -36.986599 68.279701
7.6223698 -37.653599 67.841698
7.59865 -37.378799 67.339302
7.39535 -37.994999 67.012802
7.0918498 -38.349098 66.1996
5.0531001 -40.327801 63.323502
4.3786702 -40.598202 62.7859
3.73313 -40.7659 62.432201
5.0650902 -39.806599 63.1572
4.3832202 -40.0714 62.565899
3.72018 -40.217999 62.177101
3.7681701 -41.3591 62.817699
4.3984199 -41.182999 63.168201
5.0647101 -40.917 63.708698
2.57107 -41.503101 62.520599
1.7330101 -41.5522 62.2887
0.76077002 -41.5905 62.115398
2.4860899 -40.880501 62.133999
1.65555 -40.945099 61.940102
0.70891303 -40.9958 61.795601
0.64811498 -40.372501 61.504902
1.57505 -40.324299 61.643398
2.40607 -40.271599 61.840302
-0.23446999 -30.763399 80.5569
-0.30715099 -31.7166 80.887802
-0.39712301 -32.7644 81.237701
0.76924503 -30.942801 80.597298
0.67195898 -31.8813 80.9319
0.556431 -32.9221 81.296097
1.78993 -31.3251 80.5895
1.6794699 -32.2244 80.9216
1.55108 -33.240501 81.2967
1.42117 -34.207199 81.638901
0.441796 -33.875999 81.614304
-0.487019 -33.709499 81.536003
5.6092401 -36.107399 78.464401
6.2470002 -36.3428 77.5793
6.81393 -36.605598 76.532204
5.6880999 -35.347698 78.112801
6.3197899 -35.616199 77.201103
6.8732901 -35.8815 76.160599
6.96631 -35.200401 75.816299
7.0826101 -34.580002 75.5103
6.4158502 -34.9356 76.846901
6.5287499 -34.320499 76.529999
5.7756901 -34.566898 77.833099
5.8754802 -33.8647 77.576897
7.8920698 -36.639999 69.147499
7.9003301 -36.361599 69.908699
7.73912 -37.3395 68.808098
7.7673202 -37.018501 69.898903
7.62813 -37.971901 69.106499
7.6820798 -37.640499 70.194702
7.6360402 -38.310902 70.467598
7.5643601 -38.640202 69.396797
7.6148801 -37.0243 72.040001
7.6726999 -36.384701 71.761002
7.7759099 -35.7934 71.509102
7.5290298 -36.727402 72.945602
7.5715499 -36.0732 72.657501
7.6585398 -35.472198 72.401497
7.40345 -36.438 73.932098
7.4449501 -35.769901 73.6278
7.5272398 -35.158901 73.3601
7.3895502 -37.151501 74.269501
7.51719 -37.425999 73.260803
7.59407 -37.705601 72.338699
6.7364001 -38.690601 65.454002
6.6463599 -39.264301 65.326599
6.2906899 -39.046799 64.710403
6.2400799 -39.598202 64.694702
6.2188401 -40.218899 65.094002
6.5977602 -39.9035 65.747704
7.3789101 -34.8605 74.421501
7.27985 -35.478901 74.708603
7.2133298 -36.156399 75.033997
7.1787 -36.8773 75.391403
7.6387801 -37.995701 71.441902
7.6692801 -37.328602 71.1474
7.7410102 -36.700199 70.867302
7.8586102 -36.115898 70.611298
3.4154301 -34.729599 81.1082
3.5260601 -33.796001 80.788803
2.4740701 -34.4785 81.471298
2.59951 -33.518902 81.132301
2.7188201 -32.554501 80.7761
3.6278601 -32.8941 80.466103
2.8236799 -31.716299 80.461998
3.72071 -32.1157 80.175201
5.6949601 -39.972198 63.997101
5.6941199 -40.575001 64.387604
5.71982 -39.440601 63.910599
3.1415801 -40.838902 62.260601
3.2054901 -41.451801 62.654701
3.09219 -40.258701 61.981602
8.86584 -33.4813 71.607201
8.8259201 -32.860001 72.334198
8.6350298 -34.400299 70.854797
8.5652199 -33.8792 71.653603
8.3439503 -35.2024 70.199898
8.3045702 -34.763401 71.037102
8.0242701 -36.3577 68.693199
8.0941801 -35.929001 69.653603
8.0805597 -35.571098 70.475998
8.7330198 -32.374401 72.9095
8.60989 -31.967899 73.407997
8.4724102 -33.4492 72.310997
8.3603001 -33.073002 72.892899
8.2313499 -34.390598 71.742104
8.12848 -34.0588 72.376999
8.02386 -35.262798 71.187103
7.9300399 -34.9832 71.846802
8.4539003 -31.637699 73.879997
8.2643099 -31.391001 74.403603
8.2163401 -32.747101 73.456802
8.0504999 -32.482201 74.0728
7.9920101 -33.7673 73.002998
7.8408298 -33.528301 73.681396
7.8013 -34.735699 72.511497
7.66152 -34.543098 73.224503
8.0275002 -31.275499 75.013901
7.6501999 -31.366501 75.629799
7.8541999 -32.323002 74.765198
7.5119901 -32.3382 75.449402
7.67173 -33.380001 74.430397
7.3558202 -33.351601 75.188103
7.5103502 -34.307301 74.1726
7.2118201 -34.028801 75.246201
7.0629401 -31.3251 76.378799
6.3972998 -31.1717 77.1455
6.93223 -32.268101 76.242203
6.26051 -32.030499 77.086197
6.7872801 -33.1824 76.1035
6.1199698 -32.695999 77.162697
6.6519899 -33.750999 76.2808
5.9902601 -33.251499 77.3545
4.05937 -30.089001 79.414497
3.13922 -29.7008 79.778503
2.0738399 -29.242201 79.972603
3.97575 -30.6194 79.566399
3.0653999 -30.2138 79.920403
2.0093801 -29.7777 80.090897
3.8917 -31.066401 79.751099
2.9899099 -30.6532 80.077202
1.94374 -30.2216 80.227798
3.8073201 -31.532 79.944099
2.9114399 -31.113001 80.240601
1.87421 -30.691099 80.3722
0.984083 -28.7722 79.966202
-0.108138 -28.548901 79.896797
0.93789601 -29.308399 80.083099
-0.131547 -29.0725 80.020897
0.88992602 -29.802999 80.215302
-0.15800101 -29.606899 80.155098
0.83769798 -30.2848 80.371201
-0.188721 -30.094999 80.323402
7.8309202 -36.8218 67.617798
4.7346401 -30.407499 78.948402
5.2688398 -30.682899 78.415802
5.8015099 -30.941 77.825996
4.63135 -30.9963 79.078903
4.5327501 -31.468599 79.273903
5.1444702 -31.362499 78.494598
5.0283499 -31.8638 78.684601
5.6653199 -31.739599 77.823303
5.5342498 -32.263599 78.000603
4.43853 -31.9624 79.482002
4.34832 -32.5504 79.718399
4.9212699 -32.389702 78.893997
4.8235102 -32.9911 79.129997
5.4143801 -32.807499 78.2033
5.30829 -33.415501 78.435402
4.2596698 -33.289101 79.994202
4.1675801 -34.1376 80.2939
4.7333899 -33.708401 79.398598
4.6452098 -34.518799 79.687401
5.2157102 -34.121601 78.699898
5.1303802 -34.911301 78.985397
4.0682602 -35.0368 80.595299
3.95998 -35.949501 80.873901
4.55339 -35.3862 79.979599
4.4549799 -36.2785 80.254898
5.0454702 -35.759701 79.275703
4.9566998 -36.636902 79.5522
3.8427701 -36.850498 81.112
3.71858 -37.7761 81.339302
4.3492198 -37.168598 80.498802
4.23877 -38.020199 80.750801
4.8619099 -37.424 79.876999
4.76367 -38.172901 80.209602
3.5938699 -38.834702 81.600098
3.4821899 -39.748798 81.922096
4.1290002 -38.9384 81.128502
4.0334702 -39.8428 81.460297
4.6668801 -39.061501 80.591904
4.5866899 -39.959702 80.933098
3.39171 -40.623199 82.2099
3.3569801 -41.4767 82.455597
3.9587901 -40.7173 81.750603
3.9362299 -41.5811 81.990898
4.5310502 -40.8302 81.223602
4.52635 -41.693501 81.455597
3.33792 -42.335602 82.6735
3.9356 -42.4547 82.196098
4.5508099 -42.569801 81.643402
-6.5992298 -38.097301 65.697701
-6.9105301 -37.565399 65.926903
-7.25525 -37.061001 66.153397
-6.10536 -38.431 64.870499
-6.3503599 -37.902699 64.931099
-6.6238899 -37.4133 64.933502
-5.5153399 -38.775799 64.059601
-5.6982799 -38.253201 63.985699
-5.8923998 -37.776402 63.816002
-2.57389 -39.829102 61.551701
-3.29111 -39.748199 61.891499
-4.0488901 -39.526402 62.452599
-2.69192 -39.3396 61.233002
-3.42469 -39.305698 61.587898
-4.1879802 -39.098 62.1842
-2.80269 -38.878601 60.836102
-3.5589001 -38.891201 61.207901
-4.33601 -38.700699 61.837601
-0.43598101 -38.675598 60.383099
-0.38834 -39.182701 60.825699
-0.33665901 -39.747501 61.2006
-1.28374 -38.667198 60.526798
-1.23664 -39.186298 60.962799
-1.18172 -39.747398 61.320202
-5.12428 -38.264599 62.7491
-4.96207 -38.698299 63.026798
-4.8119998 -39.170502 63.214901
-2.05986 -38.7644 60.6521
-1.98518 -39.265202 61.0681
-1.9007601 -39.799198 61.404701
-0.47629401 -38.428699 60.1297
-1.31394 -38.382198 60.2621
-0.515504 -38.263 59.760899
-1.33711 -38.193001 59.9105
-2.1138 -38.459 60.371498
-2.8960199 -38.562599 60.533199
-2.1582999 -38.264099 60.041199
-2.98684 -38.374401 60.232399
-3.6859 -38.5518 60.858501
-4.4867601 -38.317402 61.4216
-3.83268 -38.369499 60.597
-4.6894999 -38.138699 61.202599
-5.2916598 -37.872501 62.373299
-6.1013298 -37.366699 63.546799
-5.5599098 -37.633202 62.088699
-6.4193101 -37.054501 63.199001
-6.88237 -36.987099 64.849197
-7.5651798 -36.598701 66.327698
-7.2737198 -36.654999 64.690804
-7.9992599 -36.207001 66.4599
-8.8164101 -34.548599 70.2472
-8.5238199 -35.500599 68.428398
-8.3949299 -35.313999 69.429802
-8.0808096 -36.026299 67.939598
-8.0234804 -36.017101 68.712898
-7.72435 -36.5807 67.466599
-7.6002202 -43.551899 77.433701
-7.1698799 -43.373501 78.677597
-6.6501498 -43.193401 79.683701
-7.5984802 -42.657501 77.383797
-7.1419401 -42.481998 78.589302
-6.6100998 -42.303699 79.563103
-7.5713501 -41.7817 77.301903
-7.0961599 -41.604 78.468697
-6.5570698 -41.421902 79.414101
-7.5305099 -40.8922 77.148804
-7.0380402 -40.7048 78.3013
-6.4877601 -40.516899 79.236603
-2.0106299 -44.8298 64.456596
-2.10518 -44.402 64.262901
-1.47999 -44.8437 64.337303
-1.57774 -44.4076 64.132896
-0.86176699 -44.852402 64.257202
-0.95637298 -44.409698 64.050499
-1.02881 -44.034199 63.8536
-1.64354 -44.039501 63.936901
-2.1598001 -44.038601 64.072502
-1.08172 -43.708401 63.665901
-1.68972 -43.722301 63.749901
-2.1978199 -43.722099 63.885201
-3.5044301 -44.234798 65.090202
-3.3975799 -44.665199 65.2304
-4.2758799 -44.075802 65.768204
-4.14709 -44.523102 65.869598
-5.0133801 -43.8993 66.570999
-4.8692298 -44.365398 66.6362
-5.25738 -43.033901 66.3321
-4.4428 -43.270302 65.448196
-3.6187 -43.498798 64.738197
-5.14573 -43.441002 66.467102
-4.3756099 -43.655998 65.633598
-3.57251 -43.846802 64.9282
-1.91869 -38.912498 82.560097
-2.82811 -39.340401 82.441498
-2.00068 -39.978199 82.713097
-2.9066601 -40.391998 82.588699
-2.0095501 -40.976002 82.844002
-2.91203 -41.342999 82.736603
-2.8805499 -42.1464 82.946404
-1.98244 -41.854801 83.002602
-7.8172498 -43.811199 74.521301
-7.8891802 -42.937901 74.554802
-7.7051201 -43.811401 73.232399
-7.7894001 -43.0373 73.323303
-7.5395198 -43.7309 72.170601
-7.6177502 -43.0168 72.227097
-7.6742501 -42.3899 72.2108
-7.8466401 -42.1894 73.268097
-7.9323702 -42.0872 74.490196
-7.6981902 -41.7304 72.097801
-7.8621702 -41.522598 73.153
-7.9316401 -41.291302 74.371101
-6.2494798 -43.5839 68.403801
-5.67485 -43.7342 67.457397
-6.1377702 -44.0774 68.430099
-5.53791 -44.212898 67.497299
-5.9281101 -42.818401 67.290199
-5.8043499 -43.270802 67.381798
-6.4500198 -42.639 68.242302
-6.3554201 -43.113602 68.336304
-7.1190801 -43.298 70.361504
-6.7332501 -43.443199 69.3862
-7.0609598 -43.8619 70.359398
-6.6535501 -43.9646 69.403702
-6.8771901 -42.418499 69.210098
-6.8102798 -42.956299 69.317596
-7.2202101 -42.188301 70.177498
-7.1742401 -42.792 70.293503
-7.8153 -43.7061 75.9645
-7.8517799 -42.816002 75.955299
-7.85461 -41.944199 75.916298
-7.8336601 -41.072899 75.778702
-7.40555 -43.138901 71.300301
-7.4544301 -42.6064 71.241402
-7.4875302 -41.954498 71.125099
-7.3400402 -43.726299 71.238998
-0.045079999 -44.441502 63.9114
0.031796001 -44.885201 64.115997
-0.15668 -43.726002 63.529202
-0.107606 -44.0634 63.717499
-4.59021 -42.532001 82.2817
-3.8034799 -42.368999 82.689499
-4.5906601 -41.692402 82.076401
-3.80967 -41.558998 82.480797
-3.7992599 -40.6992 82.263199
-3.73125 -39.673901 82.127602
-4.5752401 -40.84 81.856003
-4.5121698 -39.924301 81.649101
-2.7550199 -44.3465 64.579201
-2.6594601 -44.770901 64.751198
-2.8462501 -43.650002 64.210098
-2.8082199 -43.977501 64.398903
-7.47825 -39.978298 76.9132
-7.4158401 -39.1992 76.7071
-7.7876 -40.277599 75.6073
-7.7219 -39.507702 75.427101
-7.8954301 -40.571301 74.260399
-7.8320198 -39.8167 74.1138
-7.75351 -39.034901 73.927902
-7.6403399 -38.721401 75.210899
-7.3414998 -38.411201 76.473701
-7.6790099 -38.240101 73.717598
-7.5612502 -37.926998 74.971802
-7.2691302 -37.619598 76.219398
-2.63115 -37.0718 82.070297
-2.73335 -38.212002 82.273003
-1.70237 -36.677799 82.147903
-1.81408 -37.801601 82.374702
-1.50123 -34.820801 81.779099
-2.4538801 -35.2099 81.717201
-1.59533 -35.741699 81.980202
-2.5353701 -36.111099 81.902702
-6.7870598 -37.3367 77.328499
-6.8506398 -38.130299 77.584198
-6.9168801 -38.920799 77.818497
-6.2371998 -37.086399 78.257896
-6.2955198 -37.8825 78.509598
-6.3576002 -38.674198 78.738197
-6.4222498 -39.5728 79.000504
-6.9791999 -39.7617 78.059799
-6.6045399 -41.422298 68.013901
-6.1901002 -41.6721 67.146103
-5.6943698 -41.935501 66.291496
-6.5338402 -42.043999 68.139999
-6.0789299 -42.262798 67.244904
-5.5157299 -42.518398 66.352402
-6.7323098 -40.047001 67.603996
-6.3431501 -40.3405 66.687202
-5.9398699 -40.6161 65.912903
-6.6666198 -40.75 67.830101
-6.2690401 -41.025398 66.948097
-5.83076 -41.3008 66.1521
-5.5504699 -40.876801 65.295097
-5.0838399 -41.153198 64.726997
-5.4528198 -41.535599 65.581802
-5.0525498 -41.757999 65.100098
-5.3179998 -42.149601 65.760902
-5.0444498 -42.282902 65.435501
-5.1185198 -42.711399 65.844597
-1.13178 -43.0863 63.2626
-0.214816 -43.058701 63.110401
-1.11993 -43.401501 63.473801
-0.194653 -43.395401 63.3298
-0.21096399 -42.183498 62.542198
-0.21354 -42.6992 62.859501
-1.08376 -42.205799 62.682301
-1.10971 -42.735699 63.012402
-7.2617102 -40.8769 69.938797
-6.96769 -41.152199 68.967003
-7.2463598 -41.546001 70.063103
-6.9277501 -41.799099 69.096497
-7.05862 -39.741299 68.611504
-7.0088 -40.459499 68.803101
-7.3095298 -39.433899 69.626099
-7.2806301 -40.166199 69.792397
-7.6891198 -41.055901 71.980797
-7.6601501 -40.350601 71.848801
-7.4941802 -41.2948 71.010498
-7.48663 -40.607399 70.886101
-7.6286898 -39.608002 71.694298
-7.6071601 -38.840099 71.540001
-7.4811702 -39.880901 70.743202
-7.4854598 -39.134899 70.582703
-7.8407202 -40.8321 73.028397
-7.7925801 -40.0989 72.901604
-7.7340102 -39.328602 72.7509
-7.6813202 -38.541801 72.5783
-4.37219 -37.722401 81.342697
-4.4437399 -38.840302 81.514099
-3.56515 -37.424801 81.795197
-3.6509299 -38.559799 81.977699
-3.4138501 -35.533199 81.4618
-4.2406802 -35.811901 81.030998
-3.4842999 -36.443699 81.6334
-4.3034902 -36.740398 81.191704
-3.66189 -43.177101 64.512299
-4.4393201 -42.951599 65.163597
-3.69226 -42.8405 64.243599
-4.4331899 -42.5746 64.848999
-4.4358802 -42.054199 64.499199
-4.4544201 -41.466801 64.115196
-3.7041299 -42.343899 63.916
-3.7179799 -41.766102 63.5373
-2.27771 -43.099602 63.467701
-1.75011 -43.113201 63.346802
-2.2430699 -43.422298 63.689499
-1.7302001 -43.4259 63.5592
-2.2879 -42.137001 62.835602
-1.72021 -42.1996 62.744301
-2.2836001 -42.7062 63.193001
-1.7366199 -42.750702 63.088699
-2.93835 -43.006699 63.764301
-2.95311 -42.569 63.466099
-2.96577 -41.993698 63.097099
-2.8963101 -43.339199 64.003899
-6.9400301 -38.6502 67.1045
-6.5735002 -38.9641 66.1101
-6.1664901 -39.264702 65.257103
-6.8167601 -39.341301 67.359497
-6.4376202 -39.6478 66.404198
-6.0329599 -39.939301 65.591103
-7.3696599 -37.321602 67.547501
-7.02108 -37.724098 66.602402
-7.11902 -37.984001 66.992203
-6.7672501 -38.3214 66.211502
-6.35359 -38.6619 65.446602
-3.82796 -40.544102 62.762699
-3.9267199 -40.015301 62.643101
-3.07111 -40.7808 62.313301
-3.1698599 -40.246201 62.131802
-2.3749499 -40.9161 62.0439
-2.46404 -40.360298 61.8214
-2.31599 -41.5214 62.398701
-3.00283 -41.379601 62.660702
-3.7577901 -41.149899 63.107399
-1.07902 -41.6008 62.268501
-1.09703 -40.968498 61.9062
-0.22209001 -41.604198 62.154202
-0.24861801 -40.991798 61.819099
-0.288142 -40.366402 61.537102
-1.13283 -40.351799 61.637798
-1.24482 -30.965599 80.552696
-2.2590799 -31.3703 80.499298
-1.2922699 -31.9093 80.875
-2.28775 -32.279999 80.807098
-1.35676 -32.9562 81.224701
-2.3343999 -33.3083 81.152496
-2.3887801 -34.2869 81.464401
-1.4247299 -33.9156 81.528603
-6.1867599 -36.294498 77.9813
-6.1518402 -35.500999 77.719902
-6.7367101 -36.546501 77.053596
-6.71067 -35.7812 76.775101
-7.2160001 -36.829899 75.953102
-7.1946301 -36.063301 75.691002
-7.2124801 -35.3428 75.448799
-6.7171302 -35.065601 76.511497
-6.1398902 -34.6922 77.519897
-7.2627902 -34.687199 75.233498
-6.7527599 -34.4198 76.273598
-6.1550498 -33.965199 77.331596
-7.6009698 -36.950401 68.431702
-7.38306 -37.660198 67.980103
-7.2265701 -38.3283 68.186096
-7.7329998 -36.638599 69.222504
-7.5605602 -37.322701 69.113701
-7.4316201 -38.0014 69.262802
-7.35461 -38.7071 69.444702
-7.1256399 -39.024899 68.403503
-7.6268501 -37.334999 71.237701
-7.6409101 -37.008598 72.219398
-7.6003299 -36.686401 73.290901
-7.6848402 -36.6436 71.092598
-7.6649199 -36.306 72.056503
-7.6052098 -35.973099 73.103104
-7.7870898 -36.004799 70.963203
-7.7341199 -35.660801 71.914597
-7.6536398 -35.321098 72.9412
-7.6262498 -37.449402 73.500198
-7.6483002 -37.760601 72.396896
-7.60396 -38.073002 71.389999
-5.9015098 -38.984798 64.747597
-5.3593798 -39.3176 64.056198
-5.7436399 -39.553902 64.559402
-5.2350202 -39.870499 63.9804
-5.1436901 -40.513699 64.332901
-5.6290398 -40.218498 64.934196
-7.53689 -34.991798 74.082397
-7.4884601 -35.648499 74.270599
-7.4781799 -36.3685 74.486198
-7.50419 -37.135502 74.724899
-7.5080099 -38.3923 70.4179
-7.5630798 -37.665901 70.276398
-7.6554399 -36.982899 70.137199
-7.7908502 -36.348598 70.010498
-4.1835699 -34.8606 80.811401
-3.3541701 -34.590801 81.221603
-4.1344399 -33.903702 80.551598
-3.3039899 -33.612701 80.929604
-3.26424 -32.6306 80.616699
-3.2444201 -31.7778 80.336998
-4.0973401 -32.980701 80.280899
-4.0816798 -32.185001 80.0308
-4.5773401 -40.219398 63.353199
-4.5009599 -40.841801 63.6987
-4.6822 -39.682201 63.321201
-1.76301 -40.959499 61.948399
-1.72758 -41.583698 62.3139
-1.82321 -40.370998 61.699501
-1.20192 -28.786501 79.943703
-2.2818799 -29.2691 79.928497
-1.20452 -29.3241 80.056099
-2.26893 -29.805799 80.0382
-1.21088 -29.819599 80.183899
-2.2590301 -30.2544 80.164902
-1.2213 -30.304001 80.334396
-2.2529099 -30.7292 80.297997
-3.3118401 -29.7351 79.721298
-4.1872401 -30.1255 79.355301
-3.28881 -30.250299 79.850197
-4.1526499 -30.657801 79.4907
-3.26682 -30.6968 79.991898
-4.1195898 -31.1138 79.656197
-3.24879 -31.164301 80.138603
-4.0924602 -31.589001 79.827904
-6.4398398 -31.2169 77.086098
-7.0774598 -31.369499 76.331398
-7.6508899 -31.413799 75.586304
-6.3517799 -32.088299 76.984901
-6.9874802 -32.327099 76.148697
-7.5466099 -32.404598 75.354103
-6.2666998 -32.754601 77.025803
-6.89148 -33.234001 75.974403
-7.43256 -33.432098 75.030998
-6.19876 -33.330101 77.166702
-6.8115702 -33.824799 76.091904
-7.3364902 -34.1059 75.047203
-8.0337601 -31.3358 74.951797
-8.2764502 -31.472401 74.3106
-7.8903999 -32.410198 74.638802
-8.0867701 -32.597698 73.9011
-7.7443099 -33.486599 74.228401
-7.9051499 -33.6674 73.420403
-7.6234298 -34.404499 73.9216
-7.7560401 -34.693699 72.8685
-8.4628601 -31.741501 73.759003
-8.6075897 -32.094799 73.262398
-8.24049 -32.889801 73.245499
-8.3625498 -33.2421 72.647102
-8.0328999 -33.936199 72.692001
-8.1348 -34.2556 72.023399
-7.8594499 -34.917999 72.095299
-7.9393501 -35.194698 71.379402
-8.7108297 -32.525002 72.741997
-8.79877 -33.029999 72.1586
-8.44277 -33.644501 72.034203
-8.4911003 -34.098999 71.353302
-8.1917801 -34.614899 71.3498
-8.2038698 -35.014599 70.612999
-7.97156 -35.503502 70.673798
-7.94872 -35.841599 69.924301
-8.8749704 -33.6618 71.444
-8.5035 -34.639099 70.5429
-8.1651897 -35.476299 69.756401
-7.8621898 -36.226299 69.076897
-7.6774802 -36.673 68.102798
-7.3607602 -37.143101 67.019997
-5.8684602 -30.985201 77.761803
-5.3534698 -30.7244 78.3526
-4.8344202 -30.445499 78.888802
-5.7855301 -31.785601 77.728104
-5.7126498 -32.323502 77.867699
-5.2825899 -31.404699 78.406303
-5.2234702 -31.9202 78.564102
-4.7818999 -31.035801 78.998703
-4.7363801 -31.519501 79.1688
-5.6571598 -32.884899 78.027802
-5.6257701 -33.512299 78.211098
-5.1796598 -32.460999 78.7388
-5.1574001 -33.0793 78.933701
-4.7014599 -32.025398 79.349701
-4.6854501 -32.6278 79.5522
-5.6233401 -34.240799 78.416801
-5.64568 -35.0564 78.632004
-5.1620998 -33.817299 79.150398
-5.18962 -34.652 79.375603
-4.6960702 -33.385502 79.782097
-4.7287798 -34.256901 80.024002
-5.6861401 -35.933998 78.839897
-5.73841 -36.843201 79.023003
-5.2333298 -35.546902 79.593102
-5.2877302 -36.469299 79.783501
-4.7755599 -35.1819 80.257599
-4.8312201 -36.122501 80.4599
-5.7968702 -37.668098 79.246597
-5.8598399 -38.458401 79.472504
-5.34798 -37.3913 79.934196
-5.4128599 -38.277401 80.087402
-4.8916798 -37.052898 80.614502
-4.9566302 -38.0107 80.753304
-5.9272399 -39.397701 79.748199
-5.9956899 -40.3419 79.983002
-5.4812899 -39.242401 80.3685
-5.5490599 -40.187801 80.6035
-5.0239501 -39.106098 80.924004
-5.0898099 -40.056599 81.158997
-6.06703 -41.250999 80.170898
-6.1142902 -42.136002 80.342003
-5.61691 -41.096802 80.801399
-5.6523299 -41.9785 80.991402
-5.1536398 -40.9608 81.365997
-5.17805 -41.8283 81.572899
-6.1487799 -43.026199 80.489098
-5.6729398 -42.863602 81.1623
-5.1866102 -42.6959 81.764503
6.8840899 -50.538101 81.217598
7.1251101 -51.567501 81.248802
7.70961 -50.730701 80.107399
7.7652602 -51.8181 80.038902
8.0639095 -50.833099 78.866997
8.0411997 -52.110001 78.823097
6.7403698 -51.472599 81.6912
3.7909 -51.750301 83.616997
3.2974801 -51.685101 83.802597
2.59938 -51.606899 84.021202
3.9967201 -52.384102 83.796097
3.3487999 -52.467602 84.113602
2.60112 -52.421799 84.356598
1.85057 -51.4874 84.144501
1.04057 -51.324001 84.1633
1.83631 -52.313801 84.4767
1.02215 -52.144299 84.502998
0.133164 -51.115799 84.121498
-0.82733101 -51.015301 84.058296
0.117802 -51.929901 84.482597
-0.83490002 -51.829201 84.439598
3.27653 -51.384701 65.1651
3.4475701 -52.770901 65.017899
2.4572799 -51.384102 64.910004
2.57634 -52.805801 64.770699
1.40345 -51.3731 64.713501
1.47675 -52.7449 64.604599
4.3587799 -50.431099 82.8573
4.9865899 -51.552299 82.9058
5.6673598 -50.5005 82.120499
5.8801899 -51.380199 82.272499
4.4412599 -51.980202 83.414299
3.96786 -51.296101 83.332497
2.5938101 -50.062302 83.627403
2.6113 -50.882301 83.735802
3.36397 -50.2649 83.337601
3.32025 -51.015701 83.512901
1.83007 -49.833 83.811501
0.99919099 -49.550999 83.883698
1.86019 -50.683998 83.905098
1.04027 -50.4394 83.965599
0.084394 -49.2677 83.837196
-0.87410098 -49.1464 83.742897
0.123968 -50.1898 83.925797
-0.84423703 -50.082699 83.844704
7.8180499 -50.4533 75.930099
8.01441 -50.6633 77.364304
7.9033499 -51.586399 76.177299
8.02946 -51.978699 77.514
7.8382301 -51.326599 75.071198
7.8262401 -51.149502 74.142998
7.7316699 -50.320702 74.769897
7.7361798 -50.237801 73.8339
7.8283701 -50.9809 73.310097
7.8287501 -50.8242 72.547997
7.7560301 -50.152901 73.023804
7.7652202 -50.066502 72.301399
7.66008 -49.996399 70.804199
7.7442098 -49.997799 71.626999
7.8102002 -50.826199 71.0952
7.8302002 -50.789902 71.794601
7.7241001 -50.860401 70.489998
7.4043498 -49.980099 69.803299
7.51476 -50.895901 69.7052
7.0784302 -50.006199 68.838303
7.2440701 -50.9776 68.867699
6.7227502 -50.3008 67.896004
6.9777498 -51.314701 68.065498
6.36904 -51.346199 66.831902
6.8489799 -52.4809 67.2341
6.53368 -54.531898 66.087601
7.0002398 -55.090401 66.453796
5.7680898 -51.313 66.114799
6.0050201 -54.240501 65.716202
5.18468 -51.313099 65.7332
5.41043 -53.935501 65.411102
4.1138401 -51.270401 65.338898
4.02665 -52.947399 65.098396
3.83548 -51.375702 65.280899
4.7421899 -53.4963 65.188904
4.60535 -51.302898 65.476898
6.6897202 -43.8414 79.034599
6.0390701 -43.7206 80.172798
5.2927999 -43.591801 81.090698
4.0047202 -45.039398 65.275497
3.5193999 -45.102901 65.054497
2.9461801 -45.1665 64.846603
5.1753101 -44.7616 66.271599
5.7553601 -44.571201 67.016296
6.2888899 -44.369801 67.885002
0.63015699 -42.819698 83.530403
-0.26523501 -42.6325 83.371597
-1.10384 -42.555901 83.196899
7.4871302 -43.9832 76.170998
7.6465998 -43.865501 74.9543
7.72188 -43.7841 73.892303
7.1750398 -44.005001 69.889503
6.7674899 -44.174801 68.850403
7.7014098 -43.762299 71.989502
7.4930401 -43.888901 70.9627
7.1704302 -43.938702 77.646797
7.7523599 -43.753601 72.921097
2.12707 -45.271301 64.5205
1.13509 -45.357899 64.266502
2.5613 -43.111801 83.258904
1.60856 -42.979599 83.496696
4.5680199 -44.924 65.679901
0.596524 -44.668301 83.832901
-0.25977299 -44.465199 83.695999
-1.06095 -44.3806 83.528999
0.58817899 -45.462299 83.878403
-0.25091299 -45.221901 83.760696
-1.03764 -45.134998 83.617599
0.607068 -46.2076 83.903198
-0.22499999 -45.936501 83.798103
-1.01188 -45.833401 83.6632
-1.0814 -43.476002 83.357201
-0.261222 -43.547199 83.530098
0.61449403 -43.739201 83.694298
4.01999 -47.095901 82.894897
3.9771099 -46.279499 82.8451
3.9500699 -45.311501 82.696198
3.2024 -46.955002 83.344498
3.2078099 -46.1591 83.308098
3.2283299 -45.238499 83.214104
2.3931 -46.7813 83.652603
2.40818 -45.991001 83.633202
2.4462299 -45.124001 83.597397
5.8355198 -47.347599 81.321198
5.63658 -46.427399 81.294899
5.4772501 -45.481899 81.250298
4.9265599 -47.266602 82.260498
4.8009901 -46.342602 82.165604
4.7007799 -45.388302 82.054703
6.2364998 -45.5891 80.230499
6.8684402 -45.678001 78.947502
5.3545499 -44.527901 81.195702
6.1045499 -44.647099 80.2369
6.75951 -44.7565 79.022903
7.1543899 -47.395802 78.810204
7.00629 -46.597401 78.834099
6.61446 -47.437302 80.148804
6.4066401 -46.524899 80.200401
7.4920201 -45.494202 76.045799
7.4878998 -44.7276 76.120697
7.2733402 -45.6506 77.453903
7.2178898 -44.8228 77.5513
7.52389 -47.120602 75.852997
7.50102 -46.2994 75.942398
7.4154301 -47.263199 77.315399
7.3351998 -46.452099 77.380699
7.7073898 -44.5121 73.867302
7.6325302 -44.6049 74.908699
7.69279 -45.2626 73.820396
7.61904 -45.368198 74.838097
7.6836801 -46.0588 73.744698
7.60919 -46.173599 74.735901
7.68153 -46.872101 73.68
7.6092501 -46.995399 74.648499
7.7504702 -44.4557 72.962196
7.73769 -45.167198 72.954102
7.7444501 -44.368301 72.0522
7.7625399 -45.102699 72.223297
7.72894 -45.937599 72.914803
7.7260098 -46.738201 72.878998
7.75348 -45.842098 72.268898
7.7480602 -46.629501 72.239197
7.15803 -44.515202 69.830002
7.4847798 -44.4272 70.810204
7.6997099 -44.3634 71.664597
7.1385698 -45.071701 69.720802
7.4750199 -44.9991 70.638603
7.6925802 -45.011902 71.3974
7.67416 -45.732399 71.250504
7.65692 -46.516499 71.144897
7.45821 -45.655102 70.459099
7.4307098 -46.4039 70.319
7.1099901 -45.700901 69.592598
7.0727301 -46.364899 69.445297
6.2508001 -44.861198 67.918503
6.7371998 -44.672699 68.841904
6.20118 -45.381001 67.918701
6.7009101 -45.2099 68.790298
6.6623502 -45.801399 68.718803
6.6200199 -46.417099 68.623497
6.1589799 -45.935299 67.898201
6.1180501 -46.502701 67.852097
5.1138101 -45.720798 66.466904
5.1557102 -45.2309 66.388298
5.6739602 -45.555698 67.137001
5.7232699 -45.0518 67.093498
5.0798702 -46.946499 66.435997
5.0939498 -46.3013 66.480598
5.61098 -46.699402 67.097603
5.6368699 -46.081299 67.160301
2.99347 -45.712101 64.952797
3.54618 -45.6175 65.181198
4.0102601 -45.519402 65.421303
3.0148499 -46.293499 65.0084
3.55197 -46.197601 65.240601
3.99772 -46.098999 65.479797
3.9970901 -46.7061 65.538696
4.00559 -47.348 65.571899
3.5668399 -46.810799 65.304901
3.5901699 -47.473999 65.347702
3.0418501 -46.911701 65.072098
3.07408 -47.588299 65.119102
2.2692101 -47.7229 64.7957
1.26443 -47.826401 64.5541
2.2402 -47.0602 64.733902
1.2441 -47.175999 64.479698
2.2144799 -46.4492 64.660004
1.22688 -46.570301 64.3955
1.20838 -45.9888 64.331902
2.19063 -45.868301 64.6008
1.5355901 -44.904999 83.799599
1.5061899 -45.7439 83.834503
1.50595 -46.516998 83.8507
1.5751801 -43.933899 83.669197
2.49386 -44.097801 83.445602
7.74438 -46.573898 71.728104
7.7539401 -45.787601 71.794197
7.7599301 -45.057098 71.900803
4.5592198 -45.386902 65.823601
4.5306001 -45.9217 65.894699
4.5215502 -46.534302 65.923798
4.5169201 -47.169601 65.926003
-0.94814402 -47.370399 83.701797
-0.088445999 -47.470001 83.820198
0.77648902 -47.729599 83.898102
-0.98224097 -46.571098 83.690002
-0.16945399 -46.672401 83.817001
0.67229301 -46.938702 83.9095
0.89970797 -48.6259 83.876503
0.0055220001 -48.348202 83.816399
-0.910649 -48.234798 83.709099
4.2560101 -49.5284 82.8423
4.1570601 -48.628601 82.884201
3.3141799 -49.3512 83.320702
3.25969 -48.468102 83.348396
2.54004 -49.167999 83.612701
2.4711001 -48.2831 83.639999
2.4165101 -47.510799 83.655998
3.22001 -47.692402 83.359398
4.0794201 -47.848801 82.905602
6.6514101 -49.742901 81.202103
6.3564501 -49.036499 81.230698
5.4688401 -49.651402 82.089798
5.26717 -48.818001 82.171898
6.0750299 -48.2351 81.317101
5.08497 -48.043098 82.231697
7.8720198 -49.7742 78.818703
7.57372 -48.956799 78.798401
7.4706702 -49.840698 80.175301
7.1407599 -49.0341 80.146103
6.8540201 -48.267399 80.124001
7.3333602 -48.180401 78.796997
7.63937 -48.7257 75.812897
7.6763601 -48.849201 77.2771
7.72855 -49.526501 75.8274
7.8744001 -49.657902 77.291397
7.5225701 -48.063 77.283302
7.5696402 -47.9314 75.816597
7.6922002 -48.490101 73.673897
7.64713 -48.607101 74.623299
7.7007899 -49.346298 73.7024
7.6766 -49.426998 74.645302
7.6237998 -47.804199 74.618896
7.6859298 -47.674599 73.663101
7.7270298 -47.5396 72.871597
7.7281599 -48.372898 72.880096
7.7458301 -47.430901 72.219101
7.7438202 -48.276501 72.205498
7.7434702 -49.187 72.207397
7.7304602 -49.2635 72.903603
7.6045799 -49.0299 70.872902
7.3475199 -48.889 69.9832
7.0029702 -48.895599 68.959198
7.61446 -48.1264 70.938797
7.3600202 -47.973 70.103302
6.99051 -47.799301 69.188698
7.0311599 -47.023899 69.280899
7.3947701 -47.174301 70.206902
7.63592 -47.302502 71.037399
6.08709 -48.0546 67.4645
6.0896201 -47.181301 67.701698
6.56668 -47.872799 68.242599
6.5767298 -47.032299 68.503197
6.60005 -49.0117 67.991402
6.14644 -49.275501 67.146301
5.5726399 -48.23 66.797501
5.61309 -49.4259 66.529701
5.0373602 -48.415699 66.249001
5.0632601 -49.557301 66.048798
5.5843701 -47.389801 66.972702
5.0542898 -47.609699 66.366302
3.1513801 -49.1861 65.176697
3.1104 -48.334801 65.1502
3.65517 -49.0457 65.363098
3.62012 -48.201 65.363899
4.0376801 -48.851799 65.538696
4.0187702 -48.035198 65.572403
3.2013299 -50.188202 65.198997
3.6970401 -50.084599 65.344704
4.06637 -49.904701 65.4674
2.3843 -50.220001 64.931
1.35253 -50.248299 64.722603
2.3375199 -49.2621 64.894203
1.31631 -49.318802 64.678902
1.2879699 -48.528198 64.6203
2.3009601 -48.445801 64.847504
1.64162 -48.0247 83.832001
1.74692 -48.9198 83.803398
1.55416 -47.245098 83.850304
7.7203999 -49.121601 71.568802
7.7255502 -48.2122 71.6035
7.7350998 -47.3703 71.662903
4.5076599 -47.831902 65.898201
4.5044599 -48.630798 65.827103
4.5267601 -49.724098 65.692902
3.3101001 -43.240799 82.866699
3.93659 -43.363098 82.377602
4.5857401 -43.476002 81.8041
3.9274499 -44.3255 82.550301
4.6213102 -44.422298 81.945503
3.2527499 -44.223598 83.058601
-7.7105398 -51.185299 79.546501
-8.2442598 -51.438202 78.280701
-8.2992697 -51.5588 76.9935
-7.8614998 -52.232101 79.532898
-8.1878004 -52.525501 78.212303
-8.1557598 -52.8283 76.968597
-7.5962701 -52.108398 80.049698
-5.1446199 -52.1465 82.593903
-5.32933 -52.797699 82.728302
-4.7134099 -52.040298 82.885399
-4.7649999 -52.8274 83.184601
-4.0921998 -51.903599 83.255096
-4.09835 -52.718899 83.5896
-3.4038799 -51.720402 83.542801
-3.3927801 -52.5457 83.877998
-2.6364601 -51.487099 83.742302
-2.6235399 -52.306 84.085602
-1.76477 -51.199902 83.904198
-1.76021 -52.013199 84.267601
-0.51485503 -51.552799 64.731003
0.33754399 -51.4781 64.667297
-0.52650303 -52.947102 64.562897
0.37768799 -52.903301 64.518898
-5.6395001 -50.8745 81.712502
-6.7369199 -51.050598 80.700203
-6.1616402 -52.0467 81.629402
-6.9008698 -51.946899 80.809097
-5.7098398 -52.430401 82.252098
-5.29182 -51.706799 82.272301
-4.1329098 -50.3606 82.857201
-4.7971201 -50.626801 82.403198
-4.1026902 -51.180099 82.967102
-4.7286401 -51.372601 82.591301
-3.4534199 -50.067299 83.206497
-3.42941 -50.918499 83.2994
-2.6881599 -49.7145 83.461502
-2.66886 -50.603901 83.540901
-1.81479 -49.351898 83.619797
-1.7926199 -50.274799 83.706398
-7.4313502 -51.129601 74.184097
-7.47089 -52.268101 74.417
-7.9270701 -51.3703 75.539101
-7.8605099 -52.683201 75.694504
-7.18086 -51.992599 73.351601
-7.0973902 -50.978298 73.071999
-6.9753199 -51.805901 72.448303
-6.8978601 -50.8867 72.158302
-6.8042102 -51.629799 71.634697
-6.7417898 -50.795799 71.363899
-6.6463699 -51.466099 70.890701
-6.5952802 -50.7033 70.657097
-6.1616302 -50.609299 69.221703
-6.3004298 -51.452 69.4795
-6.4287701 -50.626301 70.004303
-6.4807801 -51.4245 70.155998
-6.0773702 -51.472401 68.909798
-5.6891198 -50.560799 68.3041
-5.1529002 -50.548599 67.437798
-5.6940999 -51.481602 68.192802
-5.2353802 -51.530998 67.438797
-4.56949 -50.801498 66.603104
-3.8948901 -51.8013 65.6567
-4.7665401 -51.835499 66.720802
-4.35215 -52.977699 65.951599
-3.6083701 -54.981701 64.926399
-4.0949001 -55.582401 65.183502
-3.15291 -51.708599 65.0933
-2.5007401 -51.6539 64.853302
-3.0370901 -54.641499 64.680901
-2.41798 -54.2827 64.514702
-1.37649 -51.513901 64.710297
-1.08411 -51.593899 64.717598
-1.09111 -53.1744 64.512497
-1.7578501 -53.784599 64.444702
-1.88168 -51.590599 64.7341
-7.6000099 -44.469299 77.427902
-7.1995301 -44.292801 78.727402
-6.6909599 -44.111 79.773399
-1.89928 -45.292702 64.630501
-1.37543 -45.312698 64.520103
-0.76832998 -45.3256 64.4412
-3.2713499 -45.124599 65.346298
-4.0068698 -44.991901 65.943398
-4.7221398 -44.8465 66.667999
-2.8385201 -42.973598 83.133301
-1.95025 -42.707199 83.178596
-7.7299399 -44.658001 74.428703
-7.62046 -44.5425 73.206299
-7.46106 -44.457401 72.1539
-6.0251598 -44.585499 68.398697
-5.402 -44.705101 67.4935
-7.0138402 -44.414799 70.304703
-6.5689502 -44.512501 69.3526
-7.75945 -44.6007 75.937302
-7.2741799 -44.419899 71.2006
0.107714 -45.357899 64.300102
-4.5696301 -43.422401 82.465302
-3.7662799 -43.217999 82.881302
-2.5424099 -45.229198 64.902298
-2.71261 -44.814999 83.454002
-2.6454 -45.605701 83.508202
-2.6041999 -46.350101 83.5355
-1.86862 -44.536499 83.511803
-1.82567 -45.291801 83.580399
-1.79682 -46.006199 83.618103
-1.90999 -43.6203 83.341301
-2.7799399 -43.889801 83.305603
-5.6106601 -47.522999 81.792198
-4.9310999 -47.315601 82.4132
-4.2305298 -47.0751 82.894302
-5.6291499 -46.705502 81.745201
-4.9976702 -46.5229 82.368599
-4.3098302 -46.288898 82.863998
-5.6539102 -45.7374 81.596603
-5.0768199 -45.6068 82.263199
-4.4144301 -45.4282 82.811897
-6.9952502 -47.916599 79.852097
-6.3322802 -47.7658 80.971397
-6.8766999 -46.982399 79.862198
-6.2697501 -46.8335 80.898003
-6.7946401 -46.0261 79.8452
-6.2308898 -45.8731 80.803001
-6.7466302 -45.064602 79.810204
-7.2919302 -46.188999 78.681602
-7.2476401 -45.2393 78.708099
-7.6078901 -46.32 77.290001
-7.59973 -45.393299 77.378799
-7.7042899 -48.054699 77.109001
-7.4787502 -48.062302 78.535202
-7.6357398 -47.2467 77.1577
-7.3684502 -47.135799 78.623199
-7.57441 -46.1623 74.320801
-7.6662202 -46.313099 75.743401
-7.6542802 -45.398998 74.386902
-7.7067199 -45.484699 75.842499
-7.4197302 -47.783298 74.141998
-7.6319299 -47.930401 75.592499
-7.48946 -46.964199 74.226097
-7.6396999 -47.1161 75.666199
-7.3777199 -45.181099 72.140099
-7.2874298 -45.926899 72.105301
-7.53192 -45.277401 73.172401
-7.4362102 -46.035801 73.114304
-7.1919398 -46.718399 72.041496
-7.1041999 -47.527802 71.987099
-7.33322 -46.836201 73.025002
-7.2417698 -47.653801 72.947998
-7.2202601 -45.119598 71.2481
-7.0167899 -45.0229 70.362099
-7.1438799 -45.827099 71.250198
-7.00877 -45.757702 70.531998
-7.0592098 -46.593399 71.221603
-6.9456501 -46.493999 70.585899
-6.9783502 -47.390202 71.195396
-6.8649101 -47.2775 70.566101
-5.93364 -45.095798 68.331001
-5.8414898 -45.647301 68.234596
-6.4794898 -45.046501 69.211304
-6.38134 -45.613602 69.052101
-6.8863502 -45.010201 69.994499
-6.7625098 -45.652901 69.742401
-6.64853 -46.367599 69.610603
-6.26723 -46.263802 68.887604
-5.7298799 -46.270302 68.122498
-6.5394902 -47.146 69.519501
-6.1435099 -47.005901 68.764801
-5.6024699 -46.926998 67.994003
-4.5918999 -45.342098 66.677101
-4.4983902 -45.855499 66.693604
-5.28865 -45.206001 67.464996
-5.1948299 -45.7374 67.4282
-5.0896201 -46.322601 67.373299
-4.4043798 -46.403702 66.688698
-4.9732499 -46.931301 67.296097
-4.3046899 -46.964901 66.658699
-3.0861001 -46.0844 65.528
-3.7952199 -45.975601 66.052803
-3.15185 -45.5993 65.437103
-3.87728 -45.4776 65.994301
-2.93911 -47.302101 65.517799
-3.6252799 -47.109001 66.040001
-3.0192201 -46.661098 65.551697
-3.71856 -46.496201 66.089104
-0.68794399 -45.875401 64.531303
-0.67043698 -46.456902 64.586502
-1.2840199 -45.831699 64.628098
-1.25235 -46.410702 64.690498
-1.79706 -45.777 64.756401
-1.74745 -46.353802 64.821999
-1.70709 -46.959 64.885597
-1.22773 -47.023399 64.755997
-0.65697801 -47.075699 64.648598
-1.6667399 -47.599602 64.922501
-1.20206 -47.686501 64.799004
-0.63973999 -47.752998 64.693901
0.225941 -47.813499 64.561699
0.21012101 -47.1502 64.501503
0.198366 -46.5387 64.429199
0.18409701 -45.957199 64.371101
-3.5955801 -45.1325 83.212097
-3.5016401 -45.9659 83.261101
-3.4375 -46.736198 83.284698
-3.68944 -44.1674 83.066399
-4.5160799 -44.4086 82.642998
-6.7508798 -47.216702 70.068398
-6.8437901 -46.434898 70.122902
-6.9374599 -45.7089 70.217903
-2.43204 -45.696899 65.023102
-2.37358 -46.227901 65.104103
-2.3178599 -46.837601 65.1408
-2.2583499 -47.470001 65.150299
-1.80033 -47.545898 83.624199
-1.7907 -46.744301 83.631401
-2.63445 -47.880901 83.5075
-2.6050301 -47.084099 83.534203
-2.67083 -48.784302 83.467697
-1.81391 -48.428799 83.608002
-5.6152701 -49.966202 81.712097
-4.8248401 -49.712101 82.388802
-4.15556 -49.465 82.8461
-5.6073399 -49.0616 81.766197
-4.85537 -48.827999 82.419296
-4.1721301 -48.577702 82.879303
-4.1902599 -47.803799 82.899498
-4.8871102 -48.051998 82.431099
-5.60496 -48.278198 81.796799
-7.5507598 -50.3727 79.575996
-6.6115599 -50.187099 80.706596
-7.3327298 -49.6436 79.6633
-6.5072198 -49.340199 80.8237
-7.1491799 -48.821499 79.802902
-6.4116302 -48.553001 80.915398
-8.1946898 -50.486698 76.979103
-8.1055098 -50.531399 78.391899
-7.9720998 -49.646198 77.018402
-7.8492899 -49.698898 78.429802
-7.63306 -48.909801 78.465302
-7.8063998 -48.851799 77.063499
-7.3824801 -49.3918 74.092903
-7.4023099 -50.197498 74.094902
-7.7378998 -49.5327 75.512199
-7.8626199 -50.355801 75.489601
-7.6587801 -48.736198 75.545097
-7.3850698 -48.594501 74.104301
-6.9717999 -49.1404 71.994904
-6.9117498 -49.994301 72.029297
