# .PCD v.7 - Point Cloud Data file format
VERSION .7
FIELDS x y z
SIZE 4 4 4
TYPE F F F
COUNT 1 1 1
WIDTH 1763
HEIGHT 1
VIEWPOINT 0 0 0 1 0 0 0
POINTS 1763
DATA ascii
8.0205603 -2.60742 115.071
8.0118904 -2.5107 115.553
8.0616999 -2.98438 109.448
20.645201 -24.3241 92.341499
21.045601 -23.853201 92.389999
21.3871 -23.3442 92.460899
20.576401 -24.233 91.902901
20.9093 -23.814301 91.946404
21.1854 -23.337999 92.0121
20.554899 -24.189699 91.502098
20.804199 -23.809299 91.546204
20.998699 -23.350401 91.600304
21.666401 -22.813999 92.522102
21.863199 -22.2845 92.563301
21.419701 -22.823601 92.071701
21.5917 -22.2981 92.112701
21.174601 -22.835199 91.648201
21.313 -22.3022 91.681198
21.9566 -21.768499 92.580704
21.941799 -21.240601 92.579697
21.6758 -21.7799 92.129898
21.6656 -21.247499 92.129898
21.384899 -21.780399 91.694603
21.379299 -21.248199 91.694
21.818001 -20.6779 92.567596
21.5858 -20.106199 92.546997
21.558201 -20.681101 92.1203
21.348 -20.1087 92.103699
21.287399 -20.683201 91.686897
21.098 -20.1138 91.6745
21.245399 -19.5411 92.519203
20.7945 -18.9095 92.484299
21.028601 -19.547001 92.0802
20.598301 -18.925301 92.050003
20.8001 -19.5583 91.6567
20.3908 -18.9473 91.632401
20.236601 -18.137699 92.442299
19.6021 -17.239401 92.395599
20.061399 -18.169901 92.0131
19.4478 -17.291401 91.971603
19.875299 -18.209 91.601799
19.282301 -17.350201 91.5662
18.9361 -16.2726 92.348297
18.318001 -15.3873 92.305397
18.801201 -16.3435 91.9291
18.198601 -15.4732 91.890297
18.655001 -16.4212 91.528198
18.0679 -15.5661 91.492302
17.8067 -14.6987 92.271301
17.3479 -14.0952 92.242302
17.698 -14.795 91.859299
17.2467 -14.1988 91.832001
17.577299 -14.8975 91.4618
17.132401 -14.3073 91.434303
16.8727 -13.4423 92.213097
16.3654 -12.7423 92.1828
16.777 -13.5511 91.8041
16.270201 -12.8508 91.775101
16.6674 -13.6645 91.405998
16.162001 -12.9661 91.376503
15.8273 -12.0624 92.165901
15.2748 -11.5945 92.231499
15.7235 -12.1577 91.7575
15.1473 -11.6428 91.817299
15.6136 -12.2678 91.356697
15.0399 -11.729 91.399696
14.6872 -11.4284 92.411797
13.883 -11.1224 92.536003
14.5192 -11.3825 91.982201
13.6685 -10.9592 92.077499
14.4282 -11.4285 91.525803
13.62 -11.0146 91.584
14.8381 -13.747 90.9086
14.1602 -12.8131 90.986504
13.2933 -11.7322 91.016502
14.4593 -14.0831 90.810402
13.8179 -13.1191 90.889297
12.9778 -12.0056 90.903198
15.9525 -15.228 90.895798
15.4232 -14.5454 90.882698
15.572 -15.5488 90.795998
15.0395 -14.8792 90.783203
17.007299 -16.4991 90.937599
16.457199 -15.8371 90.914803
16.5937 -16.823999 90.836899
16.060499 -16.1595 90.8144
18.297899 -18.1441 91.004799
17.649401 -17.3078 90.969002
17.929001 -18.412701 90.906403
17.2435 -17.616501 90.868698
19.2656 -19.476101 91.110802
18.8505 -18.869499 91.044998
18.999399 -19.626101 91.015099
18.5403 -19.077101 90.949303
19.795799 -20.5278 91.349197
19.5445 -20.0009 91.219803
19.4991 -20.642099 91.240501
19.276501 -20.1199 91.117699
20.360201 -21.6357 91.522102
20.1057 -21.111 91.464699
20.0186 -21.721201 91.425102
19.7808 -21.2314 91.355499
20.304899 -22.342899 91.4366
20.4272 -22.002501 91.495598
19.967501 -22.1791 91.385399
20.0844 -21.974501 91.423798
19.621901 -23.2841 91.375
20.0247 -22.7938 91.399399
19.307301 -22.978201 91.321999
19.6922 -22.5366 91.349701
19.8146 -23.5853 93.4263
20.1735 -23.151899 93.436302
20.4643 -22.7012 93.490898
20.046801 -23.804399 93.3452
20.4104 -23.3416 93.351997
20.7278 -22.8412 93.409599
20.679501 -22.2887 93.649696
20.7806 -21.984501 93.788597
21.028099 -22.368099 93.594902
21.225599 -21.9806 93.778801
20.7609 -21.8097 93.832199
20.622999 -21.666201 93.779198
21.2372 -21.705799 93.833
21.0865 -21.4673 93.799698
20.4361 -21.4133 93.766701
20.194 -21.044701 93.768898
20.829599 -21.1754 93.766296
20.506701 -20.8176 93.749901
19.902 -20.5581 93.792297
19.503599 -19.926701 93.801804
20.146999 -20.379499 93.751602
19.7304 -19.777 93.736801
18.949301 -19.133801 93.764603
18.2812 -18.226999 93.702103
19.2299 -18.9447 93.676102
18.643499 -17.9653 93.596497
17.573099 -17.2806 93.642899
16.934 -16.4107 93.5923
17.993 -16.961201 93.530403
17.374599 -16.068501 93.472801
16.440701 -15.7026 93.550499
16.005899 -15.0756 93.518204
16.867201 -15.3755 93.416
16.4114 -14.7686 93.374397
15.5272 -14.4319 93.494797
15.0022 -13.7666 93.474297
15.9265 -14.1218 93.359901
15.3856 -13.4574 93.349197
13.8599 -11.9124 93.176804
14.7476 -12.7853 93.305801
13.5536 -12.1544 93.346001
14.4101 -13.0622 93.441101
14.2806 -14.2175 90.584503
13.6543 -13.2507 90.6632
12.8377 -12.1361 90.676903
14.1319 -14.3334 90.308502
13.5028 -13.4002 90.383598
12.693 -12.3225 90.394699
15.3968 -15.6706 90.570297
14.8607 -15.0081 90.557404
15.2664 -15.7663 90.291
14.7198 -15.1075 90.280602
16.4105 -16.944401 90.611603
15.8818 -16.2805 90.588799
16.2992 -17.036699 90.331398
15.7624 -16.376301 90.308403
17.758699 -18.5126 90.6828
17.063101 -17.729401 90.644203
17.6437 -18.5895 90.403603
16.9543 -17.811399 90.364304
18.8605 -19.6905 90.780701
18.3848 -19.1614 90.725098
18.7295 -19.7812 90.492302
18.2561 -19.2467 90.445396
19.353201 -20.624599 90.947601
19.1488 -20.1556 90.857803
19.2456 -20.624399 90.605698
19.037201 -20.225 90.546402
19.7822 -21.5485 91.102303
19.577299 -21.1299 91.034897
19.6157 -21.335199 90.733704
19.431101 -21.010201 90.668198
19.8402 -22.0077 91.133499
19.891399 -21.7859 91.132797
19.7712 -21.8559 90.8125
19.757999 -21.580299 90.781303
19.1838 -22.8458 91.084396
19.582399 -22.3855 91.112099
19.1077 -22.7544 90.762703
19.520201 -22.271601 90.792801
19.6784 -23.4737 93.7715
19.573099 -23.396 94.192596
20.0375 -23.052299 93.7854
19.9335 -22.982401 94.204697
20.3318 -22.618099 93.829201
20.244101 -22.566 94.224701
20.5369 -22.219 93.937302
20.452801 -22.180099 94.286903
20.6073 -21.9328 93.984901
20.5298 -21.8099 94.290901
20.0959 -21.068001 94.0186
20.0233 -21.081499 94.365799
19.7936 -20.5846 94.029602
19.6742 -20.624599 94.3685
19.379499 -19.9664 94.030502
19.228701 -20.036301 94.361801
18.802 -19.1931 93.997498
18.6457 -19.2735 94.3349
18.113899 -18.3034 93.944099
17.9694 -18.381001 94.293503
17.399099 -17.3645 93.890297
17.2694 -17.437901 94.247299
16.758699 -16.497299 93.843803
16.6308 -16.5741 94.204201
16.260401 -15.7929 93.808296
16.112101 -15.8849 94.168701
15.8215 -15.1702 93.779404
15.6498 -15.2783 94.1381
15.3446 -14.5289 93.7519
15.1655 -14.6451 94.109398
14.8264 -13.8667 93.7267
14.6455 -13.9967 94.0821
13.381 -12.2625 93.606003
14.2411 -13.1672 93.695297
13.1672 -12.4492 93.955101
14.0496 -13.3283 94.047401
20.319401 -21.4653 94.3563
20.3449 -21.444599 94.016403
20.519199 -21.7125 93.988403
19.190201 -23.056801 94.716003
18.918301 -22.804701 94.888901
18.5818 -22.489 95.036003
19.5599 -22.6644 94.703003
19.299101 -22.405199 94.8647
18.976601 -22.073299 95.002899
19.9254 -22.287701 94.644302
19.6877 -22.013399 94.7668
19.3741 -21.663799 94.871597
20.2798 -21.993799 94.532898
20.071199 -21.669001 94.609596
19.7605 -21.2983 94.659302
18.1579 -22.087799 95.1605
17.614401 -21.570101 95.261002
18.5721 -21.651899 95.119499
18.055401 -21.1087 95.212303
18.985701 -21.2278 94.957901
18.493799 -20.6658 95.023102
19.384701 -20.855 94.695999
18.914301 -20.2827 94.718002
16.932501 -20.9175 95.332901
16.1542 -20.17 95.368202
17.4079 -20.423201 95.277496
16.669399 -19.637699 95.308098
17.877899 -19.950199 95.064102
17.175301 -19.1252 95.077003
18.3202 -19.5396 94.721001
17.640499 -18.672199 94.7052
15.3433 -19.3888 95.362602
14.5903 -18.6619 95.331902
15.8996 -18.817301 95.301003
15.1823 -18.055799 95.270699
16.444099 -18.261999 95.060799
15.7618 -17.464199 95.027603
16.935499 -17.7598 94.674004
16.282101 -16.9228 94.635696
13.9615 -18.0543 95.294098
13.3983 -17.509899 95.256897
14.5786 -17.422501 95.233398
14.0352 -16.857599 95.196602
15.1852 -16.808399 94.989998
14.6644 -16.226 94.9543
15.7353 -16.249399 94.598801
15.243 -15.6551 94.565498
12.8311 -16.9618 95.223396
12.266 -16.415501 95.186996
13.4872 -16.2894 95.164001
12.9389 -15.7265 95.128799
14.1381 -15.6361 94.922096
13.6041 -15.0502 94.888901
14.7402 -15.0411 94.534897
14.2153 -14.4225 94.504799
11.6733 -15.8417 95.132004
10.7997 -14.9937 95.011597
12.3566 -15.1425 95.075104
11.4892 -14.2927 94.957001
13.0248 -14.4496 94.839699
12.1579 -13.5982 94.727898
13.6254 -13.7911 94.462997
12.7459 -12.9312 94.361298
20.129 -22.448799 94.487
19.777399 -22.8554 94.5037
19.4119 -23.258301 94.502502
19.4837 -21.3535 90.515602
19.252199 -21.101299 90.422798
19.041201 -20.8009 90.353302
19.281 -21.563 90.391502
19.022301 -21.364901 90.274498
18.773199 -21.1133 90.186699
19.0107 -21.9067 90.309196
18.7519 -21.710199 90.171898
18.498199 -21.4776 90.075401
18.6602 -22.295099 90.259499
18.436501 -22.0718 90.1194
18.1973 -21.836 90.022797
18.801201 -20.4492 90.294601
18.4713 -20.017599 90.241997
18.4939 -20.7862 90.113098
18.136 -20.3598 90.048203
18.191799 -21.159201 89.990501
17.7997 -20.736601 89.913399
17.8776 -21.523199 89.934097
17.4571 -21.113501 89.851097
18.0019 -19.4758 90.193199
17.4046 -18.816601 90.148201
17.6604 -19.817301 89.990501
17.067499 -19.1679 89.942703
17.3011 -20.204201 89.847099
16.696899 -19.574699 89.800697
16.93 -20.601999 89.780197
16.304501 -19.997 89.734596
16.7216 -18.059299 90.107597
16.060499 -17.3081 90.0755
16.386101 -18.4412 89.9076
15.7147 -17.7195 89.883797
15.5054 -16.651899 90.053703
14.9867 -16.0383 90.040298
15.1351 -17.0718 89.869598
14.5907 -16.4617 89.866898
15.3475 -17.535101 91.768204
14.8244 -16.9387 91.983299
14.2957 -16.2724 92.195099
14.9716 -17.9499 91.625999
14.4266 -17.376699 91.848602
13.8642 -16.7488 92.0532
14.558 -18.413099 91.470703
13.984 -17.872801 91.691498
13.3738 -17.2962 91.8862
14.4196 -15.3864 90.038803
13.814 -14.6463 90.080002
14.0062 -15.8293 89.891502
13.37 -15.1285 90.014603
13.783 -15.547 92.305801
13.1457 -14.684 92.3321
13.3092 -16.082001 92.131104
12.6645 -15.3209 92.147102
12.7546 -16.702999 91.941299
12.0669 -16.041201 91.948997
13.195 -13.7607 90.1493
12.3954 -12.7501 90.152802
12.8552 -14.1565 90.088898
12.0821 -13.1917 90.068901
12.262 -13.6323 92.305496
11.2474 -12.5404 92.2071
11.8334 -14.4151 92.172798
10.8461 -13.4075 92.131897
11.2419 -15.2497 92.001503
10.2627 -14.3061 91.990501
19.5597 -21.7068 90.562897
19.303499 -22.1035 90.515701
18.9126 -22.5504 90.4757
12.9924 -15.0589 90.307404
12.6543 -14.2979 90.2976
11.9174 -13.3931 90.215897
12.9244 -14.9968 90.6688
12.6219 -14.2872 90.612396
11.8916 -13.4075 90.467598
13.0369 -14.9083 90.967598
12.6998 -14.1812 90.878403
11.9492 -13.3195 90.687897
13.3805 -14.881 91.242203
12.8368 -13.9379 91.111504
12.0241 -13.0302 90.899002
11.6334 -12.0514 91.940498
12.6343 -13.1813 92.080597
13.5247 -14.3016 92.144402
11.9315 -12.0469 91.511703
12.883 -13.1402 91.682297
13.7234 -14.2137 91.775803
12.0455 -12.4923 91.159103
12.9317 -13.4796 91.359596
13.6666 -14.419 91.484901
14.158 -15.2145 92.1175
14.658 -15.9683 91.996902
14.3403 -15.1139 91.770699
14.8422 -15.8739 91.671204
14.2495 -15.2499 91.5354
14.7539 -16.002199 91.483299
13.939 -15.6172 91.385101
14.4481 -16.330099 91.381699
15.1729 -16.649099 91.799004
15.6836 -17.2505 91.607498
15.3567 -16.5562 91.499802
15.8627 -17.153099 91.330498
15.2724 -16.682301 91.337997
15.7797 -17.2747 91.171501
14.9745 -16.9888 91.253304
15.489 -17.568899 91.080002
19.6702 -21.281099 92.1987
19.745701 -22.214399 92.568604
19.452101 -23.200701 92.795898
19.909901 -21.185499 92.103798
20.0397 -22.342699 92.595802
19.6751 -23.419399 92.866798
20.112301 -21.207001 91.968002
20.187599 -22.389601 92.508003
19.7558 -23.4932 92.795998
20.094601 -21.288799 91.774803
20.1903 -22.440201 92.3414
19.7931 -23.520901 92.6511
19.962601 -21.4466 91.660599
20.002001 -22.378401 92.092903
19.655701 -23.373199 92.377701
17.1707 -20.93 91.487297
17.5874 -20.3748 91.593002
17.936501 -19.8757 91.682899
16.7537 -20.519199 91.322304
17.1579 -20.039 91.451698
17.517599 -19.608601 91.576401
16.386101 -20.1616 91.259102
16.7663 -19.722401 91.393997
17.1089 -19.3174 91.5233
18.285601 -19.606899 91.567101
18.496401 -19.5495 91.316803
17.8528 -19.3367 91.4617
18.041 -19.2512 91.1996
17.4214 -19.0294 91.3965
17.590099 -18.920099 91.123596
18.4319 -19.656 91.054802
18.166201 -19.958401 90.850403
17.9678 -19.356501 90.938301
17.695801 -19.643 90.726097
17.511101 -19.0271 90.871902
17.245199 -19.3148 90.673302
17.800301 -20.468901 90.7416
17.334499 -21.0431 90.695801
17.317801 -20.0825 90.583
16.868401 -20.584101 90.515999
16.8818 -19.7258 90.5299
16.459 -20.186701 90.460197
18.3873 -20.1891 91.820999
18.1129 -20.816799 91.822701
17.7234 -21.478399 91.774101
18.8606 -20.537399 91.957397
18.6982 -21.327299 92.101097
18.359301 -22.1115 92.142197
19.322701 -20.897699 92.070297
19.275499 -21.829599 92.373802
18.9813 -22.731899 92.522797
17.925301 -21.6294 91.0037
18.3671 -20.950701 90.993698
18.657101 -20.309999 91.010201
18.585899 -22.289499 91.428398
18.9795 -21.4897 91.328903
19.1576 -20.6859 91.1968
19.215599 -22.9242 91.930901
19.5667 -22.008699 91.722801
19.6329 -21.064899 91.410797
18.8871 -19.9608 91.177002
18.940201 -19.8482 91.433098
19.334999 -20.271999 91.297699
19.3766 -20.1513 91.5383
19.7651 -20.633499 91.448601
19.796101 -20.511999 91.663498
18.716 -19.8883 91.676003
19.1471 -20.1826 91.767097
19.568701 -20.532 91.858002
14.62 -18.4403 90.895103
14.0684 -17.919001 91.070099
13.4938 -17.3727 91.194702
15.0801 -17.9736 90.969902
14.5513 -17.420601 91.145897
14.01 -16.8155 91.270599
12.9534 -16.8522 91.1931
12.5454 -16.452999 91.078796
13.5075 -16.2099 91.2677
13.0932 -15.739 91.146797
12.349 -16.2526 90.881401
12.3242 -16.213301 90.606499
12.8481 -15.6058 90.935204
12.7707 -15.6359 90.6483
12.4231 -16.2897 90.274002
12.6803 -16.521099 89.984299
12.8466 -15.722 90.297096
13.1191 -15.9272 89.9953
13.682 -17.473301 89.764702
14.2687 -18.037001 89.7407
14.903 -18.6471 89.730003
14.1518 -16.959 89.792603
14.7174 -17.549101 89.778
15.3251 -18.1812 89.775902
13.1258 -16.9412 89.826599
13.5937 -16.3927 89.842598
15.6037 -19.321501 89.7229
16.009701 -18.876699 89.780197
8.1547499 -8.5714798 89.325401
7.7465501 -8.5759697 89.214401
7.6670499 -8.7564497 89.617203
8.2367401 -8.8249702 89.065903
7.7911 -8.8896399 88.973099
7.8094702 -9.12852 89.334602
8.1927996 -9.1287699 88.860298
7.7132001 -9.2011099 88.773697
7.70784 -9.4590902 89.113197
8.0020504 -9.53444 88.743202
7.59127 -9.5414495 88.673698
7.6140499 -9.7174196 88.975899
7.89186 -9.8691998 88.768097
7.6754398 -9.88729 88.794601
7.6584001 -9.9022102 88.959801
5.4938402 -10.3718 89.811699
6.1293802 -9.6517401 89.973396
6.7035198 -9.0440302 90.111397
4.9467101 -9.9616604 89.646004
5.5939202 -9.2648001 89.814499
6.1965899 -8.6845102 89.941803
4.5281301 -9.4801102 90.205002
5.2060499 -8.8097 90.339104
5.86693 -8.2670498 90.389999
4.3015399 -9.1705799 90.942703
4.9931998 -8.4970503 91.053902
5.6957102 -7.9607301 91.047401
4.49651 -9.1326599 92.099602
5.19205 -8.4509802 92.1418
5.9133301 -7.9012599 92.051003
7.2594299 -8.7633696 89.992699
6.7835302 -8.3891001 89.864799
7.2676101 -8.28582 89.639702
6.5065398 -7.97018 90.247597
7.0377798 -7.8492198 90.005898
6.3681202 -7.6280198 90.872704
6.9236202 -7.4731398 90.626999
6.59656 -7.5208101 91.817596
7.1606698 -7.3273401 91.5271
7.5892301 -8.21628 89.445702
8.0243797 -8.2817698 89.627998
7.4243302 -7.8308101 89.829201
7.8938699 -7.9510598 90.046303
7.3291602 -7.4667101 90.457001
7.8088198 -7.6212001 90.621803
7.5515099 -7.3163099 91.280296
7.8521099 -7.4318299 91.163002
16.3179 -17.6532 91.226997
16.1443 -17.7568 91.496902
15.8191 -18.042601 91.644096
16.739799 -18.0979 91.167397
16.572201 -18.2087 91.439796
16.257 -18.4986 91.580902
17.1586 -18.527599 91.122803
16.9951 -18.6432 91.398102
16.6877 -18.9366 91.533997
15.4582 -18.446699 91.500999
15.0624 -18.892 91.349297
15.908 -18.898701 91.442703
15.5244 -19.3339 91.296799
16.348 -19.3351 91.401199
15.9732 -19.7642 91.261703
15.1158 -18.9095 90.747398
15.5588 -18.456301 90.820801
15.9525 -18.0602 90.938004
15.5766 -19.346201 90.622902
16.005501 -18.8978 90.695
16.383499 -18.501101 90.821198
16.0282 -19.774799 90.512497
16.4461 -19.327299 90.583
16.8104 -18.9272 90.718597
16.2353 -17.7705 91.0513
16.6579 -18.2117 90.9645
17.0772 -18.6376 90.892097
12.4313 -10.2948 91.069603
12.4569 -10.0812 91.4617
12.5086 -10.0588 91.954201
11.5399 -9.5319099 90.9795
11.4198 -9.3143396 91.2817
11.4336 -9.2729702 91.767097
12.6703 -10.196 92.408203
12.8138 -10.4827 92.769203
11.5819 -9.3797102 92.234901
11.8249 -9.6482 92.559998
12.5895 -10.7347 92.953201
12.2583 -10.9006 93.105103
11.4299 -9.6668596 92.609398
10.6161 -9.3894997 92.528099
12.0639 -10.9998 93.381798
11.8172 -11.1823 93.730301
10.3962 -9.4429102 92.8899
10.1062 -9.5920496 93.240097
8.81569 -7.8385501 91.728302
8.6191902 -7.79037 92.085197
8.2840099 -7.8851199 92.407997
11.3818 -11.6425 94.126801
10.7896 -12.2806 94.4813
9.6394796 -9.9984398 93.619301
9.0268898 -10.5799 93.954201
7.7766099 -8.2244101 92.756798
7.13591 -8.7379999 93.060699
10.1132 -12.9551 94.701302
9.4188004 -13.6493 94.752602
8.3345699 -11.2187 94.158401
7.6343999 -11.8999 94.2033
6.4239202 -9.33494 93.237
5.71769 -10.0015 93.269302
9.1262398 -13.1992 91.7687
9.7433796 -12.338 91.909302
10.2158 -11.5342 91.982399
7.8309999 -11.9216 91.229897
8.4804602 -11.1374 91.381401
9.0391903 -10.4514 91.483299
6.4134998 -10.6767 90.440498
7.05404 -9.9242096 90.584503
7.62573 -9.2873898 90.699097
10.6598 -11.08 91.709503
10.9738 -11.0629 91.262604
9.5465803 -10.0692 91.244499
9.8647404 -10.0336 90.8181
8.1659603 -9.0033197 90.522903
8.5146303 -9.05791 90.170601
11.0503 -11.4492 90.8769
10.9783 -11.9242 90.595703
9.8766098 -10.3014 90.428802
9.7278795 -10.6506 90.140602
8.5433197 -9.3723402 89.845497
8.3945799 -9.7287998 89.600197
10.8806 -12.1872 90.400002
10.8211 -12.2757 90.2202
9.5983295 -10.8698 89.957199
9.5414696 -10.9704 89.803902
8.28298 -9.9746399 89.440697
8.2653303 -10.126 89.318802
10.8485 -12.2669 90.013199
11.0088 -12.0599 89.896202
9.5806503 -10.9829 89.624802
9.7432299 -10.7896 89.517799
8.3210497 -10.1964 89.169502
8.5064001 -10.0924 89.085701
11.3061 -11.5916 89.983299
11.5821 -11.1285 90.2164
10.0216 -10.3201 89.585098
10.2655 -9.8413897 89.7882
8.7686996 -9.7030497 89.129601
8.9980001 -9.2493496 89.290497
11.7058 -10.9147 90.497597
11.8211 -10.7754 90.744904
10.3541 -9.6038704 90.074203
10.4288 -9.4541702 90.467598
9.0397997 -8.9457397 89.527298
8.9705296 -8.7126904 89.831299
12.1373 -10.557 90.9021
11.1416 -9.5976496 90.839897
10.0318 -8.9745798 90.813202
10.7754 -9.1909304 91.147697
10.003 -8.86415 91.318398
10.7591 -9.1135902 91.6464
8.8393497 -8.4395103 90.1903
8.7607899 -8.1413803 90.637398
8.7515202 -7.8903599 91.18
10.1297 -8.9190998 91.886703
10.9194 -9.2091198 92.158401
15.2405 -13.1383 102.513
15.1555 -13.2614 102.478
15.0309 -13.4384 102.344
15.0154 -13.1721 102.677
14.8756 -13.4028 102.516
14.7344 -13.2712 102.782
14.9418 -12.8652 102.978
15.2787 -12.4742 102.901
15.1566 -12.9263 102.757
15.3694 -12.708 102.722
15.3683 -12.9667 102.541
15.5113 -12.8145 102.535
15.7113 -12.6151 102.454
15.5766 -12.7411 102.533
15.5467 -12.5089 102.644
15.9728 -12.2412 102.13
15.8385 -12.437 102.328
15.9146 -12.0142 102.232
15.7197 -12.2507 102.495
15.8574 -11.7783 102.346
15.587 -12.0653 102.681
16.075199 -12.0067 102.438
16.0686 -12.1763 102.261
16.1075 -11.8005 102.172
16.1196 -11.9804 102.017
16.127701 -11.6477 101.895
16.1507 -11.8283 101.767
16.176901 -11.7224 101.557
16.2024 -11.6533 101.392
16.1509 -11.5461 101.65
16.1789 -11.486 101.448
16.2276 -11.6109 101.264
16.2481 -11.5924 101.162
16.208799 -11.4558 101.289
16.234699 -11.4464 101.162
16.26 -11.5957 101.073
16.2651 -11.6108 100.997
16.2516 -11.4496 101.054
16.2609 -11.4595 100.957
16.266399 -11.6319 100.934
16.2633 -11.6747 100.878
16.2659 -11.4756 100.868
16.267401 -11.5147 100.781
16.2556 -11.7549 100.826
16.246 -11.8649 100.779
16.2656 -11.5926 100.696
16.2621 -11.7057 100.615
16.248301 -12.036 100.462
16.257401 -11.8491 100.539
16.2206 -12.1643 100.671
16.236 -11.9965 100.732
16.1915 -12.3802 100.587
16.136101 -12.625 100.517
16.228701 -12.2768 100.382
16.182899 -12.5523 100.324
15.9737 -13.1188 100.353
16.097099 -12.8383 100.314
15.9214 -13.1105 100.534
16.045 -12.8744 100.502
15.6609 -13.6336 100.557
15.8221 -13.3832 100.434
15.6212 -13.5248 100.699
15.7751 -13.3236 100.6
15.3679 -14.09 100.892
15.508 -13.8723 100.716
15.3433 -13.919 100.973
15.4752 -13.7263 100.831
15.2569 -14.4825 101.039
15.2422 -14.2768 101.063
15.2283 -14.0912 101.107
15.1406 -14.6477 101.229
15.1313 -14.4304 101.22
15.1257 -14.2386 101.231
14.9541 -14.2829 102.127
14.8969 -14.4671 101.919
14.8821 -14.5842 101.749
14.946 -14.1485 102.005
14.8861 -14.3112 101.825
14.8731 -14.4077 101.683
15.169 -13.7681 102.589
15.0517 -14.0387 102.363
15.179 -13.6637 102.431
15.0538 -13.9174 102.224
16.1166 -11.8668 101.108
16.1236 -11.8277 101.136
16.1306 -11.8158 101.172
16.082701 -11.7996 101.113
16.0923 -11.7613 101.181
16.062201 -11.6869 101.164
16.0762 -11.6132 101.38
16.1043 -11.7173 101.31
16.1381 -11.802 101.238
16.084 -11.6445 101.621
16.117901 -11.7358 101.421
16.1462 -11.8098 101.312
16.0138 -11.9485 100.767
16.0429 -11.9954 100.9
16.0816 -12.0243 101.022
16.0406 -11.7971 100.955
16.0644 -11.8734 101.013
16.0994 -11.9286 101.068
15.7888 -12.562 100.443
15.8399 -12.6198 100.646
15.8975 -12.6594 100.825
15.8572 -12.411 100.471
15.9137 -12.4482 100.685
15.9777 -12.4663 100.881
15.9144 -12.2671 100.526
15.9709 -12.2892 100.737
16.0355 -12.2922 100.937
16.0653 -12.1452 100.981
16.013 -12.1373 100.807
15.9693 -12.1107 100.623
15.147 -13.6787 101.141
15.3027 -13.4952 100.972
15.4451 -13.3496 100.859
15.1186 -13.6305 100.988
15.2763 -13.4735 100.829
15.4144 -13.3238 100.719
15.0781 -13.6085 100.825
15.2386 -13.4537 100.667
15.3746 -13.2919 100.558
14.8493 -13.9984 101.495
14.9806 -13.8585 101.31
14.8 -13.9086 101.404
14.9467 -13.7911 101.19
14.7328 -13.8674 101.29
14.8969 -13.7575 101.041
14.5725 -13.8152 101.91
14.7002 -13.8276 101.86
14.8107 -13.8631 101.817
14.6232 -13.8975 101.558
14.7163 -13.9225 101.601
14.7897 -13.9757 101.634
15.577 -13.2067 100.793
15.6971 -13.0464 100.77
15.5364 -13.1663 100.649
15.6469 -12.9943 100.616
15.4916 -13.116 100.482
15.5983 -12.9292 100.439
15.8039 -12.8592 100.784
15.7493 -12.8068 100.619
15.7 -12.7387 100.43
16.1516 -11.8275 101.373
16.141199 -11.8686 101.465
16.121099 -11.7924 101.517
16.134399 -11.904 101.546
16.111799 -11.9858 101.69
16.0945 -11.8301 101.692
16.063101 -12.0866 101.898
16.035801 -11.8747 101.946
16.011299 -11.6481 101.99
15.9289 -12.4878 102.797
15.8885 -12.6015 102.577
16.016001 -12.2551 102.649
15.987 -12.4014 102.45
15.6748 -12.8568 102.677
15.7873 -12.7357 102.647
15.6877 -12.8174 102.922
15.8176 -12.6594 102.883
15.4098 -13.222 102.653
15.5426 -13.0227 102.682
15.4102 -13.2523 102.878
15.5474 -13.0174 102.925
15.2936 -13.433 102.573
15.2865 -13.5038 102.765
14.9036 -13.6574 102.094
14.7501 -13.6309 102.222
14.5896 -13.5994 102.376
16.171301 -11.8933 101.433
16.177799 -11.8487 101.344
16.181499 -11.8239 101.265
16.1968 -11.849 101.415
16.2075 -11.8034 101.318
16.215599 -11.7786 101.236
16.2071 -11.7683 101.392
16.2243 -11.7213 101.283
16.2383 -11.6982 101.194
16.179701 -11.8187 101.198
16.1759 -11.8288 101.146
16.218901 -11.7766 101.166
16.2187 -11.7896 101.113
16.246 -11.6998 101.118
16.2484 -11.7158 101.055
16.1714 -11.8461 101.115
16.1623 -11.8817 101.096
16.2159 -11.8105 101.077
16.2073 -11.8498 101.054
16.247299 -11.7388 101.01
16.240999 -11.782 100.975
16.145399 -11.9434 101.078
16.128201 -12.032 101.061
16.1919 -11.9191 101.036
16.1751 -12.0139 101.02
16.2288 -11.8592 100.945
16.2146 -11.9627 100.919
16.1154 -12.1457 101.043
16.0909 -12.2934 101.008
16.160999 -12.1307 101.002
16.1383 -12.2826 100.963
16.2017 -12.0861 100.892
16.181801 -12.2435 100.843
16.037901 -12.4801 100.946
15.9603 -12.6888 100.883
16.0933 -12.4786 100.893
16.0233 -12.6974 100.827
16.145 -12.4467 100.764
16.0825 -12.6749 100.694
15.8652 -12.8962 100.846
15.7537 -13.0819 100.841
15.9288 -12.9118 100.803
15.8125 -13.1009 100.816
15.989 -12.9015 100.676
15.8684 -13.107 100.701
15.6263 -13.2328 100.869
15.4885 -13.3663 100.935
15.6792 -13.2536 100.856
15.5375 -13.3911 100.928
15.7284 -13.2812 100.754
15.5811 -13.4427 100.836
15.3499 -13.5043 101.039
15.2308 -13.6548 101.154
15.3991 -13.5358 101.031
15.2818 -13.684 101.136
15.44 -13.6112 100.949
15.3152 -13.7807 101.067
15.1144 -13.8255 101.256
15.1112 -13.9587 101.28
15.2088 -13.7945 101.196
15.2189 -13.9292 101.161
15.1194 -14.0856 101.259
14.8309 -14.1047 101.571
14.8169 -14.0434 101.658
14.8653 -13.9162 101.806
14.8318 -14.1797 101.6
14.8318 -14.1156 101.687
14.8907 -13.9801 101.835
14.8524 -14.2757 101.632
14.8589 -14.1989 101.743
14.9201 -14.0523 101.904
14.9881 -13.6938 102.049
15.1348 -13.4574 102.282
15.0228 -13.7476 102.07
15.1744 -13.5001 102.297
15.043 -13.821 102.127
15.1833 -13.5713 102.34
15.2508 -13.2873 102.405
15.3611 -13.1488 102.444
15.2941 -13.3188 102.42
15.4026 -13.1726 102.466
15.2998 -13.3696 102.468
15.4107 -13.1966 102.526
15.4861 -12.9992 102.461
15.6103 -12.8672 102.461
15.5284 -13.0201 102.483
15.6516 -12.8859 102.483
15.5393 -13.0257 102.546
15.666 -12.8809 102.543
15.7073 -12.7772 102.445
15.8033 -12.6802 102.386
15.7513 -12.7936 102.463
15.8458 -12.6901 102.406
15.7694 -12.7799 102.518
15.8654 -12.6664 102.458
15.915 -12.5216 102.273
16.022499 -12.3358 102.102
15.954 -12.5248 102.294
16.054701 -12.3302 102.125
15.9707 -12.4877 102.342
16.065399 -12.2794 102.167
16.097401 -12.1688 101.89
16.141001 -12.0392 101.687
16.1236 -12.1526 101.909
16.164 -12.0116 101.697
16.1278 -12.0918 101.94
16.164801 -11.9429 101.712
16.1618 -11.9501 101.54
16.184999 -11.9142 101.535
16.1887 -11.8384 101.53
22.7171 -25.1766 94.313904
14.9099 -14.8518 101.666
14.9143 -15.08 101.723
14.9174 -15.3016 101.771
14.967 -14.8413 101.531
14.9786 -15.072 101.579
14.9926 -15.2943 101.62
15.2756 -14.6906 101.029
15.1572 -14.8713 101.248
15.2993 -14.8889 101.02
15.1797 -15.0858 101.266
15.044 -14.7699 101.39
15.0365 -14.5488 101.361
15.0323 -14.3572 101.348
14.96 -14.6206 101.489
14.9537 -14.4316 101.458
15.0268 -14.2089 101.352
15.0168 -14.0853 101.362
14.944 -14.2897 101.446
14.9283 -14.1805 101.449
15.0007 -13.9654 101.359
14.8981 -14.0861 101.472
14.8735 -14.2001 101.517
14.8981 -14.4482 101.566
14.8835 -14.3084 101.537
14.9057 -14.6342 101.611
15.7125 -17.1339 100.799
15.43 -16.6954 101.113
15.3121 -16.372101 101.295
15.2447 -16.125799 101.392
15.1946 -15.9309 101.442
15.0787 -15.221 101.46
15.059 -15 101.427
13.3066 -6.8397298 96.701897
13.2605 -6.6842499 97.067299
13.4665 -7.0978098 97.033302
13.3913 -6.9147902 97.238998
13.5826 -7.3002901 97.444901
13.4591 -7.0640602 97.514801
13.0821 -6.3753099 97.033501
12.8429 -6.0127902 97.203796
13.2982 -6.5759401 97.306396
13.1675 -6.3393202 97.351501
13.0449 -6.1667299 97.536598
13.3585 -6.5136499 97.453903
13.2758 -6.3554001 97.502098
13.1981 -6.24435 97.629898
13.3936 -6.7586899 97.3927
13.4176 -6.63762 97.5112
13.4319 -6.8685398 97.576797
13.4395 -6.7146702 97.626404
13.4461 -7.12643 97.857697
13.4011 -6.9039602 97.818703
13.4097 -6.7336998 97.790703
13.3515 -7.06389 98.184601
13.311 -6.84338 98.046097
13.3437 -6.6976099 97.948502
13.2609 -6.5793099 98.027199
13.1871 -6.42484 98.006302
13.1805 -6.6679201 98.180496
13.0482 -6.4170699 98.157799
13.1697 -6.8236098 98.413597
12.8583 -6.3263001 98.513
12.7629 -5.9957399 97.889503
13.0025 -6.2129302 97.873802
13.1722 -6.2951198 97.833504
13.3791 -6.4867902 97.582199
13.2963 -6.3635602 97.688301
13.3637 -6.5033202 97.735199
13.4193 -6.6103601 97.677803
13.364 -6.5948901 97.8536
13.2863 -6.44696 97.872902
12.7093 -6.1616302 99.092201
13.1205 -6.8071098 99.055397
13.366 -7.15695 98.7612
13.5475 -7.3855901 98.390701
12.8644 -6.0829401 96.3283
12.5084 -5.5311499 96.972603
13.117 -6.51404 96.442902
13.8649 -7.75634 98.027802
13.605 -7.40062 97.921204
12.4045 -5.5616698 98.612999
12.3973 -5.43433 97.858101
14.1542 -9.033 89.936897
14.1027 -8.89184 90.099403
13.9823 -8.7059002 90.192001
14.1544 -9.2152395 89.960701
14.0848 -9.0113497 90.198196
13.9119 -8.7422104 90.313698
14.23 -9.5545902 90.005997
14.1134 -9.1486502 90.370796
13.8522 -8.7407503 90.506203
13.789 -8.5695295 89.945297
13.606 -8.5101604 89.955803
13.2104 -8.1818705 89.971199
13.8601 -8.5840397 90.105003
13.7261 -8.5539103 90.196198
13.5504 -8.4123402 90.358299
13.7009 -9.0583801 89.629601
13.4445 -8.6574097 89.704498
13.8562 -8.9615498 89.701797
13.6876 -8.7074699 89.770401
13.9538 -8.8744001 89.759804
13.8411 -8.69559 89.8181
13.9613 -9.3661098 89.715599
14.0407 -9.1615896 89.772003
14.0837 -9.0033903 89.8125
14.1065 -8.8736801 89.944504
14.0307 -8.7420797 89.950401
14.0211 -8.7116404 90.060097
13.9234 -8.6411505 89.952003
14.008 -8.8004904 89.844902
12.6513 -7.5300899 89.891098
12.9574 -7.6234002 90.399803
13.3955 -8.0949001 90.692596
13.8606 -8.6779499 90.820198
12.7232 -7.9327202 89.599403
13.108 -8.5637798 89.542099
13.4825 -9.1614399 89.5158
14.114 -9.9054604 89.654602
14.4655 -9.9630098 89.980598
13.8131 -9.6119204 89.553398
14.5564 -9.7544203 90.439301
14.2762 -9.2704496 90.701202
16.234301 -12.2437 92.970901
15.7635 -11.3931 92.683098
17.192499 -13.6796 93.274696
16.7001 -12.9756 93.141998
20.2791 -18.525999 94.2705
19.265301 -17.2694 94.217697
13.709 -17.384199 87.723602
13.8024 -17.1292 87.7183
13.726 -16.8794 87.703102
13.8248 -17.5016 87.827599
13.9343 -17.114201 87.8283
13.8121 -16.7855 87.801003
14.2436 -17.064199 87.940804
14.0181 -16.5942 87.903
13.1928 -16.880199 87.600899
13.0584 -16.7554 87.681801
12.6238 -16.3417 87.767502
13.4603 -16.7952 87.637299
13.4594 -16.6532 87.732201
13.5098 -16.3647 87.832901
13.6003 -17.274401 87.632698
13.4708 -17.145399 87.556099
13.6026 -17.0042 87.609802
13.3307 -17.0109 87.564697
11.5899 -15.3441 87.734001
12.1518 -14.5436 87.8479
13.0245 -15.3293 87.888496
13.8117 -15.8028 87.951401
14.429 -16.238701 88.016899
14.873 -16.784201 88.066597
13.7101 -14.5922 104.278
13.5259 -14.3016 104.587
13.506 -14.6474 104.303
13.7482 -14.1889 104.589
13.8557 -14.4405 104.37
14.0103 -14.1366 104.481
14.0454 -14.3704 104.313
14.5458 -14.0554 103.991
14.4282 -14.4709 103.706
14.808 -13.9217 103.737
14.7311 -14.287 103.417
14.5134 -14.8413 103.127
14.5885 -15.1712 102.652
14.7097 -14.6498 102.991
14.7219 -14.9808 102.577
13.7379 -15.1733 103.554
13.9016 -15.436 103.106
13.9665 -14.9971 103.606
14.1074 -15.2807 103.121
13.7926 -14.8356 103.955
13.6091 -14.9309 103.946
15.1517 -12.8324 104.114
15.3089 -12.4644 104.067
14.9263 -12.6928 104.416
15.0713 -12.29 104.376
14.5047 -12.9907 104.679
14.6419 -12.5383 104.713
14.7823 -12.089 104.673
15.4571 -12.1367 103.962
15.586 -11.8008 103.82
15.2054 -11.92 104.27
15.3272 -11.5434 104.125
14.9046 -11.6762 104.552
15.0176 -11.2735 104.387
15.6794 -11.403 103.66
15.7065 -10.9515 103.432
15.4287 -11.1136 103.957
15.4567 -10.6368 103.711
15.1199 -10.8455 104.203
15.1378 -10.3783 103.937
15.6495 -10.4806 103.093
15.5573 -10.0655 102.683
15.374 -10.1416 103.341
15.252 -9.6943998 102.885
15.0182 -9.8774004 103.532
14.8624 -9.4041796 103.038
15.4833 -9.7733698 102.258
15.434 -9.6016102 101.857
15.1693 -9.3587198 102.403
15.1244 -9.1468 101.943
14.7788 -9.0251904 102.524
14.7509 -8.7715797 102.031
15.4045 -9.5312901 101.508
15.3919 -9.5474901 101.202
15.0983 -9.0556297 101.54
15.0855 -9.0725002 101.184
14.7394 -8.65732 101.582
14.7381 -8.6624603 101.171
15.3947 -9.6335402 100.921
15.4192 -9.7646799 100.654
15.0859 -9.1779804 100.854
15.1121 -9.33881 100.546
14.7511 -8.7596302 100.786
14.7907 -8.9253101 100.43
15.4708 -9.9190302 100.398
15.5446 -10.0972 100.158
15.175 -9.5248299 100.257
15.2696 -9.7333698 99.9925
14.8685 -9.1377296 100.11
14.9864 -9.3776903 99.826302
15.6335 -10.3043 99.943398
15.7323 -10.5439 99.757698
15.3867 -9.9694204 99.760002
15.5176 -10.239 99.559402
15.1395 -9.6335201 99.578903
15.3045 -9.92031 99.365097
15.8383 -10.8206 99.603203
15.9556 -11.1446 99.488403
15.6564 -10.5491 99.392403
15.8065 -10.9054 99.268204
15.4626 -10.2567 99.184196
15.6298 -10.6462 99.046303
16.082199 -11.5259 99.422997
16.183201 -11.9673 99.414101
15.9664 -11.3149 99.198097
16.105801 -11.7908 99.195702
15.8205 -11.0929 98.966301
16.006001 -11.6144 98.968803
16.2195 -12.4639 99.465897
16.1654 -12.9871 99.574898
16.1877 -12.3376 99.269997
16.180201 -12.9201 99.407097
16.145399 -12.2194 99.069
16.1933 -12.8667 99.236298
16.013599 -13.5039 99.740196
15.8175 -13.989 99.983498
16.066299 -13.4964 99.596497
15.8895 -14.0398 99.8638
16.120001 -13.5075 99.445198
15.9641 -14.1114 99.7313
15.6337 -14.4206 100.314
15.4718 -14.7844 100.675
15.7004 -14.5266 100.225
15.5226 -14.9328 100.617
15.7765 -14.6515 100.122
15.5892 -15.0943 100.548
15.3294 -15.0701 101.001
15.2059 -15.2799 101.27
15.3692 -15.2407 100.971
15.2384 -15.4575 101.26
15.4238 -15.4146 100.928
15.2812 -15.6288 101.236
15.1 -15.4194 101.478
15.0056 -15.4935 101.645
15.1248 -15.5971 101.48
15.019 -15.6696 101.656
15.1556 -15.7617 101.469
15.0345 -15.8286 101.652
14.9169 -15.5021 101.804
14.8357 -15.4256 101.992
14.9126 -15.6793 101.822
14.8018 -15.6064 102.019
14.9053 -15.8365 101.824
14.7596 -15.7678 102.028
14.7671 -15.2472 102.243
14.6881 -15.4332 102.287
14.5965 -15.606 102.306
14.4403 -15.3652 102.677
14.3241 -13.7776 104.439
14.3981 -13.406 104.581
14.2818 -14.1009 104.268
14.2444 -14.3578 104.109
14.218 -14.808 103.577
14.3154 -15.0766 103.134
14.019 -14.7849 103.841
14.1549 -14.6834 103.821
14.2453 -14.5357 103.901
14.0552 -14.6763 103.95
14.1229 -14.6255 103.939
14.1677 -14.5569 103.975
13.9203 -14.7372 103.988
14.0101 -14.6553 104.014
13.8912 -14.6242 104.147
14 -14.6012 104.085
14.0314 -14.5662 104.113
14.1016 -14.5275 104.109
13.9624 -14.5355 104.218
14.079 -14.4847 104.188
14.1924 -14.4748 104.065
14.1535 -14.5256 104.047
14.0716 -14.6193 104.006
14.1254 -14.5851 103.996
14.1001 -14.5811 104.034
14.0583 -14.5845 104.063
14.1133 -14.5499 104.059
14.3945 -13.8521 100.884
14.226 -13.9536 101.336
14.1227 -13.8927 101.909
14.4882 -13.8581 100.967
14.3402 -13.9424 101.396
14.2533 -13.8731 101.938
14.5772 -13.8599 101.061
14.445 -13.9262 101.454
14.3706 -13.8511 101.954
14.6584 -13.8576 101.171
14.5354 -13.9049 101.509
14.4687 -13.8273 101.944
14.1564 -13.5592 102.513
14.3372 -13.0766 102.978
14.2756 -13.5584 102.521
14.4228 -13.1048 102.978
14.3812 -13.5638 102.513
14.5006 -13.1465 102.964
14.4714 -13.5792 102.471
14.5795 -13.2085 102.916
14.6464 -12.5977 103.162
15.0072 -12.1585 103.109
14.6916 -12.6443 103.161
15.0343 -12.2133 103.099
14.7406 -12.7033 103.15
15.0711 -12.2734 103.084
14.8065 -12.7814 103.109
15.1354 -12.3494 103.043
15.3413 -11.7731 102.898
15.621 -11.4852 102.556
15.3904 -11.8315 102.858
15.6924 -11.547 102.495
15.4411 -11.8871 102.822
15.7561 -11.6009 102.446
15.4991 -11.9479 102.781
15.8078 -11.6551 102.409
15.8327 -11.3313 102.119
15.968 -11.2874 101.687
15.8879 -11.3982 102.073
15.9911 -11.3578 101.674
15.9377 -11.4584 102.039
16.015499 -11.4245 101.669
15.978 -11.5197 102.022
16.043699 -11.4979 101.67
16.0256 -11.3181 101.351
16.026699 -11.4019 101.083
16.031099 -11.3871 101.364
16.0298 -11.4695 101.108
16.0397 -11.4536 101.38
16.034401 -11.5344 101.131
16.0539 -11.5202 101.395
16.0429 -11.5987 101.153
15.9956 -11.521 100.841
15.9455 -11.6563 100.625
16.0042 -11.592 100.86
15.9617 -11.7367 100.639
16.013599 -11.6608 100.882
15.9774 -11.8145 100.658
16.024401 -11.7266 100.911
15.9934 -11.8867 100.691
15.886 -11.793 100.446
15.8185 -11.9296 100.301
15.9058 -11.8857 100.467
15.84 -12.0277 100.337
15.9244 -11.9745 100.489
15.8602 -12.1224 100.372
15.9423 -12.0535 100.526
15.8807 -12.2076 100.415
15.7418 -12.0711 100.182
15.6479 -12.2332 100.088
15.7653 -12.1597 100.237
15.6765 -12.3079 100.16
15.7899 -12.2503 100.29
15.7078 -12.3892 100.232
15.8178 -12.34 100.349
15.7448 -12.4796 100.312
15.5295 -12.4305 100.022
15.3864 -12.6612 99.995201
15.5677 -12.4969 100.105
15.4383 -12.7202 100.085
15.6082 -12.5707 100.191
15.4914 -12.7844 100.181
15.6525 -12.6554 100.29
15.5457 -12.8563 100.295
15.2222 -12.915 100.019
15.0491 -13.1669 100.099
15.2906 -12.9618 100.114
15.1329 -13.1988 100.194
15.3603 -13.0107 100.217
15.2189 -13.2302 100.297
15.4307 -13.063 100.337
15.3051 -13.2607 100.416
14.8788 -13.3915 100.235
14.7153 -13.5778 100.402
14.9734 -13.4105 100.324
14.8124 -13.5897 100.487
15.0695 -13.4269 100.42
14.9097 -13.5981 100.581
15.1648 -13.4397 100.531
15.0043 -13.6015 100.69
14.5583 -13.7247 100.594
14.6497 -13.7359 100.682
14.7397 -13.7433 100.782
14.8255 -13.7466 100.901
8.1069603 -18.976601 89.707603
8.0927401 -19.0049 90.141998
8.0173597 -19.0413 90.5662
8.5754204 -19.423201 89.667801
8.5959396 -19.4828 90.110001
8.5674496 -19.565001 90.536301
9.2187099 -19.9025 89.710701
9.2749901 -19.982401 90.1474
9.2756796 -20.0818 90.569702
9.9244499 -20.406099 89.818199
9.9836197 -20.4748 90.222397
9.9878702 -20.565201 90.620796
10.6192 -20.898199 89.958099
10.6554 -20.942101 90.312103
10.6472 -21.0126 90.674301
11.2723 -21.3566 90.097504
11.2776 -21.383801 90.400398
11.2534 -21.4391 90.725197
11.985 -21.8389 90.223099
11.9691 -21.856001 90.483299
11.9352 -21.9034 90.777802
12.8462 -22.3981 90.325203
12.8301 -22.405399 90.559502
12.7987 -22.4513 90.8358
13.7629 -22.986 90.390404
13.756 -22.9849 90.619102
13.733 -23.033001 90.891197
14.6151 -23.5352 90.409203
14.6122 -23.5291 90.653297
14.596 -23.581301 90.936302
15.3573 -24.000099 90.389099
15.3524 -23.9953 90.664803
15.3393 -24.055 90.9692
15.9805 -24.3493 90.346802
15.9706 -24.353201 90.662201
15.9568 -24.424999 90.993103
16.5502 -24.5863 90.318703
16.534599 -24.6 90.664703
16.518499 -24.6849 91.016197
17.128401 -24.722601 90.337502
17.109501 -24.7423 90.689796
17.0917 -24.837299 91.046898
17.6924 -24.7717 90.403603
17.6737 -24.794399 90.737801
17.6565 -24.896 91.084396
18.215599 -24.748501 90.504799
18.2001 -24.773199 90.801903
18.185699 -24.878 91.124702
18.7416 -24.6763 90.612099
18.7253 -24.6987 90.8666
18.7078 -24.7969 91.159599
19.308901 -24.5825 90.698898
19.2819 -24.593901 90.917603
19.249901 -24.6702 91.182404
19.865601 -24.506001 90.764198
19.824499 -24.494699 90.954201
19.773199 -24.530399 91.192497
20.342501 -24.478701 90.810204
20.2941 -24.434099 90.973198
20.2358 -24.4011 91.183403
20.691601 -24.496099 90.823097
20.659599 -24.424299 90.9478
8.2462397 -18.649599 90.058403
8.0822296 -18.466 90.364502
7.63025 -17.889799 90.7323
8.0266504 -18.686899 89.935204
7.9176998 -18.616699 90.266701
7.7445102 -18.5165 90.675102
9.4534502 -19.4627 90.104103
9.4763803 -19.414101 90.341301
9.61415 -19.2269 90.534698
8.7561502 -18.9615 90.086502
8.7037497 -18.849001 90.3601
8.7057896 -18.5879 90.601303
10.9508 -20.4814 90.258003
10.9834 -20.4575 90.426102
11.1396 -20.2827 90.566902
10.2156 -19.9778 90.168098
10.2599 -19.9536 90.369797
10.4255 -19.7805 90.534203
12.3358 -21.530199 90.4207
12.3323 -21.503099 90.533501
12.4556 -21.3225 90.636497
11.6171 -20.989599 90.341698
11.6295 -20.962999 90.479897
11.7702 -20.782 90.600098
14.1227 -22.6789 90.569901
14.1235 -22.644199 90.655701
14.2078 -22.4986 90.737297
13.2125 -22.1152 90.500504
13.2044 -22.0879 90.5951
13.3076 -21.9223 90.684303
15.5827 -23.5329 90.656097
15.6193 -23.452999 90.765198
15.6802 -23.3214 90.864403
14.9182 -23.1528 90.618698
14.9383 -23.0973 90.708099
15.0095 -22.9653 90.791298
16.644699 -24.103701 90.745102
16.682199 -24.0152 90.926201
16.7435 -23.8608 91.096703
16.140499 -23.8367 90.695297
16.179001 -23.741899 90.8395
16.2321 -23.5966 90.9729
17.6775 -24.5383 90.8647
17.726 -24.5182 91.068199
17.8223 -24.3937 91.266197
17.148399 -24.358 90.808098
17.193501 -24.301399 91.011299
17.284 -24.1588 91.206497
18.881201 -24.4702 90.931
18.883301 -24.461599 91.086304
18.8379 -24.3367 91.237198
18.249901 -24.577801 90.898598
18.2831 -24.5749 91.079697
18.3235 -24.4575 91.257599
19.559401 -24.2167 90.981697
19.5235 -24.184299 91.125999
19.4067 -24.042999 91.259804
20.878401 -24.5266 90.809502
8.8867302 -20.4953 92.218399
8.2253399 -20.0089 92.191704
7.7961998 -19.532499 92.250801
8.9764204 -20.383801 92.789299
8.3839397 -19.9503 92.760399
8.0208998 -19.5674 92.784302
9.1239595 -20.2057 93.278297
8.5984602 -19.8297 93.238297
8.2764997 -19.5769 93.1745
10.2625 -21.4261 92.302399
9.5918598 -20.9709 92.260696
10.3201 -21.294201 92.872498
9.65205 -20.840099 92.830597
10.432 -21.0937 93.360603
9.7684698 -20.6423 93.318901
11.5986 -22.363701 92.389801
10.8862 -21.8689 92.3423
11.6593 -22.2356 92.961304
10.9452 -21.738701 92.913101
11.7692 -22.034 93.449501
11.0564 -21.5378 93.401299
13.5156 -23.6075 92.521896
12.5144 -22.9617 92.452202
13.5829 -23.487499 93.096199
12.5777 -22.8372 93.024803
13.6893 -23.2843 93.584503
12.6856 -22.634501 93.5131
15.2476 -24.770901 92.648201
14.4484 -24.2257 92.589104
15.3167 -24.659201 93.224503
14.5199 -24.110901 93.164597
15.413 -24.452499 93.712601
14.6247 -23.907301 93.653099
16.4561 -25.5508 92.739601
15.8932 -25.212999 92.696899
16.4688 -25.4489 93.313797
15.9451 -25.1017 93.272903
16.495501 -25.237499 93.796997
16.0175 -24.888399 93.759399
17.547701 -25.918501 92.818604
17.009899 -25.7882 92.7808
17.434099 -25.8866 93.387001
16.960501 -25.7152 93.351997
17.3221 -25.7327 93.8619
16.9184 -25.525 93.830597
18.568399 -25.826799 92.871101
18.055401 -25.933201 92.8498
18.4177 -25.8664 93.445
17.9004 -25.942801 93.417702
18.256001 -25.7911 93.9244
17.7428 -25.830999 93.891998
19.680599 -25.273399 92.877899
19.1194 -25.5996 92.880798
19.6525 -25.3214 93.486099
19.0261 -25.649401 93.468803
19.5825 -25.280701 93.996101
18.9074 -25.596901 93.960602
20.2138 -24.8722 92.867302
20.2145 -24.9165 93.496696
20.1604 -24.883301 94.026001
9.2335396 -20.0606 93.498299
8.72857 -19.6943 93.442596
8.3405104 -19.430599 93.286102
9.25842 -19.998301 93.452599
8.7605305 -19.599701 93.404503
8.4387798 -19.3571 93.315598
10.5241 -20.941401 93.580704
9.8632002 -20.491199 93.5392
10.5539 -20.8981 93.525902
9.8924198 -20.4452 93.489098
11.8572 -21.881001 93.670601
11.1468 -21.385599 93.621597
11.8742 -21.8452 93.625
11.1697 -21.3473 93.569801
13.7766 -23.124701 93.806503
12.7723 -22.479099 93.734497
13.8152 -23.058599 93.770599
12.7937 -22.434799 93.692902
15.4974 -24.280701 93.937302
14.7139 -23.7421 93.876801
15.5773 -24.1576 93.923401
14.7788 -23.6437 93.852303
16.5289 -25.058599 94.018898
16.083401 -24.710501 93.983101
16.57 -24.951099 94.008797
16.149799 -24.586201 93.973
17.2715 -25.5777 94.079002
16.9097 -25.354401 94.049797
17.2817 -25.514099 94.071899
16.932199 -25.2703 94.0411
18.1537 -25.679001 94.139801
17.660999 -25.6966 94.108101
18.124599 -25.6194 94.117104
17.6577 -25.642401 94.099503
19.4636 -25.1991 94.213799
18.793301 -25.5047 94.175697
19.355 -25.1 94.131302
18.721001 -25.425301 94.121597
20.0413 -24.7973 94.250298
19.9266 -24.691999 94.161697
9.2571497 -19.9004 93.013199
9.2067604 -20.01 93.222702
8.6094103 -19.278999 92.9422
8.6624804 -19.5116 93.171799
7.7280998 -18.4914 92.658798
8.2118301 -19.1521 93.053902
10.5984 -20.881599 93.047203
10.5253 -20.954901 93.272697
9.9322205 -20.4177 93.027397
9.8606901 -20.495399 93.246201
11.8915 -21.8423 93.178497
11.8226 -21.918301 93.3918
11.199 -21.3405 93.102097
11.1283 -21.414499 93.323502
13.8959 -22.976601 93.356796
13.8128 -23.072701 93.558403
12.8241 -22.411501 93.259598
12.7536 -22.492399 93.4683
15.8101 -23.9042 93.5812
15.6724 -24.056299 93.758904
14.9446 -23.4664 93.476997
14.8341 -23.591801 93.664803
16.7885 -24.7432 93.661903
16.6339 -24.8955 93.8526
16.387501 -24.328501 93.6343
16.237499 -24.488701 93.8162
17.494301 -25.434601 93.737999
17.3459 -25.5562 93.926804
17.149599 -25.1318 93.6968
16.991501 -25.268999 93.889603
18.2169 -25.5149 93.730003
18.16 -25.640699 93.9403
17.830799 -25.5828 93.767303
17.717699 -25.696501 93.9533
19.244699 -24.804199 93.480103
19.3048 -24.9869 93.819801
18.701 -25.2099 93.597298
18.709499 -25.371201 93.8741
19.7869 -24.427401 93.480003
19.870199 -24.5856 93.835701
7.7193599 -19.063499 92.441704
8.0107203 -19.2691 92.914001
20.188499 -24.7432 92.339798
20.169201 -24.5828 91.903099
19.6901 -25.1064 92.361504
19.7012 -24.8792 91.925201
20.182699 -24.4547 91.509804
19.729401 -24.6684 91.525902
19.168699 -25.4077 92.3759
19.193899 -25.135 91.941399
18.645901 -25.625601 92.374901
18.6742 -25.3279 91.941902
19.2197 -24.8652 91.533699
18.691601 -25.024401 91.527702
18.133801 -25.7383 92.356796
18.159401 -25.4314 91.923897
17.6066 -25.742399 92.325798
17.627899 -25.440399 91.893402
18.173 -25.115801 91.5065
17.641899 -25.129299 91.475098
17.0411 -25.6385 92.287804
17.059099 -25.3531 91.856796
16.4627 -25.4263 92.247002
16.480801 -25.163099 91.818604
17.075001 -25.0576 91.440201
16.5002 -24.888399 91.405197
15.8871 -25.1054 92.205399
15.9092 -24.863199 91.780296
15.2413 -24.676201 92.158997
15.2737 -24.4545 91.738197
15.9353 -24.6101 91.371696
15.311 -24.222401 91.3349
14.4517 -24.145 92.1035
14.5011 -23.943899 91.687401
13.5332 -23.541599 92.040199
13.6029 -23.361 91.629303
14.5559 -23.732901 91.290298
13.6778 -23.170099 91.237999
12.5452 -22.909201 91.973999
12.6342 -22.747601 91.568001
11.6401 -22.321899 91.914299
11.7445 -22.1754 91.512299
12.7286 -22.5755 91.181099
11.8544 -22.018499 91.128403
10.935 -21.8346 91.868896
11.05 -21.698601 91.469902
10.3165 -21.396999 91.830498
10.4389 -21.268299 91.433296
11.1698 -21.551399 91.086502
10.5651 -21.127199 91.049698
9.6480999 -20.9447 91.790001
9.7758598 -20.821301 91.394096
8.9314899 -20.462 91.747498
9.0589895 -20.339199 91.352798
9.9071503 -20.6847 91.010101
9.1921196 -20.203899 90.9683
8.2330198 -19.9487 91.721199
8.3470201 -19.817801 91.3255
7.74088 -19.4182 91.790298
7.8073502 -19.264999 91.387398
8.4750404 -19.680799 90.938698
7.9126101 -19.130301 90.9823
7.5418901 -18.8484 91.993301
7.5137 -18.657301 91.571899
7.19805 -18.0644 92.144501
7.0525999 -17.8295 91.690002
7.5816898 -18.5382 91.124802
7.1336598 -17.7502 91.204102
9.9455404 -18.8276 90.622101
10.2715 -18.431999 90.565201
8.9827995 -18.1896 90.683197
9.2800703 -17.8314 90.623497
7.8687201 -17.365299 90.698799
8.1354103 -17.0341 90.619598
11.4676 -19.885401 90.633102
11.7783 -19.4884 90.573799
10.7665 -19.3811 90.609901
11.0901 -18.980499 90.551903
12.7748 -20.8944 90.689697
13.0883 -20.464199 90.631599
12.094 -20.368 90.659203
12.4057 -19.9548 90.600304
14.4628 -22.126699 90.780197
14.7218 -21.7432 90.718597
13.605 -21.5077 90.732101
13.9027 -21.0858 90.672997
15.8238 -23.050301 90.909203
15.9683 -22.7738 90.837601
15.206 -22.6541 90.831497
15.4063 -22.3316 90.7658
16.8804 -23.5553 91.178497
16.988899 -23.2488 91.093399
16.3521 -23.316 91.032799
16.466 -23.038401 90.953102
17.9981 -24.0886 91.383698
18.0755 -23.7391 91.311302
17.467899 -23.8503 91.310204
17.5814 -23.5154 91.2267
18.706301 -24.003 91.342903
18.532499 -23.6693 91.301399
18.3682 -24.140699 91.375
18.330799 -23.795601 91.321098
19.1472 -23.705 91.348
18.880301 -23.3797 91.3022
19.3957 -23.9596 93.3908
19.599001 -24.1842 93.304497
18.9545 -24.2691 93.402496
19.108999 -24.5222 93.314796
18.5424 -24.5079 93.524498
18.638399 -24.849701 93.454903
18.2351 -24.6278 93.639503
18.249201 -25.071501 93.6045
18.057501 -24.6171 93.673897
17.9725 -25.0961 93.6418
17.9119 -24.4816 93.620399
17.730499 -24.952299 93.603104
17.653 -24.303499 93.603699
17.431101 -24.704599 93.5672
17.2756 -24.0753 93.5979
17.062401 -24.3944 93.548203
16.7773 -23.802999 93.609299
16.611 -24.051399 93.544502
16.131201 -23.428699 93.604301
15.9944 -23.656601 93.517998
15.3205 -22.9021 93.552101
15.1479 -23.183701 93.436996
14.3931 -22.264601 93.474403
14.1522 -22.6292 93.333504
13.4244 -21.5888 93.399902
13.1286 -22.0126 93.245499
12.5343 -20.9795 93.334702
12.217 -21.4244 93.1707
11.8108 -20.5105 93.279404
11.5088 -20.939899 93.102203
11.1701 -20.097401 93.235001
10.8879 -20.504601 93.050903
10.5104 -19.6416 93.200996
10.2243 -20.043301 93.026001
9.8272305 -19.140499 93.171303
9.5408401 -19.526899 93.006897
7.9491601 -18.0504 92.830704
8.1690798 -17.746 93.030602
8.8476601 -18.9121 92.960297
9.1030502 -18.573299 93.130302
10.4112 -18.2356 90.357903
10.5366 -18.066999 90.098
9.4177399 -17.6502 90.4151
9.5766401 -17.4774 90.153702
8.27283 -16.8764 90.409599
8.4689999 -16.7089 90.147301
11.9056 -19.296101 90.365799
12.0116 -19.1462 90.100403
11.2243 -18.7843 90.344398
11.3335 -18.624001 90.082298
