# .PCD v.7 - Point Cloud Data file format
VERSION .7
FIELDS x y z
SIZE 4 4 4
TYPE F F F
COUNT 1 1 1
WIDTH 1670
HEIGHT 1
VIEWPOINT 0 0 0 1 0 0 0
POINTS 1670
DATA ascii
3.18172 -16.3253 83.535103
2.9956901 -15.336 83.305603
2.9600999 -16.2707 83.269302
2.6419499 -15.2973 83.1222
2.62885 -16.213699 83.045998
2.2927201 -15.219 82.955597
2.28685 -16.1436 82.825699
1.9681 -15.1204 82.790901
1.96026 -16.0732 82.625198
1.64276 -15.0144 82.621803
1.62678 -15.9967 82.4636
1.19594 -14.845 82.448402
1.1426001 -15.8124 82.314201
3.10919 -17.415501 83.493401
3.1110201 -17.470301 83.846603
2.9906299 -17.516399 84.187401
2.5975001 -17.3144 82.922401
2.9149599 -17.3641 83.193001
1.91941 -17.212601 82.421898
2.2497001 -17.2624 82.652496
1.83338 -18.3647 82.210297
2.1591499 -18.4244 82.457199
1.12001 -17.000999 82.132202
1.59909 -17.1647 82.262703
1.45827 -18.3123 82.033203
-0.65968502 -16.4589 81.810303
-0.66859502 -14.9235 81.968102
0.331357 -16.687099 81.977501
0.37174499 -15.432 82.147697
3.9282501 -6.4349399 84.9823
4.5453 -6.5623698 85.354401
4.3161402 -7.4157 85.024696
4.7217302 -7.5785398 85.289497
4.2046399 -8.4626303 84.845299
4.5187898 -8.5254602 85.108398
5.3854599 4.0556798 96.767097
4.8021402 4.2321701 97.555
5.5190601 3.1803899 97.764198
5.1505799 3.34654 98.259697
4.6759 3.4156599 98.936401
4.3659501 -12.1344 92.463203
4.0144601 -12.7673 92.078796
4.68607 -11.741 91.948303
4.3034801 -12.5108 91.570801
2.07533 -20.8326 82.384499
2.34905 -20.834299 82.757401
2.48 -20.840099 83.083099
1.93459 -21.2903 82.322601
2.1744699 -21.3002 82.683601
2.2663701 -21.3211 82.975403
1.5696 -21.3006 81.955704
1.02713 -21.3221 81.635002
1.68025 -20.8405 82.013397
1.1092499 -20.8416 81.690804
1.8073699 -20.2421 82.104401
-0.620704 -20.8806 81.272903
0.30484 -20.875799 81.447899
-0.61838698 -21.3442 81.2276
0.26804501 -21.341101 81.3974
2.4528501 -20.841299 83.333801
2.3533499 -20.841299 83.566101
2.1990199 -21.342199 83.166298
2.0836599 -21.3578 83.359802
2.01232 -21.7882 82.876297
1.9148099 -21.810301 83.041901
1.78532 -21.821199 83.219101
-0.61715102 -21.778299 81.191002
0.224865 -21.780001 81.3554
0.93938702 -21.766001 81.586502
1.75737 -21.7346 82.251503
1.43513 -21.745501 81.8964
1.9562401 -21.7561 82.600998
2.00196 -19.4356 82.265602
1.60411 -19.2941 81.993797
-0.39913401 -25.554199 83.530899
-0.225915 -25.5478 83.609001
-0.69900203 -25.558599 83.422302
-0.55830199 -25.562401 83.464798
3.9553199 -13.3145 90.559799
3.2613499 -14.3022 90.226501
4.82759 -11.5561 91.289101
4.48384 -12.3998 90.928596
4.8446202 -11.4778 90.564201
4.5461702 -12.3611 90.217102
5.7266898 -5.9537802 95.502403
5.6792698 -6.08042 96.581398
5.4861398 -6.2599802 97.613701
5.4244699 -6.98067 95.745399
5.4400902 -6.9296098 96.570503
5.2628698 -7.0795202 97.490196
4.2268901 -7.7202001 99.3097
4.8062301 -7.35602 98.431602
5.0233202 -6.5510998 98.667297
3.25699 -8.7544699 100.527
3.6997399 -8.2166796 99.995201
2.8618801 -9.3239899 100.943
2.6854401 -12.4069 99.909599
2.8882599 -12.9937 99.5597
4.9127698 -11.0105 92.2547
5.0394702 -10.3029 92.545898
4.6268702 -11.46 92.778297
4.8038502 -10.814 93.053802
4.3102498 -12.0053 93.188499
5.0285702 -10.792 91.579002
5.0474601 -10.6694 90.862701
5.1471 -10.1423 91.829597
5.1933098 -10.0009 91.099197
5.1712799 -9.1838303 93.243401
5.1268301 -9.6879902 92.9086
5.3067598 -8.7722998 92.786102
5.2860599 -9.1683998 92.445702
5.2417402 -9.6166801 92.088203
5.43222 -8.3598604 92.361298
5.4156699 -8.7249699 91.963699
5.3787899 -9.1348495 91.6138
4.9163799 -10.2725 93.349998
4.9711399 -9.8734798 93.671097
4.1289701 -12.4758 93.550697
4.0268302 -12.8827 93.840698
5.7183099 -6.6472702 88.424301
5.53581 -7.8234 88.301399
5.6449099 -6.5940499 87.778503
5.50213 -7.7317901 87.749001
5.55446 -6.6890502 87.111099
5.4321299 -7.8115301 87.178596
5.9517999 -6.4141698 90.456001
5.8727999 -6.8736501 90.956299
5.7358599 -7.4414601 91.484596
5.8302498 -7.1159301 89.887703
5.76828 -7.5212498 90.389503
5.6747098 -7.9021201 90.927399
5.6982698 -7.72684 89.541496
5.6556802 -8.0906496 90.037598
5.5865798 -8.4276695 90.547203
5.8013301 0.28625301 91.656898
5.9870501 0.96525598 93.000397
5.9745898 0.28603601 93.092598
5.9864898 0.67729902 94.946602
6.1068201 -0.19847099 95.180702
5.6402402 1.48975 98.2388
5.6266799 1.96457 98.442902
5.53791 1.1756099 99.222801
4.48627 -4.2589202 86.508499
4.6694899 -3.92556 86.932198
4.8474002 -3.5466101 87.4198
4.81253 -4.5095301 86.943398
4.98283 -4.1848102 87.411903
5.1403899 -3.7676899 87.9506
5.2533302 -4.9334998 87.407097
5.3704901 -4.53091 87.923599
5.5001798 -4.0637598 88.5224
4.3976898 -5.0039201 86.061897
4.8218398 -4.9900198 86.6688
4.6953602 -5.6420698 86.027298
5.1209698 -5.5858102 86.627899
5.4677701 -5.6234398 87.342903
5.0701599 -6.3812399 85.991997
5.36584 -6.4257698 86.503197
6.0083098 -5.2534199 89.575798
5.86731 -5.9492302 88.922997
5.8535099 -4.55826 89.1092
5.7642598 -5.0960002 88.491402
5.7132502 -5.53197 88.038902
5.0050201 -3.13674 87.992798
5.1566701 -2.7018099 88.659897
5.31424 -3.24646 88.655197
5.48982 -2.68483 89.494904
5.6681099 -3.4381599 89.372704
5.83038 -2.7697401 90.3946
0.49573499 0.30690399 104.001
3.4907899 3.00319 100.684
2.8485601 2.5318501 101.62
2.10566 1.91987 102.515
5.7922401 1.27649 96.7416
5.7918601 2.07423 96.9617
5.8232899 2.69841 97.174301
5.7588301 2.9936099 97.4133
5.5100899 2.2681601 98.746201
6.1332102 -0.31731901 96.618202
5.9372101 0.43010601 96.627701
6.1284499 -4.6800799 92.315201
6.0418901 -5.2546501 92.712097
5.9313302 -5.8789601 93.309898
6.0743299 -5.5162802 91.334297
5.9875498 -6.06287 91.783501
5.86975 -6.63029 92.293198
4.1628499 4.1428099 98.557602
4.1146302 3.2970901 99.773003
-3.8020699 -10.3649 101.863
-3.3160901 -10.4874 101.851
-2.77897 -10.7095 101.779
-2.0574501 -11.7339 101.211
-2.2115099 -10.7935 101.836
-1.5270801 -16.028 96.265404
-1.84179 -16.0016 96.225403
-1.03312 -16.039801 96.360298
-1.25893 -16.038099 96.313797
-0.915658 -15.7697 96.8162
-0.84009302 -16.0389 96.398903
-0.697716 -15.7899 96.844101
-0.66110897 -16.0271 96.431099
3.40119 -9.3876801 84.082199
2.96364 -9.2680998 84.051201
3.8015599 -9.3570204 84.300499
4.3970599 -9.2315397 84.961502
4.1062002 -9.2532196 84.641998
5.08321 -9.9608498 86.709
4.37853 -12.6814 85.465302
4.5485101 -12.4516 85.019203
3.96297 -11.9981 84.2332
3.95944 -12.008 83.845802
3.7679 -12.1102 83.511299
-0.185037 -24.558701 82.952003
-0.33483401 -24.3433 82.948601
-0.61065602 -24.521099 82.948303
-0.470597 -24.2054 83.008202
-0.69781703 -24.431499 82.983002
-0.053925999 -24.7759 83.001503
0.732687 -3.2520499 106.272
0.210123 -3.7978001 106.11
-0.0021500001 -3.60937 105.785
-1.45788 -28.1908 87.048103
-1.53397 -28.3545 87.295303
-1.5568 -28.200001 87.020798
-1.6520801 -28.3508 87.225304
-1.61285 -28.1966 86.990303
-0.794792 -24.583799 82.981697
-0.73164302 -24.723301 82.980598
-0.82869798 -24.7286 83.003799
-0.843297 -24.949301 83.055
-0.75480503 -24.9657 83.045998
-0.86664402 -25.215799 83.177696
-0.78314602 -25.245399 83.176697
-0.86077899 -25.8036 83.731499
-0.95374697 -25.7591 83.734497
-0.81448197 -25.5271 83.408699
-0.90235901 -25.4886 83.409897
-1.34359 -28.351 87.404602
-1.30451 -28.177099 87.117699
-1.25182 -27.6017 86.458397
-1.27537 -27.908001 86.794899
-1.36656 -27.5665 86.401604
-1.4083 -27.901501 86.733704
-1.30136 -27.055901 85.839104
-1.21319 -27.108999 85.860199
-1.3308901 -27.275499 86.098
-1.23093 -27.325399 86.138901
-1.27737 -26.9112 85.627098
-1.25392 -26.809799 85.439499
-1.1985101 -26.962799 85.635696
-1.1806999 -26.858999 85.442101
-1.11621 -26.6495 85.040199
-1.15352 -26.762199 85.250099
-1.19015 -26.6007 85.038902
-1.2256 -26.7141 85.249496
-1.1457601 -26.4517 84.790604
-1.0893199 -26.259001 84.484398
-1.06841 -26.501801 84.793198
-1.00647 -26.3097 84.486603
-0.93072897 -26.0711 84.113098
-1.0206701 -26.0222 84.1138
-0.95352697 -24.7222 83.098602
-0.89262998 -24.749201 83.040398
-0.95203298 -24.9641 83.073196
-0.90464097 -24.959 83.066002
-0.97098702 -25.2062 83.175598
-0.92573702 -25.205999 83.179001
-1.01042 -25.4618 83.405197
-0.96379501 -25.467501 83.409798
-1.06525 -25.725599 83.730499
-1.01766 -25.733 83.735001
-1.50409 -27.539301 86.353897
-1.4463 -27.5455 86.368698
-1.56039 -27.893999 86.682297
-1.49834 -27.8964 86.699898
-1.41285 -27.016701 85.8181
-1.36496 -27.0254 85.826401
-1.45425 -27.238199 86.062302
-1.40179 -27.2465 86.074097
-1.34867 -26.7738 85.432899
-1.3073 -26.781601 85.437599
-1.37895 -26.873301 85.6157
-1.33492 -26.8818 85.621696
-1.28255 -26.564699 85.033501
-1.2423199 -26.5725 85.037903
-1.31753 -26.678801 85.244598
-1.2774 -26.6866 85.249001
-1.18972 -26.2202 84.475899
-1.1464 -26.2288 84.481201
-1.24093 -26.4139 84.783203
-1.19962 -26.422199 84.788101
-1.12835 -25.9851 84.107803
-1.08231 -25.993099 84.112701
5.62922 -3.50179 103.326
5.86235 -3.43873 104.805
5.7889299 -3.39957 106.29
5.4352198 -3.2871301 103.173
5.5668802 -3.3064301 104.621
5.2526498 -3.3348601 106.243
4.5726299 -3.89468 101.961
5.1567898 -3.5655501 102.184
4.4832001 -3.5873799 102.117
5.0223899 -3.2885499 102.175
3.9790699 -4.6735001 103.033
3.9358001 -4.36589 103.223
3.3707199 -5.4559698 104.223
3.3616199 -5.16294 104.428
2.7479 -6.1004901 104.336
2.16662 -5.88377 104.798
2.7098999 -5.8116002 104.552
2.26492 -5.5102601 104.972
2.7507401 -5.5046802 104.771
1.93709 -5.8613 105.856
2.0511601 -5.3979201 105.877
1.88949 -5.7747402 107.213
2.02531 -5.1859102 107.15
2.0538499 -5.0345502 112.987
2.0805099 -5.0171499 113.44
2.1226001 -4.9941602 113.687
1.91158 -5.1820798 113.136
1.98795 -5.1185198 113.64
2.1075101 -5.0418601 113.873
2.4401901 -4.7217398 112.996
2.5550201 -4.6943402 113.306
2.24259 -4.8925099 113.482
2.29602 -4.8970098 113.737
2.20696 -4.8951001 112.895
-0.92456198 -23.8246 82.977097
-0.172141 -23.6535 83.115898
0.490704 -23.245501 83.251404
-0.96081698 -23.764999 83.207802
-0.213725 -23.597 83.345398
0.45065701 -23.203501 83.489601
1.00236 -22.761999 83.346397
1.39961 -22.2771 83.422096
0.97265798 -22.747 83.611504
1.3747 -22.2836 83.714104
1.73428 -21.824699 83.513496
2.0210099 -21.3647 83.645203
1.69427 -21.8302 83.810204
1.94701 -21.360201 83.9189
2.26281 -20.842899 83.828796
2.45473 -20.2248 84.028702
2.14429 -20.8353 84.053703
2.3008299 -20.219801 84.204399
2.59672 -19.4816 84.204399
2.7165599 -18.5854 84.344704
2.43332 -19.479099 84.3554
2.5618601 -18.5847 84.495598
2.8399999 -17.5404 84.444702
2.9563401 -16.480101 84.496002
2.69871 -17.542 84.6138
2.8210399 -16.492399 84.694603
3.0604 -15.5239 84.496002
3.20506 -14.6068 84.469704
2.91522 -15.5612 84.7295
3.03983 -14.6771 84.742897
3.4288599 -13.658 84.451797
3.65554 -12.7658 84.491402
3.24265 -13.7569 84.7677
3.4567699 -12.8659 84.837799
3.8051 -12.0485 84.623901
3.89837 -11.5843 84.8172
3.6089201 -12.1104 84.969398
3.7160499 -11.6084 85.104103
3.9654801 -11.6173 84.8573
3.9612501 -12.1469 84.721802
3.87099 -12.8904 84.624603
3.8496499 -11.6297 85.270103
3.86502 -12.2607 85.121597
3.7708299 -13.0505 85.0084
3.79371 -11.7129 85.694
3.8068399 -12.3913 85.544701
3.70436 -13.2192 85.417603
3.7864499 -11.7573 86.124001
3.80074 -12.5007 85.965797
3.69191 -13.3603 85.827599
3.7385299 -13.7625 84.590897
3.5822599 -14.6549 84.599503
3.6395099 -13.9116 84.9422
3.5009401 -14.7626 84.909798
3.5695601 -14.0691 85.318901
3.43839 -14.8783 85.243401
3.5529101 -14.2023 85.704803
3.4230299 -14.9829 85.596901
3.4123299 -15.4948 84.6157
3.23159 -16.3787 84.598503
3.3660901 -15.5609 84.886803
3.21137 -16.4153 84.835602
3.3223 -15.6349 85.178596
3.1828899 -16.4601 85.091499
3.3140299 -15.7113 85.499901
3.1814301 -16.5191 85.385803
3.04368 -17.398399 84.5131
2.8624401 -18.4599 84.360802
3.01719 -17.4226 84.725304
2.8139 -18.482599 84.565697
2.9869699 -17.4561 84.955902
2.7725799 -18.5156 84.7883
2.98632 -17.512899 85.232002
2.7687199 -18.579201 85.058197
2.6995499 -19.438101 84.154198
2.5484099 -20.271 83.916199
2.6349599 -19.4627 84.376999
2.47684 -20.3008 84.177101
2.58442 -19.4977 84.613297
2.42224 -20.3407 84.444504
2.5768299 -19.570601 84.891998
2.4137399 -20.424601 84.743301
2.3910201 -20.933701 83.674896
2.18222 -21.484699 83.4692
2.3194499 -20.9716 83.983704
2.11446 -21.529301 83.815002
2.2666099 -21.0207 84.290901
2.0664899 -21.5865 84.153503
2.2620299 -21.117001 84.615799
2.06881 -21.6938 84.499199
1.88529 -21.9865 83.333298
1.52431 -22.429899 83.273201
1.8223701 -22.030899 83.686996
1.46777 -22.4697 83.606201
1.77961 -22.0909 84.0326
1.43063 -22.528999 83.934196
1.7891901 -22.205 84.3843
1.44666 -22.646299 84.276001
1.1296099 -22.8015 83.277
0.69639099 -23.1434 83.288803
1.08172 -22.8358 83.568001
0.65734601 -23.1707 83.533699
1.05124 -22.892401 83.859497
0.63419598 -23.218 83.784203
1.07231 -23.009899 84.177498
0.65844399 -23.323601 84.074097
0.226999 -23.497601 83.258102
-0.212116 -23.852501 83.199402
0.194079 -23.516001 83.468498
-0.245574 -23.862101 83.385597
0.17707799 -23.542 83.686897
-0.263753 -23.8577 83.579399
0.200964 -23.6175 83.952797
-0.25094301 -23.8871 83.8237
-0.55075198 -24.1789 83.1399
-0.76708603 -24.436399 83.088898
-0.59280503 -24.183701 83.306
-0.81609303 -24.441601 83.2286
-0.624605 -24.1465 83.4748
-0.870812 -24.390499 83.355499
-0.650823 -24.118401 83.692101
-1.0161999 -24.2924 83.519096
3.45275 -11.5586 85.564796
3.65046 -11.4105 85.503601
3.3701601 -11.3681 85.898201
3.60745 -11.3416 85.850098
3.1859701 -10.7138 86.356003
3.57061 -11.2201 86.286797
3.31354 -12.9343 85.097099
3.44752 -12.1463 85.228897
3.57498 -11.6114 85.327904
3.2207999 -12.9747 85.316704
3.3303599 -12.1362 85.467796
3.12375 -12.9969 85.538597
3.2306499 -12.0676 85.742699
2.8592899 -12.9955 85.685097
2.9943399 -11.9281 85.968697
2.9574201 -14.7218 84.941902
3.1310699 -13.825 85.002403
2.92118 -14.7546 85.103302
3.06868 -13.8758 85.194099
2.8491499 -14.7891 85.256599
2.9818799 -13.924 85.376801
2.5915501 -14.8003 85.347801
2.7146499 -13.9468 85.488503
2.7453001 -16.487 84.824203
2.8471899 -15.5777 84.8927
2.7165501 -16.4786 84.928101
2.8243001 -15.5874 85.0243
2.67714 -16.4764 85.037201
2.7697001 -15.6009 85.1539
2.44491 -16.4541 85.100304
2.5220201 -15.5934 85.228996
2.4144101 -18.5679 84.576202
2.59144 -17.527 84.7136
2.31777 -18.550301 84.638298
2.5349901 -17.511 84.792801
2.27545 -18.5411 84.7201
2.50214 -17.5023 84.885597
2.09846 -18.5124 84.773399
2.29672 -17.4741 84.940903
2.10746 -20.199301 84.297501
2.25437 -19.461599 84.433502
1.93829 -20.177999 84.365097
2.1168599 -19.443399 84.491402
1.8350101 -20.166401 84.459
2.0458801 -19.433901 84.571198
1.6803401 -20.134001 84.535797
1.8872401 -19.4058 84.629799
1.79117 -21.3445 84.074501
1.9585299 -20.810499 84.176598
1.62098 -21.3314 84.190399
1.77593 -20.7854 84.266197
1.49663 -21.326599 84.353401
1.65377 -20.770599 84.393097
1.31127 -21.2908 84.498299
1.48771 -20.729 84.504601
1.30612 -22.319401 83.901299
1.58514 -21.8456 83.989502
1.21936 -22.3748 84.0495
1.4545 -21.8706 84.127197
1.13231 -22.4291 84.232903
1.34366 -21.896999 84.310402
0.939596 -22.443199 84.396103
1.14236 -21.8939 84.471901
0.40011001 -23.1752 83.659599
0.91909802 -22.762699 83.790398
0.35333601 -23.1786 83.8004
0.85864902 -22.807501 83.935204
0.315153 -23.2003 83.9496
0.79864699 -22.859301 84.101303
0.226052 -23.107201 84.103996
0.65231699 -22.835699 84.259804
-0.98877698 -23.679501 83.388298
-0.25582099 -23.5287 83.519302
-1.01299 -23.611401 83.544197
-0.291605 -23.4839 83.667702
-1.03672 -23.564301 83.695702
-0.319345 -23.4608 83.815498
-1.0603499 -23.3794 83.855698
-0.36908999 -23.3036 83.971397
3.7983201 -11.4483 85.1679
-0.916287 -24.5909 83.1679
-0.863105 -24.602301 83.054703
-0.97921902 -24.5399 83.2714
3.9229901 -13.6554 87.530602
3.6704199 -13.7369 88.055901
3.34758 -13.7986 88.485603
4.0210299 -12.8508 87.663803
3.7608199 -13.0169 88.170601
3.4366701 -13.1634 88.573601
3.9542301 -12.2298 87.820099
3.72384 -12.501 88.278099
3.4829299 -12.752 88.588997
3.65538 -15.2775 87.278801
3.4098101 -15.3223 87.811203
3.09481 -15.3434 88.248703
3.78495 -14.4857 87.400803
3.53844 -14.533 87.932297
3.2224 -14.5591 88.368797
3.4184101 -16.877199 87.040802
3.1731901 -16.927 87.573898
2.8587601 -16.9459 88.011803
3.54866 -16.0277 87.167
3.30317 -16.074699 87.699799
2.9883599 -16.0951 88.137398
3.00436 -19.103001 86.7034
2.75999 -19.1635 87.237503
2.4467499 -19.1789 87.676498
3.2235401 -17.9431 86.878998
2.9788401 -17.9974 87.412399
2.6649899 -18.0142 87.851097
2.65734 -21.1427 86.406097
2.41733 -21.210699 86.942001
2.1083901 -21.216499 87.383202
2.81161 -20.195601 86.542198
2.56794 -20.262899 87.076599
2.25545 -20.2768 87.516197
2.39169 -22.544399 86.200996
2.19678 -22.579399 86.749702
1.9319299 -22.532499 87.204102
2.5337 -21.909201 86.296997
2.3055401 -21.9653 86.837097
2.0081201 -21.9496 87.282799
1.9108 -23.5753 86.003998
1.85165 -23.569901 86.581497
1.72227 -23.465 87.065201
2.1840501 -23.103001 86.103401
2.0518799 -23.1143 86.665901
1.84912 -23.0334 87.1343
1.15285 -24.232599 85.788399
1.1686701 -24.252001 86.382599
1.12802 -24.1679 86.885498
1.57609 -23.945101 85.903099
1.57435 -23.9396 86.491898
1.5058399 -23.832001 86.9879
0.011542 -24.624599 85.493599
-0.055369999 -24.741301 86.089302
-0.138391 -24.750299 86.5989
0.61985898 -24.4606 85.649597
0.60184503 -24.5296 86.242798
0.54641199 -24.493299 86.747101
-1.2905101 -24.739599 85.204498
-1.39068 -24.880301 85.821404
-1.4765199 -24.911501 86.356102
-0.63045502 -24.7157 85.335503
-0.72334498 -24.853399 85.944099
-0.81547302 -24.882099 86.468399
3.1268401 -13.8112 88.6661
3.0745699 -13.7775 88.613899
3.2123201 -13.1945 88.733803
3.13059 -13.1445 88.686401
3.31318 -12.7137 88.676498
3.1889999 -12.7361 88.677803
2.8805699 -15.3388 88.433601
2.84043 -15.3202 88.371902
3.00717 -14.5573 88.553299
2.96456 -14.5372 88.496201
2.64663 -16.938299 88.198799
2.6185901 -16.9175 88.149498
2.7753301 -16.089399 88.322899
2.7427499 -16.07 88.266098
2.2300601 -19.1663 87.864304
2.1639199 -19.1411 87.818001
2.45191 -18.003901 88.038597
2.4140601 -17.981001 87.991798
1.8843 -21.1938 87.574097
1.7453901 -21.1614 87.537003
2.03315 -20.261999 87.705002
1.92401 -20.2346 87.662102
1.73738 -22.4688 87.405403
1.63485 -22.4209 87.382301
1.7922601 -21.909599 87.477303
1.66075 -21.867701 87.447304
1.60201 -23.3585 87.284103
1.55098 -23.3202 87.273003
1.68922 -22.945601 87.343903
1.61549 -22.9013 87.327599
1.07341 -24.0548 87.117104
1.0546 -23.9893 87.101196
1.42144 -23.717899 87.214401
1.38648 -23.6765 87.205704
-0.16043 -24.6474 86.837799
-0.142793 -24.488701 86.783897
0.51405102 -24.3859 86.982101
0.51603597 -24.271099 86.946503
-1.51501 -24.8041 86.603897
-1.50405 -24.6395 86.546303
-0.84191501 -24.777 86.713699
-0.82334399 -24.6087 86.655197
3.0918601 -13.6342 88.1875
3.09268 -12.7377 88.271103
3.1721101 -11.5265 88.206001
3.1628101 -13.7107 88.405502
3.1787701 -12.9754 88.484901
3.2451501 -12.3908 88.478699
2.8933499 -15.2589 87.897697
3.00934 -14.4677 88.039398
2.95029 -15.297 88.1362
3.0696599 -14.5089 88.271103
2.6930599 -16.8521 87.713799
2.81054 -16.006701 87.806702
2.7515199 -16.893 87.939499
2.86725 -16.0462 88.040604
2.1328599 -19.0704 87.3955
2.4625101 -17.912701 87.564903
2.2175801 -19.1134 87.614098
2.5265 -17.955099 87.786697
1.4755501 -21.089701 87.140099
1.7601 -20.163401 87.252502
1.64162 -21.129499 87.350998
1.88682 -20.205299 87.4655
1.40817 -22.3701 86.985603
1.38385 -21.7969 87.052399
1.5831 -22.4004 87.2136
1.56308 -21.834499 87.270897
1.4177999 -23.356701 86.8936
1.43896 -22.898399 86.9356
1.5669 -23.369699 87.117401
1.60489 -22.916201 87.166
0.99433202 -23.915501 86.700996
1.29364 -23.6996 86.8386
1.0811 -23.998899 86.921898
1.41401 -23.7313 87.050201
-0.152817 -24.095699 86.176201
0.47826499 -24.018499 86.440102
-0.128941 -24.322201 86.493202
0.53377402 -24.1835 86.709198
-1.40224 -24.2752 85.933899
-0.78539503 -24.2117 86.026497
-1.45508 -24.489401 86.250099
-0.79768199 -24.4401 86.352303
3.63132 -11.882 88.012802
3.49103 -12.3083 88.398499
3.4213901 -4.8345599 84.9823
3.5023201 -4.3184099 85.158501
3.8164401 -3.9614999 85.600098
3.9300201 -4.9140801 85.535103
3.9419999 -4.4384298 85.684502
4.1434698 -4.0931101 86.045197
4.3812299 -4.57938 86.2397
4.1697302 -3.6099801 86.153099
4.4651699 -3.2934401 86.680298
4.3969898 -3.73965 86.538696
4.6228399 -3.3923299 87.043098
4.5916901 -3.11725 86.948502
4.76299 -2.8088801 87.434998
4.7618499 -3.11994 87.443298
4.9165902 -2.75155 88.008102
5.4946198 -1.78913 90.261597
5.2343202 -1.93355 89.3564
5.0280099 -2.08337 88.529404
5.68115 -1.34958 91.1035
5.42486 -1.47112 90.133499
5.2150002 -1.54942 89.215103
5.8784699 -0.89776701 91.925301
5.6503301 -0.90958703 90.999702
5.41155 -0.97419 89.965103
6.07409 -0.41206801 93.2248
5.8559299 -0.329007 91.926697
5.6103902 -0.36816701 90.7649
6.1819401 -4.0991902 92.0298
6.1345 -4.9692998 90.938797
6.00071 -5.9067898 90.005699
6.2004199 -3.5086601 91.694901
6.14782 -4.3558698 90.547096
4.8863902 -2.4791801 87.919403
5.0652499 -2.3627999 88.632401
5.3196802 -2.2451 89.430298
5.6428099 -2.15663 90.413002
5.7705498 -1.70207 91.330299
5.9215498 -2.21644 91.4692
5.9384098 -1.85147 92.385498
5.8765402 -5.0639901 95.612503
5.8591599 -5.1651201 96.635498
5.7182698 -5.3461599 97.668198
5.37047 -5.5616899 98.6894
4.9089899 -5.7613802 99.660698
5.32622 -9.0262899 88.640602
5.8650899 -6.6264 89.398903
5.7196298 -7.28127 89.0271
4.26966 -5.6321301 85.5746
4.8190699 -6.4151702 85.648102
3.8068399 -5.6124101 85.162498
5.95994 -2.60168 94.069199
5.9486799 -3.3919699 94.039001
5.9513602 -4.0999699 94.005699
6.1013799 -2.9739499 92.838402
6.0800099 -3.6080301 93.083
6.0552201 -4.2767 93.197098
6.0549402 -1.3262 94.655899
5.9960098 -1.88868 94.877998
5.9417601 -2.6477499 94.892998
5.9860101 -1.4575 93.790703
5.9663901 -1.8937 94.013199
5.9846201 -2.1203301 93.18
5.9464998 -1.63758 93.122902
5.8276601 -5.9123902 94.423897
5.90873 -4.9752498 94.642197
5.9684 -5.0214801 93.689796
5.9187598 -4.11551 94.816498
5.92027 -3.36903 94.894096
5.48878 -8.7730103 91.082001
5.5481601 -8.3122902 91.443497
5.5760899 -7.92273 91.950401
4.81915 -11.4056 89.883904
5.06001 -10.5466 90.202103
5.2484598 -9.8099699 90.492302
4.5180302 -12.3091 89.530296
6.0637002 -3.08727 91.137299
6.0521698 -2.53035 92.266602
5.9724102 -3.8275499 90.027397
5.2780299 -9.6364202 91.310402
5.4653802 -8.9689503 90.239899
5.38972 -9.24757 90.781403
5.5313601 -8.4072599 89.276398
5.50945 -8.6959105 89.7444
5.5395198 -8.10783 88.806297
6.24789 -0.95848399 97.668503
6.2520299 -0.76832402 96.662903
6.1710801 -0.78167498 95.43
5.8857098 -1.3437901 92.227798
5.9812799 -1.10993 93.248901
6.07794 -0.921417 94.272202
-1.92501 -12.5887 100.596
-2.09496 -13.2953 99.942497
-1.60964 -13.7247 99.665298
-1.17471 -14.1654 99.359802
-0.84959799 -14.5365 99.086502
0.41677099 -10.6624 102.275
1.20903 -8.71387 103.512
1.10339 -7.9375401 104.245
1.33313 0.43584299 103.799
1.41043 -0.102365 104.233
0.76238298 1.87032 102.96
0.097966 1.8545901 103.092
-0.432356 2.1115401 102.988
-1.33504 2.94838 102.608
-0.836263 2.56428 102.757
1.23125 1.64819 102.977
1.29304 1.06883 103.363
5.9765401 -2.1942401 100.677
6.0920801 -2.3438499 101.815
6.21593 -2.6718299 101.929
6.4415102 -2.8748901 103.987
6.2526698 -2.6084099 103.824
6.50739 -3.0362599 106.124
6.2694802 -2.8713701 105.978
1.72725 -4.7533102 114.448
1.3664401 -7.3450999 104.688
1.78473 -6.9488902 104.423
2.2634599 -6.4933 104.098
0.91111898 -7.3404298 104.904
0.66777098 -6.9490199 105.323
2.86603 -6.1448798 103.91
4.9664202 -3.4568701 107.554
5.4646301 -3.4595599 107.541
5.7887902 -3.4287801 107.624
4.53126 -3.5856099 108.619
4.97471 -3.5788801 108.63
5.3060999 -3.5406301 108.72
4.0531101 -3.73788 109.618
4.4524102 -3.7179101 109.668
4.7915702 -3.67851 109.776
3.61567 -3.9033899 110.529
3.9674599 -3.8729701 110.612
4.2978702 -3.8392 110.74
6.0380001 -3.39518 107.708
6.2364001 -3.36116 107.768
5.5653801 -3.49913 108.807
5.7734399 -3.4623401 108.876
5.0605602 -3.63714 109.873
5.27774 -3.5992401 109.952
4.5651999 -3.80248 110.861
4.7828498 -3.7665901 110.964
6.3766599 -3.32092 107.795
6.4016099 -3.2651501 107.771
5.9310198 -3.4292099 108.924
5.9773998 -3.3860099 108.905
5.44942 -3.5641899 110.006
5.5058198 -3.51876 109.973
4.9376001 -3.73439 111.06
6.2642398 -3.1851399 107.686
6.0089102 -3.0816901 107.572
5.8561902 -3.3208201 108.796
5.5903902 -3.2431099 108.71
5.4506898 -3.4399199 109.717
5.3098102 -3.36321 109.466
1.7065901 -6.1349001 108.357
1.8522 -5.6247802 108.239
1.99165 -5.0850902 108.171
1.65219 -5.8954 109.091
1.81257 -5.4479299 108.99
1.96338 -4.9773598 108.942
1.63135 -5.6785798 109.745
1.7848099 -5.3200498 109.671
1.92616 -4.9623098 109.654
1.6379 -5.5517302 110.425
1.77516 -5.2733302 110.363
1.89833 -5.0199199 110.357
1.35439 -6.41151 108.867
1.5408601 -6.3855801 108.561
1.3147 -6.1419401 109.568
1.48307 -6.1101699 109.28
1.3163 -5.97049 110.204
1.47142 -5.8882399 109.918
1.34389 -5.8898602 110.878
1.49105 -5.7628498 110.59
1.01098 -6.0811 109.661
1.16004 -6.2990799 109.267
1.05035 -5.9268599 110.316
1.16172 -6.08178 109.941
1.08408 -5.86097 110.986
1.18033 -5.9706602 110.592
1.11654 -5.8375401 111.683
1.21012 -5.9274101 111.278
1.0062701 -5.2893701 110.235
0.95850003 -5.76159 109.966
1.06104 -5.2120399 110.906
1.0087301 -5.6488099 110.625
1.11744 -5.1782398 111.577
1.05189 -5.6017599 111.301
1.17723 -5.1686902 112.243
1.0940599 -5.5837002 111.993
1.50895 -4.00669 110.683
1.16345 -4.6462402 110.516
1.59254 -4.0435901 111.326
1.23703 -4.6209002 111.186
1.68244 -4.0845199 111.943
1.3163199 -4.6168199 111.838
1.77158 -4.14396 112.527
1.3976001 -4.6347299 112.461
2.9507799 -3.29374 110.256
2.1142001 -3.55177 110.6
2.9820199 -3.4228401 110.763
2.17629 -3.64697 111.184
3.0204301 -3.5413201 111.246
2.2455101 -3.73615 111.743
2.31584 -3.83957 112.309
4.7868199 -3.1886301 109.166
3.9255099 -3.19612 109.709
4.79109 -3.2843399 109.517
3.9377501 -3.3197801 110.139
4.79673 -3.3645799 109.805
3.96152 -3.43064 110.529
5.1412201 -3.2722199 109.218
5.3680601 -3.12833 108.47
5.71805 -2.95416 107.415
5.9758902 -2.6920099 105.833
6.0197301 -2.3427501 103.721
5.9312801 -1.99509 101.787
5.8259702 -1.72697 100.707
5.7581501 -1.44914 100.293
5.74821 -0.96339899 100.208
5.72541 -0.44864899 100.277
5.6068602 0.024243999 100.324
5.4724398 0.66737503 100.157
5.4301 1.42144 99.655998
1.84755 -4.2304101 113.042
1.4752899 -4.66535 113.009
1.24186 -5.15136 112.858
1.92568 -4.3197899 113.486
1.55094 -4.6985502 113.505
1.31547 -5.11935 113.435
1.9673899 -4.40239 113.813
1.63648 -4.7251701 113.98
1.40543 -5.0742502 113.99
1.14214 -5.5436902 112.656
1.1513 -5.7934599 112.381
1.19886 -5.4786401 113.292
1.18919 -5.7200599 113.07
1.27446 -5.39922 113.908
1.24275 -5.6262698 113.739
1.23875 -5.8872299 112.018
1.37063 -5.85499 111.649
1.26614 -5.81601 112.774
1.3961101 -5.79526 112.459
1.3072 -5.7012801 113.503
1.43513 -5.6623902 113.228
1.51589 -5.7329798 111.368
1.65789 -5.5414901 111.187
1.54483 -5.69561 112.183
1.68888 -5.5352602 111.972
1.58793 -5.5633502 112.948
1.73382 -5.4291101 112.707
1.78591 -5.30793 111.095
1.89862 -5.1009002 111.061
1.81198 -5.3363199 111.833
1.91531 -5.1574101 111.74
1.85109 -5.2789698 112.525
1.95315 -5.1389799 112.333
3.2758801 -4.06989 111.303
3.55826 -4.0497499 111.406
3.8458099 -4.0352898 111.555
3.00545 -4.24582 111.968
3.2009699 -4.2491002 112.102
3.4230299 -4.2550702 112.282
2.75403 -4.4451299 112.52
2.86498 -4.4683599 112.752
3.0169101 -4.48353 112.978
4.0888901 -4.01191 111.719
4.2906899 -3.98406 111.869
3.62641 -4.2472501 112.5
3.8009 -4.2308698 112.711
3.1742101 -4.4878502 113.253
3.3157599 -4.4854698 113.524
4.4281502 -3.95994 112.009
4.3201599 -3.9477301 112.248
3.92507 -4.2125502 112.876
3.8972299 -4.1813002 113.02
3.41293 -4.47294 113.716
3.3926899 -4.4079399 113.786
2.36795 -3.97294 112.877
2.3919401 -4.1364899 113.418
3.6503601 -4.13551 113.152
4.41082 -3.74701 102.507
4.85706 -3.3989999 102.378
5.1781902 -3.30685 103.128
4.3320599 -4.0422001 103.005
4.6832199 -3.6524899 102.729
4.9201698 -3.44209 103.224
3.9526401 -4.4869699 103.615
3.9716799 -4.6925998 104.057
3.4516799 -5.1855502 104.783
3.5467701 -5.2607698 105.224
2.41345 -5.2938399 105.284
2.88416 -5.4017501 105.133
2.54232 -5.1410699 105.578
2.99985 -5.3358698 105.485
2.1853099 -5.1161499 105.912
2.30252 -4.93612 105.96
2.1411901 -4.9452701 106.705
2.23788 -4.7856998 106.476
5.23491 -3.2464199 104.377
4.9280701 -3.20837 105.639
4.9156899 -3.2692299 104.256
4.6135201 -3.17347 105.347
2.60116 -4.7859402 105.739
2.87884 -4.8130202 105.745
3.23719 -4.7996302 105.753
2.4855599 -4.6458001 105.909
2.7644899 -4.53479 105.892
3.1487 -4.3891802 105.85
2.4003999 -4.5500102 106.165
2.6726999 -4.34307 106.09
3.0717599 -4.02565 106.058
3.7725501 -4.52385 105.216
4.0069299 -4.2487102 104.437
4.1977701 -4.0093799 103.749
3.9438 -4.0174499 105.205
4.2160802 -3.87678 104.445
4.3992801 -3.79548 103.673
4.17594 -3.5775299 105.208
4.47506 -3.56603 104.416
4.5851202 -3.6270499 103.753
2.5837901 -4.95225 105.701
2.9712501 -5.1198101 105.67
3.36991 -5.1515799 105.662
2.3724799 -4.7841902 105.938
2.2992201 -4.68749 106.238
4.2472701 -4.0920901 103.424
3.96609 -4.5749998 104.312
3.6984501 -4.9731398 105.242
4.7294502 -3.5497999 103.462
4.6848798 -3.3701 104.302
4.3814902 -3.2913499 105.234
4.5366201 -3.76547 103.145
3.5360799 -4.7388201 105.641
3.57324 -4.2073202 105.657
3.6777599 -3.7470801 105.74
2.34725 -4.6690798 106.539
2.3362999 -4.6100302 106.346
2.3800001 -4.5639501 106.524
2.4217501 -4.4840102 106.311
2.45263 -4.4119 106.509
2.28597 -4.7648702 111.784
2.1799099 -4.8991699 112.343
2.17062 -4.9008198 111.747
2.07039 -5.0100999 112.258
2.11095 -4.9633799 111.724
2.2951701 -4.70469 106.534
2.2339201 -4.7723498 106.884
2.2639699 -4.71138 107.467
2.1428399 -4.8454299 107.449
2.0272601 -5.0289898 111.722
2.0078299 -4.8753901 110.362
2.11865 -4.8108201 110.348
2.00016 -4.97891 111.049
2.1082201 -4.91784 111.049
2.1080599 -4.6958299 108.914
2.25876 -4.5643001 108.893
2.05547 -4.7529802 109.65
2.1902201 -4.65799 109.646
2.1315601 -4.7618999 108.166
2.2780001 -4.6142001 108.134
2.58955 -4.1063299 107.373
2.52669 -4.3387399 107.386
2.47648 -4.5394502 107.387
2.5084 -4.2758398 106.85
2.44436 -4.4765601 106.867
2.4040501 -4.6346898 106.873
2.3797801 -4.6129198 111.142
2.3083999 -4.7382798 111.108
2.22013 -4.8554401 111.068
2.49086 -4.4114399 110.447
2.42521 -4.5653701 110.422
2.3508301 -4.7048898 110.374
2.6256001 -4.1637802 109.694
2.55601 -4.3410001 109.678
2.4727001 -4.5081301 109.655
2.71017 -3.98543 108.896
2.6370699 -4.1859498 108.889
2.5550101 -4.3751798 108.876
2.6801701 -3.98189 108.087
2.6115201 -4.2080302 108.091
2.5439799 -4.4146199 108.086
2.33178 -4.70576 106.9
2.38428 -4.6417699 107.412
2.4196701 -4.4847002 108.879
2.4260399 -4.5303102 108.101
2.23928 -4.7772298 110.379
2.34059 -4.6001301 109.649
2.8192 -4.13661 106.226
2.76633 -4.1201801 106.416
2.60676 -4.2973599 106.253
2.60202 -4.2405801 106.459
2.7921801 -4.00844 106.742
2.8563299 -3.8697801 107.265
2.64117 -4.10005 106.798
2.71385 -3.93273 107.323
2.82003 -3.85727 108.877
2.7989199 -3.8278501 108.05
2.9456401 -3.82778 108.849
2.9346099 -3.7857201 108.004
2.5710399 -4.3155899 110.455
2.71965 -4.0543399 109.691
2.6652601 -4.2907 110.455
2.82897 -4.0300798 109.68
2.3738599 -4.6841002 111.822
2.4577899 -4.5284801 111.158
2.47311 -4.6348801 111.814
2.5469401 -4.4974799 111.161
2.3032801 -4.79036 112.407
2.44432 -4.7070699 112.395
3.3150699 -3.6356699 106.188
3.8482201 -3.39943 105.861
3.46226 -3.4103301 106.41
4.0377302 -3.2220099 106.065
4.2455001 -3.22679 106.398
4.3708601 -3.3236899 106.946
3.56218 -3.3757601 106.738
3.6190701 -3.4153399 107.253
2.65797 -4.50669 112.372
2.7585599 -4.3807101 111.926
2.8528099 -4.2932601 111.941
2.8934 -4.2150002 111.262
3.05968 -4.0213499 110.55
3.0485301 -4.11903 111.275
3.2966499 -3.9384 110.53
3.2859399 -3.7855501 109.747
3.49455 -3.57985 108.88
3.6286199 -3.7363901 109.675
3.97664 -3.55301 108.745
3.6046801 -3.4695899 108.005
4.2507401 -3.42518 107.802
3.12836 -3.72317 106.474
3.17858 -3.68065 106.798
3.2258201 -3.6707799 107.305
2.9814501 -3.98263 106.437
3.013 -3.9484501 106.747
3.0691099 -3.8971 107.256
2.88434 -4.0760498 106.399
2.90732 -4.0128798 106.72
2.9679999 -3.91659 107.237
3.2715299 -3.66799 108.041
3.24967 -3.7379601 108.897
3.14147 -3.84781 107.997
3.14782 -3.8840101 108.854
3.04598 -3.8455901 107.98
3.05616 -3.88027 108.836
3.1098299 -3.93433 109.741
2.9314799 -4.1746602 110.525
3.0244 -4.0661502 109.697
2.8541901 -4.30193 110.481
2.93449 -4.0701699 109.677
2.76491 -4.3170099 110.459
2.8002801 -4.3643799 111.234
2.6974499 -4.5011201 111.892
2.7313299 -4.4842 111.188
2.6401899 -4.6019001 111.863
2.6433401 -4.5085902 111.172
2.56499 -4.62748 111.843
2.5704501 -4.6374102 112.335
2.98752 -3.9579101 106.263
-1.20818 -24.5462 84.702599
-0.60199398 -24.5191 84.829399
-0.012767 -24.4277 84.988297
-1.14096 -24.3606 84.294601
-0.61803901 -24.320101 84.408699
-0.097134002 -24.2036 84.558502
-1.07857 -24.247801 83.912003
-0.64133298 -24.1738 84.022301
-0.18839499 -24.009001 84.1604
0.54887301 -24.275999 85.144501
1.05462 -24.0627 85.284203
0.42207101 -24.0303 84.7117
0.90758502 -23.802 84.851402
0.29176 -23.7917 84.304604
0.75995398 -23.5329 84.4394
1.48116 -23.7808 85.402
1.84237 -23.410601 85.508499
1.3292201 -23.5119 84.969803
1.6967601 -23.142099 85.078003
1.1760401 -23.2311 84.555298
1.54668 -22.8645 84.662804
2.15306 -22.937201 85.615601
2.3951499 -22.379 85.720497
2.02126 -22.678301 85.187698
2.27876 -22.1359 85.2957
1.88077 -22.4132 84.773903
2.1502299 -21.888399 84.884598
2.55757 -21.747 85.821297
2.69017 -20.9897 85.932999
2.4529099 -21.521999 85.399101
2.5924599 -20.7869 85.512703
2.33448 -21.294901 84.9916
2.4805601 -20.583099 85.107803
2.8473499 -20.059601 86.070503
3.0404301 -18.988001 86.232002
2.7521801 -19.883801 85.650902
2.9453499 -18.8414 85.812698
2.6424899 -19.708 85.248001
2.83553 -18.6947 85.410698
3.25965 -17.8472 86.407997
3.4545701 -16.7967 86.569901
3.16434 -17.7281 85.988899
3.3590901 -16.6996 86.151199
3.0541501 -17.608801 85.5867
3.2488 -16.6022 85.748001
3.5848601 -15.9579 86.696404
3.69156 -15.2151 86.808502
3.4892099 -15.8759 86.278
3.59583 -15.1438 86.390099
3.3791399 -15.7922 85.8731
3.48596 -15.0688 85.983498
3.82146 -14.4271 86.931099
3.9621601 -13.5839 87.0634
3.72574 -14.3634 86.512703
3.8668101 -13.5207 86.646301
3.6157899 -14.295 86.1045
3.75664 -13.4543 86.237198
4.0655799 -12.7347 87.206001
3.99999 -12.0337 87.386902
3.97363 -12.6563 86.791199
3.9252 -11.9054 86.976898
3.8661101 -12.5848 86.381203
3.8382001 -11.8166 86.555099
3.68402 -11.5326 87.6203
3.32127 -10.7725 87.835899
3.64891 -11.3087 87.216003
3.33956 -10.4307 87.428802
3.60625 -11.1976 86.763702
3.32444 -10.3499 86.9366
2.3341801 -12.9636 85.673897
2.5073299 -11.858 85.966202
2.65697 -10.5095 86.249001
1.84376 -12.906 85.524803
2.06354 -11.806 85.8228
2.25684 -10.4517 86.095398
2.0743501 -14.7638 85.317001
2.18536 -13.9196 85.463501
1.59361 -14.6942 85.169601
1.69323 -13.8567 85.313797
1.91398 -16.3878 85.058502
1.9970599 -15.5412 85.1922
1.4073499 -16.2973 84.910698
1.50397 -15.4612 85.044403
1.65281 -18.4387 84.7397
1.79116 -17.401199 84.899902
1.21683 -18.3421 84.603798
1.30119 -17.305201 84.755402
1.38105 -20.053101 84.535202
1.52478 -19.333099 84.6101
1.1002001 -19.9494 84.4217
1.17251 -19.237301 84.486801
0.98448199 -21.187401 84.534401
1.19437 -20.6276 84.524399
0.70890099 -21.0354 84.416603
0.93482101 -20.500401 84.411102
0.580073 -22.373199 84.456596
0.77774698 -21.8249 84.5168
0.291848 -22.1717 84.358002
0.47806001 -21.657 84.398598
0.053647999 -22.801001 84.231903
0.371995 -22.6663 84.353699
-0.061494999 -22.440399 84.228401
0.15994599 -22.3909 84.302803
-1.08012 -22.944901 84.008202
-0.45568299 -22.902 84.115402
-1.0790499 -22.503401 84.0308
-0.50184 -22.4816 84.132103
-1.39748 -23.635799 85.946602
-0.84218401 -23.598101 86.029999
-0.32760301 -23.507601 86.163101
-1.37941 -23.936701 85.813698
-0.79975802 -23.881701 85.899597
-0.23191901 -23.7768 86.044701
0.094916999 -23.4069 86.393501
0.36355001 -23.295401 86.586998
0.28971499 -23.700001 86.309898
0.67933601 -23.608101 86.560501
0.467684 -23.1698 86.665802
0.478241 -22.964899 86.648499
0.87447 -23.438499 86.668701
0.94058901 -23.163 86.690399
0.52670902 -22.6574 86.694901
0.61619198 -22.2342 86.781303
0.96985602 -22.7756 86.726997
0.99737298 -22.2992 86.796303
0.75133502 -21.6989 86.914398
0.915362 -20.9867 87.067398
1.05347 -21.744801 86.901001
1.18727 -21.035299 87.0252
1.0893199 -20.0457 87.213799
1.26667 -18.9417 87.362801
1.4294 -20.1017 87.154198
1.71702 -19.0035 87.298103
1.44349 -17.7827 87.524696
1.61373 -16.7265 87.676903
1.97562 -17.8452 87.4627
2.17731 -16.787001 87.611702
1.77133 -15.8858 87.799103
1.91167 -15.1436 87.911697
2.31618 -15.944 87.716698
2.42869 -15.199 87.817101
2.03194 -14.3603 88.0383
2.13466 -13.5298 88.173897
2.5458801 -14.4107 87.953201
2.6356599 -13.5711 88.098801
2.6741099 -11.4029 88.303802
2.6666601 -12.6516 88.217903
2.26932 -11.3783 88.432503
2.21942 -12.6227 88.307602
1.65044 -12.8317 85.283699
1.88271 -11.7407 85.581398
2.0933101 -10.4023 85.853104
1.4969701 -12.7579 84.996101
1.7041301 -11.6871 85.2836
1.8938 -10.3782 85.544998
1.41162 -14.614 84.931
1.5037 -13.7787 85.073898
1.28566 -14.5388 84.643501
1.3674099 -13.6991 84.788597
1.22066 -16.210501 84.673103
1.3200901 -15.3779 84.806297
1.11058 -16.1464 84.384598
1.20183 -15.3105 84.517303
1.05336 -18.2509 84.371498
1.12168 -17.215401 84.519997
0.951397 -18.1738 84.087303
1.02047 -17.1462 84.233803
0.98500401 -19.854401 84.184898
1.03056 -19.1458 84.256599
0.86314899 -19.7738 83.889503
0.91309601 -19.064699 83.970703
0.65333903 -20.8699 84.139397
0.85065502 -20.389601 84.154602
0.61813098 -20.735001 83.809196
0.76013303 -20.304399 83.840302
0.28558201 -21.830799 84.086502
0.44455799 -21.388399 84.113602
0.36221701 -21.5044 83.775703
0.46926299 -21.1404 83.784698
-0.00063000002 -22.190201 84.021797
0.191494 -22.0755 84.064003
0.095523998 -21.983101 83.741203
0.28386199 -21.780701 83.766899
-1.04462 -22.285 83.830101
-0.44455501 -22.260201 83.934502
-0.99589902 -22.113899 83.536797
-0.370597 -22.084 83.647697
-1.45477 -23.5214 86.3125
-1.52326 -23.465099 86.7444
-0.90817899 -23.492701 86.397102
-0.98105103 -23.442301 86.8256
-0.40155399 -23.414101 86.516197
-0.47268099 -23.3834 86.917198
0.010315 -23.306801 86.694603
-0.062233999 -23.2798 87.047897
0.25552401 -23.1702 86.796402
0.251849 -23.0832 87.123802
0.50184602 -22.2227 87.024902
0.40077701 -22.239201 87.364799
0.62889802 -21.68 87.145599
0.47733501 -21.6798 87.473801
0.77370298 -20.964199 87.288101
0.580024 -20.960699 87.604103
0.91709697 -20.020599 87.435402
0.71140403 -20.0214 87.755501
1.06735 -18.9156 87.590797
0.87046999 -18.924801 87.922699
1.23353 -17.7579 87.756798
1.04909 -17.776199 88.096397
1.40051 -16.7033 87.912399
1.21463 -16.7257 88.254601
1.55123 -15.8627 88.040199
1.34033 -15.8809 88.380096
1.6853 -15.121 88.155502
1.44683 -15.1333 88.491402
1.80563 -14.3399 88.277496
1.55647 -14.3522 88.610901
1.91149 -13.5157 88.407501
1.65162 -13.5358 88.736099
2.04181 -11.3731 88.671898
1.99733 -12.617 88.541801
1.71972 -11.4073 88.9841
1.7085 -12.6501 88.861298
0.33928299 -22.709801 87.2659
0.41151801 -22.6562 86.9366
0.34839901 -22.958 86.8479
-1.61419 -23.050301 87.3405
-1.64756 -22.714399 87.571503
-1.67838 -22.2847 87.792801
-1.07743 -23.044201 87.392502
-1.09672 -22.7094 87.613602
-1.1052999 -22.2771 87.828903
-0.54930699 -23.038099 87.396797
-0.53717297 -22.702801 87.581703
-0.52323002 -22.259199 87.767502
-0.081177004 -23.071501 87.333298
-0.0077069998 -22.7148 87.482399
0.029633 -22.249399 87.6185
-1.70768 -21.7306 88.012802
-1.73596 -21.008101 88.237602
-1.10584 -21.722 88.044502
-1.09656 -20.999701 88.2658
-0.49867901 -21.7003 87.955803
-0.45548099 -20.9783 88.153
0.073995002 -21.6861 87.759102
0.14457799 -20.965099 87.915298
-1.76293 -20.090099 88.467201
-1.7864 -19.032801 88.684196
-1.07547 -20.0828 88.494202
-1.04374 -19.027 88.712601
-0.38826701 -20.0592 88.362503
-0.30146101 -18.9991 88.570198
0.25080499 -20.036301 88.0924
0.38686901 -18.958799 88.279602
-1.80418 -17.9221 88.869102
-1.8167 -16.8855 89.016296
-1.0049 -17.9188 88.902496
-0.96809798 -16.8841 89.055603
-0.204474 -17.887699 88.758301
-0.117275 -16.8528 88.914497
0.53860998 -17.83 88.461998
0.67427897 -16.7882 88.620003
-1.82524 -16.017401 89.127403
-1.8323801 -15.2393 89.223701
-0.94105399 -16.0165 89.171402
-0.92002398 -15.2385 89.2715
-0.055326 -15.989 89.033501
-0.006211 -15.2154 89.137199
0.76937801 -15.9338 88.741997
0.84657598 -15.1728 88.849403
-1.84018 -14.4562 89.324501
-1.84747 -13.6756 89.421997
-0.90029901 -14.4557 89.376404
-0.88423902 -13.6758 89.477798
0.043894999 -14.4333 89.246201
0.085927002 -13.6483 89.3536
0.92991501 -14.3913 88.963898
1.00103 -13.591 89.080597
-1.8524899 -12.8532 89.508003
-1.8537199 -11.6331 89.596703
-0.87496102 -12.8542 89.566803
-0.87083101 -11.6376 89.657799
0.108492 -12.8184 89.450104
0.113234 -11.6021 89.547699
1.0368201 -12.7337 89.191101
1.03768 -11.5044 89.300697
-0.50156403 -23.2661 87.202202
-1.03607 -23.2953 87.1502
-1.57558 -23.309099 87.081902
0.282464 -21.3857 83.563797
0.308599 -21.0333 83.533302
0.380294 -20.666599 83.534599
0.007518 -21.3629 83.407997
-0.020686001 -21.023899 83.343903
-0.007824 -20.6602 83.318901
-0.41414899 -21.3904 83.2687
-0.44113401 -21.049 83.184402
-0.443896 -20.693399 83.147202
-0.92725599 -21.396799 83.155296
-0.910429 -21.0616 83.072304
-0.900774 -20.7143 83.035103
0.46647099 -20.246201 83.557899
0.545187 -19.708401 83.606903
0.035264999 -20.225901 83.324303
0.092216 -19.6696 83.361397
-0.42458001 -20.243999 83.1408
-0.39287099 -19.6637 83.166496
-0.89422703 -20.2584 83.024399
-0.89088303 -19.665701 83.0429
0.60332203 -18.996799 83.687698
0.65393299 -18.114799 83.800903
0.14746 -18.951599 83.433701
0.194603 -18.078899 83.542099
-0.35977101 -18.934799 83.229401
-0.33473101 -18.067801 83.335503
-0.891891 -18.929899 83.098099
-0.89914298 -18.064699 83.200897
0.71307099 -17.1057 83.941803
0.78223097 -16.117701 84.088799
0.23266099 -17.092699 83.681999
0.27293101 -16.118999 83.831703
0.85759199 -15.2718 84.222504
0.92758799 -14.4822 84.354301
0.32419699 -15.2627 83.972099
0.37240201 -14.4589 84.114601
-0.075451002 -16.052099 85.727501
-0.047494002 -15.3098 86.079597
0.026141001 -14.5155 86.442802
-0.61410898 -16.042601 85.519302
-0.61872298 -15.3019 85.874901
-0.59489101 -14.5084 86.224602
-1.21171 -16.037001 85.289902
-1.25956 -15.2977 85.638199
-1.30415 -14.5035 85.969803
0.98910201 -13.634 84.507401
1.08084 -12.7057 84.721703
0.40504 -13.6161 84.2901
0.43805099 -12.7067 84.577797
0.16437 -13.6752 86.718399
0.322065 -12.638 86.944298
-0.52365297 -13.6722 86.457901
-0.44166699 -12.6975 86.653397
-1.32706 -13.6679 86.168602
-1.3441 -12.7286 86.337502
1.26223 -11.6735 84.993599
1.4127001 -10.4163 85.233498
0.75264901 -11.6907 84.867798
0.89220601 -10.4796 85.074402
0.44614699 -11.2878 87.166397
0.51515901 -9.8048201 87.331703
-0.38951501 -11.493 86.895103
-0.36748499 -10.0966 87.098396
-1.37132 -11.6109 86.581902
-1.39214 -10.269 86.8013
0.081478 -21.688499 83.535599
-0.371631 -21.768101 83.419197
-0.95536202 -21.787201 83.305099
0.18812799 -12.44 84.893303
0.487836 -11.6793 85.051399
0.617845 -10.5244 85.183998
0.14180601 -12.4107 85.262299
0.43580401 -11.7025 85.362801
0.560139 -10.5586 85.428299
0.247903 -12.4814 85.568001
0.53380603 -11.731 85.641502
0.63658601 -10.5771 85.659401
0.47566399 -12.7542 85.828598
0.77372801 -11.7025 85.913399
0.86797303 -10.4693 85.9216
1.16097 -9.70152 87.154503
1.05073 -11.2077 87.023003
0.878739 -12.6157 86.822998
1.42327 -9.8378696 86.723999
1.30062 -11.2892 86.631699
1.12305 -12.6347 86.472298
1.2310801 -10.1625 86.284203
1.13371 -11.5001 86.245201
0.97282898 -12.6846 86.148201
0.68322599 -13.6839 86.586601
0.51717103 -14.5328 86.295998
0.92236698 -13.6862 86.260399
0.75094998 -14.5444 85.989098
0.79062498 -13.6742 86.006203
0.62079 -14.537 85.782799
0.33218601 -13.6776 85.797096
0.187567 -14.5252 85.629097
0.42210001 -15.3296 85.943901
0.37916401 -16.0704 85.614403
0.651375 -15.3464 85.662697
0.60569602 -16.0846 85.356003
0.522488 -15.3447 85.482201
0.48056599 -16.0812 85.179199
0.107998 -15.3268 85.349098
0.080571003 -16.058901 85.041603
0.26683801 -21.755301 85.217903
-0.38040999 -22.507401 85.387901
-1.30694 -23.0086 85.422203
0.51315302 -21.844801 85.134903
-0.267887 -22.8088 85.376701
-1.31293 -23.3284 85.4384
0.65575302 -21.980499 84.989601
-0.186951 -22.931299 85.275497
-1.29995 -23.424101 85.350899
0.60840797 -21.990801 84.784698
-0.201203 -22.939301 85.102097
-1.27636 -23.444901 85.202003
0.41829699 -21.9849 84.646301
-0.260483 -22.7209 84.878899
-1.23665 -23.200001 84.970001
-1.15416 -19.614799 84.692398
-0.48382401 -19.5516 84.891701
0.101482 -19.475599 85.066902
-1.13789 -19.010099 84.630798
-0.531865 -18.993 84.8386
0.0084340004 -18.977301 85.033501
-1.13642 -18.4939 84.655998
-0.57675201 -18.4886 84.861801
-0.066855997 -18.4788 85.056801
0.54886001 -19.521601 84.994102
0.76633602 -19.590099 84.752502
0.44813499 -19.0114 84.962898
0.67080599 -19.0427 84.716301
0.36970001 -18.483801 84.9786
0.59678799 -18.483101 84.726997
0.67686599 -19.572201 84.477097
0.30177 -19.5541 84.226501
0.57604998 -19.0179 84.442299
0.208727 -18.9832 84.187401
0.49565899 -18.4569 84.462196
0.130144 -18.4298 84.2201
-0.30108601 -19.622601 84.031197
-1.02622 -19.674101 83.888496
-0.34873301 -18.9888 83.973396
-1.00876 -18.998899 83.824203
-0.39694101 -18.426399 84.011002
-1.00942 -18.4272 83.866302
0.18062 -20.0336 85.120697
-0.45357701 -20.2659 85.006104
-1.18643 -20.4307 84.839996
0.25123101 -20.631201 85.164597
-0.43537101 -21.0777 85.151703
-1.22954 -21.377399 85.0466
0.30815899 -21.2248 85.1838
-0.41625801 -21.877399 85.2938
-1.27493 -22.3076 85.2686
-1.06093 -20.546499 84.0476
-0.27259901 -20.397301 84.1577
0.37959999 -20.170401 84.292
-1.11234 -21.5387 84.303101
-0.262034 -21.257601 84.352097
0.44388899 -20.8146 84.378601
-1.17668 -22.504801 84.641197
-0.26203901 -22.096201 84.609001
0.48517799 -21.447599 84.492302
0.76698703 -20.124701 84.5168
0.85346401 -20.1294 84.788101
0.84763801 -20.6763 84.5541
0.93355602 -20.664499 84.812302
0.87690598 -21.2544 84.611397
0.95899498 -21.230301 84.845001
0.63968098 -20.0383 85.026604
0.72395301 -20.5613 85.039001
0.76276499 -21.115 85.040298
-1.11999 -16.0019 84.718803
-1.16014 -15.2838 85.017502
-1.19291 -14.5236 85.272903
-0.47787899 -16.0245 84.868202
-0.47983199 -15.3012 85.1735
-0.44791901 -14.5247 85.439499
-1.2051001 -13.7839 85.3983
-1.19655 -13.202 85.383499
-0.373503 -13.7539 85.5793
-0.318268 -13.1176 85.572998
-1.17012 -12.8921 85.2388
-1.12756 -12.8009 84.978798
-0.37151501 -12.8163 85.402603
-0.41328299 -12.733 85.118896
-1.07313 -12.8669 84.634102
-1.02176 -13.1586 84.293503
-0.37946901 -12.7859 84.754799
-0.29762599 -13.0685 84.407097
-0.96424598 -14.4831 83.845901
-0.94696802 -15.2808 83.684898
-0.93069297 -16.146299 83.525597
-0.27636799 -14.4724 83.958702
-0.29358301 -15.2746 83.802299
-0.31237701 -16.137501 83.648102
-0.98675698 -13.7351 84.036301
-0.274773 -13.6977 84.144501
-0.91344601 -17.1035 83.354202
-0.32268301 -17.099501 83.4842
1.00243 -4.5155602 85.269798
0.64389998 -4.21736 85.159698
0.55391502 -4.3264098 85.574501
0.883771 -4.7077098 84.966797
0.46304899 -4.4239702 84.873299
0.420728 -4.63486 85.2332
0.644274 -4.8496599 84.719704
0.190809 -4.5472202 84.6353
0.117144 -4.7521 84.965897
0.24749599 -4.9642701 84.559998
-0.113176 -4.6701899 84.5
-0.125834 -4.83778 84.795097
-0.014163 -5.1066198 84.551804
-0.200937 -4.9695601 84.584
-0.188871 -4.98701 84.754601
-2.1196599 -3.8859301 85.647301
-1.15988 -3.8782101 85.884201
-0.32270899 -3.89885 86.085098
-2.3514099 -3.2023399 85.578201
-1.39468 -3.2214401 85.800797
-0.55280697 -3.2815101 85.9701
-2.32918 -2.6668999 86.2388
-1.36856 -2.71908 86.418297
-0.51265103 -2.8336599 86.498497
-2.25177 -2.4068301 87.026199
-1.2769901 -2.45859 87.190903
-0.39399499 -2.59514 87.2174
-1.98893 -2.68417 88.169998
-1.0095201 -2.7204001 88.2957
-0.103485 -2.8457301 88.263901
0.27506199 -4.0899801 85.979698
0.078612 -3.4928899 85.897301
0.491831 -3.7402401 85.652802
0.15306699 -3.0713501 86.352097
0.61277598 -3.33741 86.087799
0.32067999 -2.8257799 87.046303
0.82450902 -3.0852399 86.784698
0.65497899 -3.0398099 88.0578
