# .PCD v.7 - Point Cloud Data file format
VERSION .7
FIELDS x y z
SIZE 4 4 4
TYPE F F F
COUNT 1 1 1
WIDTH 1717
HEIGHT 1
VIEWPOINT 0 0 0 1 0 0 0
POINTS 1717
DATA ascii
-24.065901 11.9224 30.4009
-24.843399 13.0544 29.983999
-26.2521 12.4847 30.010201
-26.7759 13.5076 29.5109
-25.427 14.0646 29.532101
-27.109301 14.4047 28.892099
-25.8353 14.9123 29.007
-27.8391 17.8689 25.677999
-26.3209 18.529301 25.859501
-28.055799 18.4244 25.0809
-26.5818 19.0903 25.3146
-28.819799 19.257299 23.679001
-22.6604 -2.3485899 24.3288
-22.4475 -2.6431301 24.6675
-21.7162 -2.3317699 24.562901
-21.9893 -2.11022 24.2784
-21.500601 -1.96085 24.3346
-20.8857 -1.90496 24.5154
-21.090401 -2.1762199 24.6509
-20.835501 -2.09463 24.6581
-20.5469 -2.25369 24.8878
-20.320801 -1.99623 24.7502
-20.2048 -2.4860499 25.306999
-19.881701 -2.20507 25.2033
-19.918501 -2.7755799 25.8489
-19.5798 -2.49138 25.8001
-25.639601 -2.8645 27.285101
-25.837999 -2.55336 26.7852
-25.2253 -3.3587699 28.503401
-25.4247 -3.1427701 27.8937
-26.028099 -2.1914999 26.3465
-26.236401 -1.74152 25.917101
-26.430901 -1.27438 25.5641
-26.652599 -0.76603699 25.2106
-26.893 -0.24075601 24.886801
-26.746599 0.221836 23.975599
-27.4937 12.4971 15.8064
-26.251499 12.6787 15.6222
-27.5308 11.796 16.258101
-26.288 11.959 16.0516
-27.586599 11.1285 16.6891
-26.333401 11.2706 16.4519
-27.6525 10.4717 17.109699
-26.394501 10.5952 16.8409
-27.7066 9.8011999 17.5284
-26.4568 9.9072199 17.227501
-27.715099 9.1228104 17.9937
-26.483601 9.19695 17.630699
-27.6898 8.4079905 18.5028
-26.458599 8.4650297 18.078501
-27.6022 7.6413002 19.0313
-26.355801 7.5638099 18.5305
-27.452299 6.6486301 19.4995
-26.1938 6.5794001 18.9965
-27.3008 5.5321598 19.9454
-26.020201 5.4937901 19.4734
-27.1031 4.4198999 20.4618
-25.824499 4.39849 20.0303
-26.853901 3.34799 21.0432
-25.5996 3.30018 20.671499
-26.5145 2.4074399 21.6355
-25.1243 2.2584 21.3951
-26.216499 1.7311701 22.0446
-24.5807 1.2104 21.9907
-23.723101 -3.58514 25.9909
-20.770599 0.38283601 22.954
-24.106701 0.35980201 22.4305
-23.9508 -0.35295501 22.834999
-28.026199 2.25809 28.5553
-27.868299 1.76683 29.082899
-25.1847 0.16302601 22.7356
-19.676399 1.005 22.7906
-20.294399 1.83821 22.096201
-24.885799 -0.48269901 23.073601
-26.505199 6.4857798 30.9074
-26.444201 6.0650001 31.177601
-30.0427 18.734301 22.3297
-31.5532 16.6353 20.4751
-31.6157 15.6199 19.365601
-29.876801 18.2995 23.1315
-29.5516 17.9342 23.855
-30.767599 17.259701 22.3004
-30.499901 16.9093 23.0888
-31.386101 16.174101 21.281099
-31.476999 15.134 20.146601
-31.1717 15.8067 22.081699
-31.3629 14.7495 20.9634
-31.323799 14.7038 18.2432
-29.790899 13.4731 16.2701
-28.678801 13.2407 15.6831
-31.262699 14.1861 19.016001
-30.7696 13.3846 17.937099
-30.731199 12.8838 18.646799
-31.2104 13.754 19.801399
-29.8461 12.2381 17.5627
-29.8041 12.8257 16.9252
-28.687099 12.5289 16.215099
-28.716299 11.871 16.7178
-29.303801 17.483999 24.563999
-30.2411 16.5217 23.8109
-29.094999 17.024799 25.197701
-30.019699 16.122 24.4874
-30.9587 15.4639 22.870399
-31.2134 14.3869 21.758801
-30.727501 15.0829 23.587999
-31.0219 14.0052 22.518101
-30.5123 14.7212 24.3214
-30.8295 13.5825 23.264099
-31.1031 13.3565 20.564699
-30.6584 12.4261 19.3452
-29.821699 11.7036 18.1775
-30.960899 12.9385 21.288099
-30.575399 11.9518 20.011801
-29.792101 11.168 18.7714
-28.7612 11.2537 17.23
-28.803699 10.6512 17.75
-30.825701 12.4663 21.986
-30.488899 11.4333 20.6541
-29.7875 10.5942 19.354601
-30.679701 11.9169 22.665701
-30.394899 10.8485 21.285999
-30.528299 11.2165 23.235901
-30.266701 10.157 21.879299
-29.748501 9.9742098 19.9366
-28.817499 10.0361 18.2624
-28.8106 9.3850002 18.7885
-28.7763 8.6789799 19.336901
-29.672501 9.2803802 20.519501
-28.523899 14.5069 28.003
-29.415899 13.7212 27.4692
-28.295401 13.6852 28.6607
-29.92 12.9507 26.792101
-29.7099 12.0237 27.3381
-29.182501 12.8615 28.0896
-27.9634 12.7364 29.268801
-28.884199 11.9034 28.6852
-27.499599 11.7032 29.803801
-29.4774 11.0404 27.9189
-29.1534 9.9879799 28.446699
-28.5257 10.8671 29.2321
-30.3074 10.3158 23.7302
-30.0627 9.3460798 22.434099
-29.5228 8.5061302 21.095501
-30.0438 9.3510199 24.2281
-29.838499 8.4327002 22.9674
-29.3384 7.6429601 21.654499
-28.6761 7.9142499 19.898701
-28.526699 7.0763402 20.4503
-29.818501 8.3309097 24.7498
-29.630699 7.4427299 23.493799
-29.158701 6.69069 22.178499
-29.5844 7.2694602 25.270901
-29.3911 6.4100399 24.007999
-28.906401 5.7181201 22.683201
-28.3757 6.06634 20.9286
-28.1492 4.91187 21.387501
-26.984699 10.594 30.2848
-28.087299 9.7694302 29.6984
-26.399599 9.4382095 30.6341
-27.5655 8.6208096 30.052099
-28.770201 8.87432 28.9105
-28.314301 7.7385201 29.2899
-26.0683 8.6062298 30.7766
-27.090099 7.6309299 30.428699
-25.715099 8.0474997 31.014099
-26.7307 6.9593201 30.6343
-28.282499 4.3220601 28.563999
-28.004499 3.70274 29.109699
-29.322399 6.1880202 25.7948
-29.1022 5.3369598 24.516899
-28.604401 4.6263199 23.1285
-28.991501 5.1387 26.3314
-28.2395 3.4228401 23.539499
-27.867201 3.7865901 21.891001
-27.484301 2.7611699 22.399799
-28.722601 4.2983599 26.9643
-27.880899 2.2837 23.894699
-28.456301 3.5343001 27.5114
-28.2162 2.87479 28.034201
-27.1273 1.82314 22.876301
-19.1854 12.7313 28.426701
-19.594 13.8926 28.013201
-20.070299 14.9382 27.655399
-20.5956 15.8577 27.2824
-25.0256 19.4925 25.1385
-23.552999 19.549801 24.559
-25.315201 20.051701 24.6103
-25.6178 20.604401 24.0548
-23.9111 20.088301 24.119801
-24.2876 20.654699 23.643101
-25.933599 21.1681 23.448099
-24.764999 21.2306 23.127899
-21.110701 17.148199 17.148399
-20.951099 18.121901 18.0994
-21.424299 15.4697 16.705099
-20.767599 16.406099 17.450899
-21.2633 14.7381 17.014
-20.5044 15.7175 17.727699
-22.361401 13.8124 16.439301
-22.4541 14.5639 16.089001
-20.512199 17.4121 18.3776
-20.7204 18.4016 19.497
-20.167601 16.764099 18.6322
-20.317101 17.776899 19.7384
-19.378799 15.3204 19.233801
-19.263901 12.9013 19.0509
-18.627899 14.0031 19.847601
-18.4897 15.1379 20.9445
-19.050699 12.2472 19.3356
-18.8414 11.521 19.7283
-21.891199 9.3481998 18.5606
-21.900299 10.1616 18.1527
-18.6022 10.7793 20.2178
-21.7374 8.5850897 19.0613
-18.381399 13.357 20.1721
-18.1549 14.5312 21.302099
-18.118099 12.6563 20.5926
-17.8311 13.8455 21.7428
-17.849701 11.9171 21.0903
-17.5186 13.0945 22.235901
-18.310801 10.0163 20.7544
-18.008499 9.2127304 21.3162
-21.1789 6.9019198 20.128599
-21.496201 7.76512 19.588301
-17.5165 11.1462 21.6075
-17.152901 12.294 22.727301
-17.2026 10.3018 22.132999
-16.822701 11.3929 23.2041
-17.763901 8.2831202 21.823299
-17.6126 7.24964 22.2889
-20.7784 5.9634199 20.6166
-16.9494 9.3264303 22.6066
-16.558001 10.3561 23.6217
-16.812201 8.1922302 23.114201
-16.4137 9.1873999 24.070299
-18.443001 5.0085301 21.8955
-17.3909 6.1286802 22.687799
-17.0856 4.8468599 22.936701
-18.0207 3.71984 22.355499
-19.150801 2.72753 22.090599
-16.178101 8.0631104 24.579599
-22.641701 20.6008 21.586399
-21.2698 19.277201 20.7388
-22.079 19.9835 21.933901
-20.813601 18.6826 20.992399
-21.5879 19.408501 22.224501
-22.649401 19.861099 23.288401
-23.1098 20.415199 22.9095
-20.4319 18.1621 21.202101
-21.169001 18.9039 22.472799
-22.2384 19.363899 23.619801
-18.7386 16.1966 22.2288
-19.378099 17.0378 23.5625
-20.367701 17.615999 24.791201
-18.3759 15.622 22.6231
-19.0397 16.4837 23.994301
-18.0434 14.9369 23.0847
-18.7055 15.7992 24.4762
-17.694 14.1602 23.5679
-18.328501 14.9906 24.9394
-19.7782 16.396 25.765699
-20.0618 17.0795 25.2463
-17.306101 13.3069 24.035299
-17.9233 14.0792 25.3682
-16.949301 12.3355 24.4685
-17.524799 13.0639 25.7722
-18.440201 13.6022 26.9809
-18.8815 14.6345 26.5991
-16.625 11.2327 24.846001
-17.177099 11.9044 26.1756
-16.438499 9.9967899 25.2481
-17.7833 11.2742 27.942301
-18.066 12.4556 27.391199
-16.186001 8.8578501 25.6084
-18.935301 -1.85399 25.7514
-19.250299 -2.1743701 25.775101
-19.247 -1.53078 24.9942
-19.562201 -1.87275 25.099001
-19.7649 -1.26693 24.417
-20.0536 -1.63782 24.5741
-20.452101 -1.08216 24.053101
-20.679899 -1.4954799 24.2717
-21.2204 -1.0583 23.924801
-21.3643 -1.51581 24.116899
-22.024799 -1.3461699 23.792101
-22.042801 -1.7444299 24.0096
-22.8211 -1.64666 23.767401
-22.7689 -1.99113 24.0105
-23.6346 21.0459 22.505199
-19.334499 15.5658 26.198601
-24.939501 13.9184 15.1831
-24.964899 13.1072 15.6037
-25.0002 12.3769 16.0214
-23.6754 13.775 15.7608
-23.6663 13.0025 16.1227
-25.045799 11.6761 16.4095
-25.110901 10.9847 16.7796
-23.694901 12.2946 16.495501
-25.195101 10.2741 17.139099
-25.233101 9.55233 17.517401
-25.218 8.8001404 17.943199
-25.116899 7.9089398 18.3825
-24.936501 6.9444699 18.8368
-24.726101 5.9274302 19.326099
-24.491199 4.8939199 19.882
-24.185301 3.8447299 20.4846
-23.6973 2.79357 21.1278
-18.601101 1.70058 22.7992
-19.0693 0.37859699 23.510401
-18.099899 0.90057403 23.556
-17.091999 1.70243 23.599001
-17.5718 2.6106901 22.9268
-18.5205 -0.20550101 24.1506
-16.6819 0.95967901 24.431
-16.688999 3.67542 23.2932
-16.232401 2.66396 23.8241
-15.7897 1.87606 24.5853
-16.2439 0.43871999 25.4939
-15.3473 1.3406 25.594101
-24.6612 -1.07365 23.437901
-23.400299 -3.95576 26.5811
-23.037901 -4.3110299 27.1891
-22.262199 -3.0456901 25.190001
-21.5026 -2.7191899 25.033501
-21.763 -3.3678601 25.7342
-21.146299 -3.0343699 25.537001
-20.920099 -2.4430399 24.9718
-20.614599 -2.7121699 25.4153
-21.339199 -3.6956799 26.2995
-20.790001 -3.34763 26.0861
-20.311001 -3.0307701 25.938801
-26.5133 -0.37669501 24.353701
-26.2775 -0.93491399 24.709499
-26.0707 -1.45067 25.067301
-25.8797 -1.95706 25.4347
-25.677299 -2.4295399 25.867201
-25.4613 -2.8462601 26.3566
-26.351101 5.8800001 31.420799
-27.171 4.3675799 30.7304
-26.188999 5.7665401 31.776699
-27.051201 4.24229 31.114401
-26.032801 5.6663599 32.108601
-26.9303 4.1901498 31.5212
-27.483 2.8136699 30.882799
-27.591 2.8000901 30.378799
-27.794701 3.2295499 29.6113
-27.687901 2.91945 29.9554
-27.688499 1.55492 29.794001
-27.526899 1.51694 30.486799
-19.0466 8.7088299 31.096201
-16.0186 4.81636 23.9125
-15.5684 3.7855999 24.2285
-15.0777 4.8926301 25.0445
-15.5466 5.6389499 24.706301
-15.0946 2.95714 24.8641
-14.7061 4.0763502 25.3857
-14.6961 2.4286699 25.847099
-14.3187 3.59903 26.182301
-30.7311 20.275801 20.0128
-31.8515 18.897699 18.760099
-31.9804 18.3708 18.188999
-31.5114 16.6991 16.215
-30.731899 16.062901 15.2203
-28.7493 15.5124 14.1147
-25.0257 16.2283 13.7607
-24.1661 16.7654 13.9328
-23.641899 17.2223 14.1462
-22.269899 20.3158 16.883301
-22.598301 21.0958 17.857599
-23.0982 21.7414 18.809799
-25.846901 22.9744 21.365299
-26.8428 22.813499 21.475901
-27.756901 22.4457 21.4298
-28.5987 21.974501 21.1971
-29.379999 21.3969 20.8311
-30.1653 20.7675 20.378401
-28.090799 20.3769 23.319099
-27.053101 20.8582 23.5016
-28.2237 20.947001 22.589001
-27.267099 21.429199 22.7976
-28.3857 21.490101 21.8379
-27.498501 21.972099 22.077101
-28.994699 19.720699 22.9599
-29.1196 20.253099 22.166901
-30.3342 19.9179 20.777901
-31.342699 18.931101 19.9527
-31.861601 18.054399 18.904699
-31.8752 16.9317 17.882401
-31.471001 16.046 16.8013
-30.7584 15.3764 15.7952
-29.796801 14.9965 15.0702
-27.406 14.8243 14.2676
-26.111799 15.1456 14.1321
-24.947901 15.5834 14.2124
-23.8344 16.200899 14.4988
-22.9487 17.041201 14.9388
-22.3225 17.853701 15.5765
-22.261999 20.534401 18.435101
-21.913401 19.625999 17.364901
-22.8839 21.323999 19.641001
-23.7612 21.948299 20.7295
-24.6366 22.323601 21.497499
-25.562201 22.451 21.9321
-26.5389 22.311399 22.106899
-29.2577 20.8449 21.404499
-21.938101 18.712799 16.4107
-27.432301 14.0732 14.7614
-26.160299 14.3002 14.6605
-26.2132 13.4479 15.1524
-27.471201 13.2463 15.3133
-28.6604 14.8509 14.5532
-30.1908 19.2883 21.510201
-31.1868 18.2437 20.695499
-31.729099 17.2407 19.686899
-31.757799 16.2304 18.6054
-31.0385 17.678301 21.5023
-31.386801 15.3489 17.504499
-30.7351 14.6468 16.479799
-29.7946 14.2142 15.6575
-30.716999 13.9801 17.208799
-28.6656 14.0269 15.1168
-26.245899 21.751801 22.794701
-25.2087 21.8452 22.563999
-22.0201 17.043501 16.001499
-21.5453 17.9212 16.810801
-22.782301 16.203899 15.3439
-21.7003 16.239401 16.374901
-22.6029 15.3623 15.7263
-21.4527 18.8685 17.7714
-21.758801 19.814699 18.884001
-21.212799 19.0921 19.2232
-22.386999 20.653099 20.0797
-23.2285 21.256599 21.181101
-21.803101 19.940901 20.4478
-24.186399 21.684299 22.030399
-24.929199 14.7618 14.717
-23.7747 15.4402 14.926
-23.7117 14.586 15.3676
-30.4161 25.067801 17.5973
-29.815201 25.3549 18.1696
-26.114901 25.927 17.1035
-25.649 25.469601 16.304701
-24.8225 24.007099 17.841999
-24.5051 23.488701 18.3333
-25.094999 24.0077 19.1189
-25.2836 24.3097 18.783501
-24.959299 23.7852 19.3256
-25.421301 24.550699 18.510201
-25.3398 25.0334 16.753901
-25.106001 24.531099 17.307199
-25.623301 24.9221 18.061399
-25.863701 25.397301 17.6082
-31.419701 19.5655 19.445299
-31.9505 17.5207 17.268499
-29.7668 15.6955 14.5747
-27.7791 15.5204 13.8226
-27.0385 15.6123 13.7073
-26.033701 15.8342 13.6793
-22.5555 18.638901 15.1631
-23.039101 17.883499 14.5788
-23.5292 22.123199 19.5016
-24.199499 22.572901 20.3423
-24.9599 22.886801 20.955299
-22.2561 19.4706 15.9788
-23.9473 20.604099 11.6971
-23.6737 21.150101 12.3174
-23.7257 22.159599 12.7545
-24.0079 23.010401 13.2958
-23.904699 20.2069 12.0261
-23.588301 20.7138 12.6798
-23.5457 21.698299 13.1139
-23.486 20.2768 13.0221
-23.385099 21.196199 13.4832
-23.8223 19.445299 12.6741
-23.869101 19.8239 12.3545
-23.7307 22.5753 13.6419
-23.4932 22.048599 14.0263
-24.0527 23.314301 14.3229
-23.7444 22.85 14.7546
-24.358999 23.7402 13.8988
-24.7507 24.389999 14.616
-25.1563 24.904499 15.3841
-24.442699 23.968 15.0681
-24.123199 23.513 15.5237
-24.859301 24.498501 15.8505
-24.570999 24.0443 16.3682
-23.3797 19.8521 13.3389
-23.208599 20.7201 13.825
-23.2761 19.448299 13.6407
-23.041 20.267401 14.142
-23.697001 18.708 13.2592
-23.7649 19.071501 12.9749
-23.254601 21.544399 14.4369
-23.018101 21.0709 14.8167
-23.178499 19.047199 13.938
-22.8855 19.8228 14.4504
-22.7857 20.616699 15.1812
-23.672199 18.3239 13.5395
-23.4762 22.3319 15.2055
-23.195601 21.848499 15.6192
-23.124701 18.5543 14.2462
-22.721399 19.3137 14.7709
-23.6507 17.8634 13.8323
-22.5481 20.113501 15.5588
-22.6077 20.9034 16.4195
-23.850901 22.9914 16.0123
-23.553499 22.509701 16.464899
-22.903799 21.388 16.008301
-23.236099 22.0583 16.882601
-24.313601 23.5469 16.9224
-24.012199 23.0651 17.406099
-23.6847 22.610201 17.807501
-22.916201 21.6064 17.330601
-23.379999 22.1775 18.2558
-24.2666 17.2743 13.5702
-24.296101 17.689899 13.2761
-24.319099 18.0532 13.0086
-25.0818 16.759701 13.3999
-25.1091 17.165199 13.112
-25.138599 17.517099 12.8512
-24.3445 18.4051 12.7347
-24.3853 18.744301 12.4422
-25.173 17.8489 12.58
-25.2031 18.189699 12.3105
-26.0266 16.375401 13.3241
-26.0515 16.7787 13.042
-26.9863 16.1171 13.3663
-27.013 16.500799 13.0846
-26.091801 17.116199 12.7781
-27.072399 16.8368 12.8293
-27.903999 15.9864 13.5027
-27.964399 16.3696 13.228
-26.1436 17.445801 12.5235
-26.1896 17.76 12.2554
-27.1406 17.152201 12.568
-27.2061 17.4573 12.2954
-24.4086 19.096001 12.1472
-24.396299 19.4177 11.8286
-24.3743 19.7335 11.5028
-25.232 18.500999 12.0229
-25.2283 18.775299 11.7165
-25.2062 19.0138 11.3897
-26.2216 18.0464 11.9687
-26.247299 18.289 11.6687
-27.27 17.736401 12.0047
-27.32 17.996 11.6977
-26.257999 18.4678 11.3473
-27.3708 18.200701 11.3602
-28.2864 17.6112 12.1346
-28.390499 17.884701 11.842
-28.573601 18.1022 11.5442
-29.4555 18.188 11.7307
-29.2897 17.98 12.0308
-30.535299 18.718 12.0683
-30.331301 18.4459 12.3632
-28.1856 17.329399 12.4234
-29.063299 17.4228 12.6346
-29.159401 17.7115 12.3306
-30.0483 17.771 13.0006
-30.172899 18.1147 12.6786
-31.6415 19.880699 12.5019
-31.329599 19.3678 12.8957
-31.0103 18.393801 13.5752
-31.164499 18.868999 13.2372
-32.5144 21.1506 13.0293
-32.2281 20.406 13.5149
-33.2537 22.2514 13.95
-32.952599 21.372101 14.5048
-31.8109 19.140499 14.3537
-31.979799 19.7169 13.9639
-32.3577 19.945801 15.3991
-32.635201 20.6064 14.99
-28.111401 17.0179 12.6993
-28.033001 16.702101 12.9664
-28.944901 16.747299 13.1991
-28.992399 17.0933 12.9214
-28.877399 16.4 13.4719
-29.9491 17.398199 13.3067
-29.893101 17.0098 13.6006
-29.8521 16.6215 13.8883
-28.809401 16.014099 13.7626
-29.785801 16.218599 14.1935
-30.825001 17.488899 14.2047
-30.9265 17.923201 13.8987
-30.770599 17.059401 14.5005
-30.757401 16.6022 14.8161
-31.6019 18.1444 15.0541
-31.6859 18.622601 14.7125
-31.523199 17.6975 15.3818
-32.125 18.903299 16.0781
-32.219601 19.396099 15.7428
-32.049999 18.4701 16.4296
-31.4918 17.246799 15.7489
-31.982599 18.0334 16.799601
-33.236099 22.9629 14.8822
-33.0149 22.083799 15.4319
-32.9184 23.383301 15.5999
-32.7201 22.5632 16.159201
-32.428501 20.664301 16.298201
-32.691502 21.312901 15.8984
-32.251999 21.212999 16.985901
-32.422699 21.823 16.6192
-32.361 23.593 16.1996
-31.738501 23.715599 16.7551
-31.6397 23.155001 17.2353
-32.187901 22.883301 16.7488
-32.015301 22.267799 17.181499
-31.8841 21.754499 17.601299
-31.4095 22.211399 18.107201
-31.5264 22.6602 17.686899
-31.189199 23.8706 17.259701
-30.781 24.503901 17.3769
-30.6161 24.049801 17.8235
-30.502501 23.629999 18.2195
-31.0755 23.412001 17.721901
-30.196699 24.647301 18.0163
-30.018101 24.2386 18.4151
-29.5422 24.936001 18.5819
-29.3176 24.556 18.9603
-29.135799 24.193001 19.327
-29.938601 23.761999 18.779699
-30.9711 23.0033 18.1388
-30.84 22.6159 18.5411
-30.399599 23.346399 18.532499
-30.246401 23.010099 18.924999
-29.6437 23.437099 19.282
-28.895599 23.8815 19.690701
-32.196899 19.6639 17.002899
-32.290501 20.122999 16.641199
-32.113602 19.243601 17.3522
-32.142502 20.7197 17.363899
-32.062698 20.277599 17.7251
-31.975201 19.8752 18.071899
-32.037399 18.825001 17.7176
-31.8918 19.4526 18.413799
-31.797501 21.271099 17.969801
-31.688801 20.8489 18.317499
-31.297001 21.806801 18.4958
-31.2057 21.414101 18.8416
-31.089701 21.0497 19.177
-31.596201 20.465799 18.6612
-31.5058 20.0639 19.018999
-30.931499 20.680401 19.542101
-30.7274 22.2495 18.9156
-30.620001 21.9153 19.270901
-30.1154 22.6805 19.285
-29.9636 22.394199 19.6238
-29.7747 22.132099 19.968201
-30.487 21.584299 19.603701
-29.447599 23.142 19.648001
-29.2437 22.8955 19.967501
-28.6598 23.6129 20.002501
-28.4573 23.371099 20.2827
-28.241899 23.1336 20.571301
-29.0411 22.656 20.2938
-30.292999 21.2388 19.9657
-29.5737 21.8151 20.349001
-28.820499 22.3703 20.687401
-28.0138 22.839399 20.934
-23.896601 22.621599 19.125401
-24.210199 23.0597 18.763599
-24.5009 23.0637 19.937
-24.740801 23.446301 19.590599
-26.725401 26.1196 17.784901
-27.426701 26.1294 18.334499
-28.186701 25.983601 18.620399
-26.3351 23.408501 20.985399
-25.801399 23.431801 20.852301
-26.5546 23.7122 20.690599
-25.922199 23.7465 20.5347
-25.160801 23.322701 20.5121
-25.332399 23.656099 20.167601
-26.746401 23.955999 20.443701
-26.072001 23.998301 20.2708
-25.497499 23.940701 19.902
-26.9408 24.193501 20.205999
-26.2407 24.240101 20.0226
-27.161699 24.4569 19.9522
-26.438601 24.507 19.756599
-25.649 24.180901 19.6443
-25.825701 24.454599 19.354
-27.396601 24.757799 19.676399
-26.6492 24.8123 19.4706
-26.883499 25.1681 19.145399
-27.6448 25.096901 19.3696
-26.2192 25.120501 18.686899
-26.008699 24.7514 19.052799
-27.9037 25.492701 19.021601
-27.135201 25.593201 18.774
-26.4666 25.565901 18.2752
-29.0499 25.710501 18.558599
-27.148899 23.2111 21.0284
-27.389999 23.511999 20.7012
-27.5811 23.759701 20.444401
-27.797701 23.9942 20.1999
-28.032 24.258101 19.934401
-28.279699 24.5541 19.637899
-28.513599 24.884701 19.311501
-28.7621 25.2572 18.9536
-23.993601 23.3284 7.9256201
-23.9125 23.763599 8.9679203
-24.501301 25.146 8.1999798
-24.661301 24.402599 7.3083301
-27.463499 31.478001 13.6269
-26.360399 30.468 12.923
-26.599899 30.1434 13.8411
-27.2848 30.670401 14.2318
-23.665001 21.7255 7.4138198
-23.8081 22.3391 8.5906401
-23.960899 22.689501 6.88345
-23.846901 20.864599 8.1704102
-25.125 28.1835 10.9906
-24.6408 26.9298 10.07
-24.591299 26.708 11.0168
-25.0487 27.6355 11.8129
-24.267 25.990499 10.4028
-25.6332 29.378599 11.8862
-25.6203 28.683399 12.8185
-26.1548 29.565201 13.5115
-34.202099 26.3619 10.1451
-33.698898 28.077999 11.4436
-33.437199 27.249599 11.9916
-33.935699 25.8834 10.9772
-29.312099 16.7026 7.9763298
-28.8172 17.2799 9.02668
-27.8057 16.2679 7.2347102
-29.9172 18.4335 11.198
-28.920799 18.2201 10.9479
-28.912001 17.9524 10.0831
-30.209101 18.3008 10.4951
-30.4622 17.862301 9.6693897
-30.8995 17.237499 8.4418602
-26.4415 16.5847 7.0041699
-27.270901 17.260401 8.54004
-27.6595 17.913099 9.7446604
-27.6682 18.2841 10.6928
-32.308399 20.5877 11.6701
-31.114201 19.1528 11.4867
-31.6896 19.159599 10.6692
-32.959999 20.570101 10.8355
-33.379799 20.4193 9.8032999
-32.161598 18.908701 9.7431402
-32.725201 18.406401 8.5253496
-33.814701 20.4272 8.8514404
-29.789 31.2069 14.7561
-31.205099 30.741199 14.2108
-31.060699 31.676701 13.5883
-29.788401 32.082901 13.893
-31.8062 30.993799 13.2152
-27.934401 30.9886 14.5239
-28.718 32.0219 13.8968
-28.8477 31.238501 14.7584
-32.395199 29.3255 13.3758
-33.038799 28.150801 12.6654
-32.8391 29.763201 12.483
-34.458 24.8279 9.3246298
-34.146301 24.3682 10.2905
-34.525101 22.5942 8.6015797
-34.297699 22.432899 9.0487099
-33.9249 22.2887 9.9055204
-24.2862 19.2075 7.8895001
-24.059799 19.7955 8.0408602
-23.721201 18.4049 6.2883301
-23.4006 19.250799 6.1869898
-24.1385 17.721201 6.3545399
-24.7292 18.543501 7.9057002
-25.4505 17.950399 8.0248404
-25.1373 16.921499 6.5795298
-26.446899 17.5292 8.3543701
-24.5154 25.848801 8.9004097
-24.065201 24.902399 9.65553
-30.9723 25.123501 16.879601
-30.614799 25.4818 17.190901
-30.0912 25.8909 17.632401
-31.159599 28.525499 15.1889
-30.715401 27.424299 16.2323
-31.2488 27.107599 15.7228
-31.557199 28.4203 14.7213
-31.576599 26.593 15.5232
-31.9842 28.3463 14.2025
-31.665001 29.0014 14.3905
-32.529598 28.340799 13.4651
-25.726801 27.724701 13.6124
-26.1036 28.4487 14.0018
-26.0271 28.9681 13.6582
-26.3638 28.908199 14.1868
-26.555099 29.251301 14.2669
-26.0151 26.2691 15.5547
-25.8855 25.917801 15.8649
-26.464701 26.4678 16.539
-26.711901 27.0763 16.003
-26.8386 27.913099 15.3927
-26.2826 27.946301 14.6138
-26.173 26.8666 15.1837
-27.0413 26.8253 17.1014
-27.162701 27.249399 16.537901
-27.467899 27.3575 16.8183
-27.7915 26.893999 17.666201
-27.912701 27.4783 17.1005
-28.2838 27.494101 17.2521
-28.528601 26.6208 18.0369
-28.8701 27.332899 17.4105
-29.368 26.2983 17.994301
-29.6817 26.999001 17.340599
-30.373501 26.592699 16.9517
-26.729099 28.669901 14.7422
-27.336201 27.967501 15.9129
-27.276899 28.9214 15.1566
-27.7834 28.0844 16.2328
-27.768999 29.106501 15.4508
-28.2603 28.2094 16.4447
-28.3055 29.252001 15.6753
-28.746 28.275101 16.568501
-28.8713 29.3018 15.7912
-29.293501 28.243601 16.5893
-29.5205 29.232201 15.7954
-30.0413 27.9065 16.5387
-30.4317 28.930401 15.6156
-24.3514 23.26 11.705
-24.115101 22.332001 11.3319
-23.9182 21.942699 11.6877
-24.1663 22.8936 12.1104
-23.775299 21.5987 11.9738
-23.9321 22.5404 12.4332
-23.9916 21.009701 11.3749
-24.540701 23.781799 12.5799
-24.2705 23.418699 12.9438
-24.6812 24.1786 12.191
-24.9053 24.5749 13.0994
-24.639601 24.153099 13.4719
-25.2847 25.773199 13.3129
-24.9776 25.0655 12.751
-25.252501 25.2201 13.7528
-25.0397 24.8069 14.162
-25.577999 25.8027 14.5946
-25.668699 26.504999 14.2188
-25.4027 25.3447 14.9454
-24.094299 21.396099 11.053
-24.074499 22.8535 10.5487
-24.175501 23.8969 10.9054
-24.0585 21.8965 10.1204
-24.4116 24.9772 11.3954
-24.7514 25.934401 11.9714
-25.189301 26.8423 12.6642
-24.322701 20.034401 11.1689
-24.3265 20.3566 10.8439
-25.1406 19.1994 11.0431
-25.0777 19.371599 10.702
-26.240101 18.621599 11.0215
-26.322701 18.694 10.6917
-27.533501 18.2994 11.0346
-28.7684 18.231899 11.2493
-26.620199 18.1859 9.6802502
-25.932899 18.551399 9.6203804
-25.278799 19.0581 9.55231
-24.744499 19.6474 9.5375299
-24.3109 20.32 9.5753002
-24.161699 20.9589 9.7687702
-29.674 18.360399 11.4782
-30.7556 18.979401 11.8189
-31.987499 20.321699 12.1118
-32.926998 21.870199 12.4945
-33.206001 22.3183 11.8856
-33.431801 23.1731 13.2739
-33.676701 24.0508 12.38
-33.2565 23.9254 14.2137
-33.4146 24.860701 13.194
-32.9142 24.2386 14.8942
-33.087502 25.175301 13.8999
-32.490501 24.3405 15.5317
-31.9249 24.348301 16.173599
-32.726898 25.236799 14.5851
-32.269299 25.177401 15.3518
-31.3416 24.405199 16.7752
-31.653299 25.1057 16.111
-30.9016 26.347799 16.3846
-32.185501 26.624901 14.7072
-32.608398 26.643299 13.9512
-33.056499 26.402399 13.2519
-33.382599 26.0564 12.669
-33.701 25.358101 11.9276
-33.903198 24.1506 11.2909
-33.6199 22.294701 11.0618
-30.776699 29.801001 14.9568
-29.668501 30.2047 15.2399
-28.877199 30.282801 15.2435
-28.175699 30.170799 15.0721
-27.5359 29.931299 14.8094
-26.9772 29.6341 14.5213
-25.537399 28.7022 10.2938
-26.126301 29.067499 9.7635202
-26.082399 27.844299 8.7189198
-25.307301 27.512699 9.2941198
-25.839199 30.0124 11.1147
-26.408199 31.177999 11.9678
-26.246201 30.3873 10.6131
-27.386299 32.0756 12.6063
-26.650299 31.4426 11.4411
-28.6306 32.4268 12.8215
-27.4818 32.2491 12.1284
-27.7223 32.212799 11.7701
-28.5912 32.433601 12.2624
-28.5602 32.277199 11.7928
-34.020599 18.5867 6.7123799
-34.348598 20.717699 7.9583902
-34.695702 20.9853 7.4236498
-34.727299 23.1789 8.27246
-34.59 25.403999 8.4492998
-34.880299 23.837999 7.3717198
-34.598202 24.249001 6.4103899
-34.2864 25.7917 7.6887698
-35.18 21.6618 5.78161
-34.888302 22.169701 4.7296
-34.987598 21.275999 6.78863
-23.757401 17.0147 4.9394698
-24.7962 16.4986 5.2746401
-29.6667 32.392899 12.1608
-29.5965 32.246601 11.7145
-29.763 32.3979 12.8236
-30.882299 31.855801 11.378
-31.027599 31.9547 11.793
-31.755501 31.565399 11.5688
-31.5322 31.595699 11.2111
-34.011299 27.0917 8.6953001
-34.341202 26.790501 9.4064903
-33.934601 28.473499 10.8163
-33.760502 28.7754 9.8896303
-33.028999 30.179701 11.8255
-33.019199 30.4569 10.8601
-31.9743 31.2806 12.4341
-31.0769 32.007 12.753
-32.6824 30.5739 10.4917
-31.0424 31.638901 11.0599
-29.7728 31.652901 10.9535
-33.475201 28.881701 9.4797602
-31.8118 30.694799 10.247
-33.631401 27.303301 8.3708296
-32.6161 29.0751 9.1756001
-33.901798 25.963699 7.3338599
-32.919498 27.479 8.1044397
-34.266701 24.5555 6.0914602
-33.1301 26.1583 7.0420799
-34.484699 22.5942 4.36554
-33.553699 24.926201 5.8838401
-33.9347 23.1092 4.19488
-31.423201 25.2579 6.1812501
-31.479 26.2001 7.0555201
-32.081902 25.120501 6.0490198
-31.2012 27.6187 8.0504704
-30.7798 29.213699 8.9830904
-29.957899 30.720501 10.0434
-26.809799 30.5973 10.3289
-27.0411 31.5896 11.1281
-28.518299 31.6292 10.9196
-27.764799 31.650299 11.0138
-27.8857 30.7843 10.1816
-26.8524 29.242201 9.4419699
-28.8848 27.823 8.13626
-28.3347 29.2913 9.1745901
-27.128401 27.936199 8.3512402
-29.513201 26.4828 7.2214499
-27.3314 26.9013 7.4579902
-26.0905 26.7917 7.7673001
-29.848 24.4848 5.51334
-29.886 25.467199 6.3782501
-31.579901 24.0543 5.0641999
-29.7299 23.187 4.39784
-31.462 22.775999 3.8377199
-26.0445 16.111601 5.5822501
-27.051701 15.6708 5.2358699
-23.686399 21.563 5.4990301
-24.7383 23.760201 6.3862901
-24.6943 22.8309 5.1782398
-25.7922 22.440201 3.70206
-24.729099 22.09 4.08009
-25.8661 23.378901 4.7190599
-23.535 20.854099 4.4739599
-22.964701 19.2183 4.4485202
-23.2901 20.3158 5.7966099
-22.9533 18.1835 4.7308202
-23.255301 17.378599 4.8772001
-26.1709 26.3328 7.35076
-25.2995 25.924601 7.6863198
-25.220501 26.4613 8.2435303
-25.476299 25.1273 6.8288202
-25.626101 24.400299 5.9250998
-26.3046 25.475 6.6020198
-26.304501 24.5926 5.7842202
-27.6427 23.5037 4.4791398
-27.8451 24.7038 5.6294699
-27.4233 26.524 7.1562099
-27.695801 25.6378 6.4627099
-32.597301 23.8039 4.7321301
-32.5611 22.4496 3.1609499
-33.637798 23.292801 4.2405701
-33.408501 21.7444 2.56269
-33.816002 21.370501 2.30288
-25.7115 15.9528 4.6569099
-23.452499 16.714199 3.9059
-24.4291 16.328199 4.2244601
-22.7118 18.4244 3.4445601
-22.655701 17.4 3.5562401
-22.992599 16.821301 3.67801
-23.35 20.153299 3.40854
-22.585199 17.881399 2.73211
-22.570299 17.0924 3.06213
-24.731501 21.637899 3.4305501
-23.675699 20.5131 2.82424
-22.9918 19.3666 2.3582201
-29.628401 22.301701 3.57482
-31.2159 22.0298 3.0912099
-27.5886 22.5767 3.4525399
-32.222 21.4727 2.0597301
-24.983299 20.6835 0.84613401
-25.8493 21.281 1.61755
-23.7029 20.1157 1.46558
-24.2652 20.835501 1.9109499
-25.257401 21.5867 2.52843
-26.060801 21.946899 2.6754301
-27.817301 21.264 1.93829
-27.752899 21.9042 2.5584099
-29.583401 21.4751 2.4756401
-29.5494 20.929399 1.8021801
-30.8936 21.0807 1.68353
-32.642601 19.5509 0.26859099
-31.6933 20.185499 0.67435199
-34.014801 21.0944 2.24032
-32.453899 18.5397 -0.69318998
-34.407902 20.226299 2.2943001
-28.249001 15.6276 5.7418399
-29.809799 15.8387 6.2719598
-31.375099 16.3283 6.4921799
-32.939301 17.279699 6.6814799
-30.0769 15.0044 3.2227099
-31.370399 15.3159 3.2611899
-32.620499 15.7235 3.5483
-33.849098 17.2381 4.1626501
-34.429699 18.8869 5.6370301
-34.602901 18.3993 3.92173
-34.902302 19.1444 3.45614
-34.676201 19.7307 2.6737599
-25.499201 15.841 3.86095
-26.212999 15.4898 3.6330099
-27.892 14.9144 3.21329
-28.6908 14.9693 3.3236799
-27.124201 15.115 3.29983
-32.242298 11.7255 -0.369223
-32.293499 11.7014 -0.219455
-32.285702 12.0932 -0.045506999
-32.192402 12.1713 -0.237095
-32.311901 12.5621 0.143948
-32.2332 12.7318 -0.108958
-32.740299 12.903 0.75685602
-33.1129 12.8838 0.898283
-33.18 13.4583 1.13174
-32.827 13.4334 0.98166102
-33.542 12.9433 0.73004198
-33.710999 13.5548 0.99623001
-34.062901 13.7563 0.78483403
-33.972099 13.1225 0.48783299
-33.7136 13.9964 1.13801
-33.232899 13.91 1.28256
-34.0369 14.1531 0.900859
-32.5317 13.0534 0.54324001
-32.616901 13.4877 0.724491
-32.467999 13.6001 0.49042201
-32.424198 13.1718 0.338494
-32.3074 13.3871 0.022175999
-32.171799 12.8616 -0.30010799
-32.155899 12.2387 -0.44104299
-32.310699 13.8533 0.072022997
-32.248699 13.5758 -0.23531599
-32.317501 14.1248 -0.228038
-32.331902 13.6636 -0.50401902
-32.2178 13.1313 -0.56318802
-32.396801 12.4762 -0.88808697
-32.4963 13.3936 -0.76530701
-32.911701 13.5926 -0.91072601
-32.7178 12.6195 -1.06214
-32.218201 12.2999 -0.68237799
-33.192902 11.4176 -0.69004899
-33.389999 11.6127 -0.72491699
-33.4272 11.5671 -0.53099
-33.217201 11.3601 -0.455805
-32.936298 11.2901 -0.56691903
-32.9543 11.2704 -0.35665599
-32.6082 11.3912 -0.280229
-32.647099 11.337 -0.47653401
-32.4035 11.5003 -0.42330801
-32.441799 11.5022 -0.27795199
-32.4342 11.6205 -0.12640101
-32.437901 11.9317 0.048923999
-32.217999 11.7472 -0.53144401
-32.2896 11.7729 -0.69573098
-32.332901 11.5835 -0.596874
-32.487801 11.7884 -0.91003299
-32.555099 11.482 -0.74045998
-32.730202 11.8579 -1.05595
-32.819801 11.4999 -0.86659402
-33.085499 11.6115 -0.970752
-32.999401 11.9365 -1.12902
-33.236099 11.8377 -1.017
-33.0732 12.6623 -1.14965
-33.342701 13.6149 -1.00353
-34.2183 13.6388 -0.129859
-33.8643 12.6238 -0.42795801
-33.776199 13.002 -0.72778898
-34.054699 13.9088 -0.474783
-33.599602 12.0015 -0.64322001
-33.480801 12.3003 -0.94531798
-33.609299 13.3441 -0.94046199
-33.345798 12.4429 -1.0602601
-32.657398 12.3334 0.47612399
-32.999401 12.2349 0.53900701
-33.4347 12.2103 0.36982399
-32.428799 12.4822 0.33105901
-32.6782 12.1028 0.32466999
-32.992001 12.0453 0.33668399
-33.3536 12.0141 0.15223099
-32.420601 12.2924 0.229839
-33.304901 11.844 -0.191047
-33.339298 11.7913 -0.27755499
-33.414501 11.8059 -0.27530399
-33.216202 11.8744 -0.063492998
-32.961601 11.8782 0.088398002
-33.372101 11.5651 -0.38915199
-33.209499 11.3852 -0.31921601
-32.9505 11.3239 -0.244339
-32.618698 11.4308 -0.191615
-32.543301 11.5408 -0.090857998
-32.597698 11.8157 0.086718
-33.314301 11.6086 -0.339333
-33.2906 11.7801 -0.26825899
-32.712101 11.8359 0.091847003
-32.655701 11.7704 0.039616
-32.6436 11.5145 -0.134471
-32.697701 11.7522 0.0057009999
-29.3603 8.9141502 0.93466699
-29.2722 8.9093599 0.91732502
-29.4091 8.7359505 0.87344301
-30.575399 9.1133604 0.186882
-30.615601 9.1447697 0.410478
-30.3867 8.78473 0.417211
-30.3193 8.7368002 0.203091
-30.641399 9.6126003 0.33669701
-30.6728 9.6005001 0.57024401
-30.5818 9.5073204 0.81734002
-30.5637 9.1160498 0.63708198
-29.350201 8.6220398 0.79957497
-29.6679 8.4918804 0.73940998
-29.6805 8.6055498 0.83409899
-29.586399 8.4304304 0.48625699
-29.285999 8.5477695 0.619497
-30.0821 8.5245705 0.622877
-30.000401 8.4851398 0.363675
-30.4251 9.0938196 -0.074809
-30.176201 8.7382698 -0.061163999
-30.0508 8.8533201 -0.214048
-29.8729 8.54002 0.050400998
-29.7547 8.6994104 -0.154231
-30.508301 12.3752 0.373788
-30.552999 12.2821 0.83521599
-30.4839 11.319 0.87833202
-30.476801 11.3614 0.56048101
-29.1644 12.1478 1.91073
-29.0159 12.1643 1.60501
-29.0436 11.1405 1.56581
-29.180799 11.0156 1.82081
-29.205999 9.9399595 1.51457
-29.500401 9.8896999 1.60488
-29.4233 10.947 1.96615
-30.5662 12.2585 1.40804
-30.447901 11.1845 1.3948801
-30.2001 11.1069 1.7613
-30.4042 12.4135 1.77625
-29.125 11.6547 0.642802
-29.3001 11.6089 0.33689699
-29.2824 10.4262 0.20615099
-29.076099 10.2686 0.56274402
-29.6595 11.5949 0.134416
-29.6327 10.6071 0.016217999
-29.1215 8.8523502 0.79683799
-28.999001 8.93645 0.46678799
-29.0243 9.0919504 0.073611997
-29.2218 8.7072096 0.017689001
-29.207001 8.58922 0.32141599
-29.582399 10.2279 -0.200277
-29.579399 9.51472 -0.370819
-29.181499 9.2685499 -0.20129
-29.1859 10.0413 -0.021044999
-29.9932 9.0175304 -0.30996799
-29.6598 8.9225798 -0.29711699
-29.969999 9.57131 -0.35235801
-29.339001 8.7772503 -0.14878
-29.0065 11.5503 0.92173398
-29.004999 10.1755 0.93935198
-29.055201 10.0138 1.35188
-28.9694 11.3175 1.28062
-28.9886 10.0757 1.18727
-28.914101 12.3612 1.12606
-29.409201 8.6118298 -0.052536
-29.505699 8.4709396 0.17564601
-30.227699 9.0851402 -0.215124
-30.300501 9.5917902 -0.186818
-30.5154 9.6048603 0.061886001
-29.996401 10.262 -0.18508799
-30.0317 10.6005 -0.0050769998
-30.311899 10.2355 -0.022853
-30.3127 10.5391 0.137071
-30.508301 10.2426 0.257063
-30.613199 10.1289 0.54965299
-30.462601 10.4724 0.34394699
-30.575899 10.3547 0.63558698
-30.629801 10.027 0.78085899
-30.577 10.2666 0.88518399
-30.534401 9.9097204 1.05434
-30.4842 10.1826 1.18381
-30.2572 10.0607 1.44982
-30.314301 9.7903605 1.26158
-29.785101 10.9914 1.9838099
-29.890301 9.9037399 1.5977
-29.9275 9.6608696 1.4262201
-29.028999 9.7441397 1.07894
-28.9883 9.8136501 0.80284399
-29.0606 9.3968 0.96024501
-28.978399 9.53755 0.72189599
-29.116301 9.6945801 1.2287
-29.201401 9.3219004 1.0672801
-29.3766 9.1987 1.04739
-29.3577 9.3025799 1.14122
-29.324499 9.2592602 1.09839
-29.255899 9.6301003 1.35089
-29.534901 9.6394796 1.46288
-29.5597 9.4092503 1.23843
-29.938801 9.4434996 1.18275
-29.0187 9.9032898 0.389974
-28.9981 9.7024403 0.34023601
-30.615299 12.5639 0.83613998
-30.617399 12.5223 1.44921
-29.889999 12.2989 2.0314901
-29.003401 12.6634 1.82855
-28.9182 12.4985 1.57294
-28.800699 12.4714 1.61362
-28.855101 12.3947 1.05468
-22.563101 16.339001 1.67436
-22.551201 16.4918 1.86853
-22.5037 16.747 1.52168
-22.5049 16.5634 1.31882
-22.562099 16.592501 2.0420699
-26.2738 14.7005 1.1390001
-25.674299 15.5432 1.0251
-25.702801 15.2847 0.53625298
-26.292999 14.4515 0.54811001
-27.971701 19.740299 0.51334399
-28.4296 16.369699 -1.22149
-27.950199 16.6668 -1.20222
-25.7139 20.237499 0.237207
-24.6134 18.6464 -0.50795299
-24.5105 19.4265 -0.072449997
-25.8018 19.134501 -0.56096298
-25.733299 18.2451 -0.91517299
-27.448601 17.8417 -0.92911297
-24.669399 20.2264 0.438072
-29.5399 19.4779 0.27318701
-30.837099 18.982201 -0.33950001
-31.7066 18.322901 -0.805125
-31.5557 15.5005 -1.32544
-30.507601 15.1267 -1.25389
-33.1138 17.2815 -1.27235
-33.484299 17.0329 -1.13933
-33.164902 15.4536 -1.23645
-32.6749 17.194099 -1.4050699
-23.3592 11.8098 0.17311899
-23.162701 11.7064 0.24297801
-22.8876 12.1488 -0.169843
-28.9133 12.682 -0.096617997
-28.8055 12.7125 -0.095605001
-28.756399 13.1786 -0.53369302
-30.8346 14.2427 -1.09621
-31.686701 15.0311 -1.1265
-28.5679 12.6925 -0.083495997
-28.3692 13.3387 -0.523637
-25.535 17.4988 -0.97122598
-24.4482 18.0574 -0.61226499
-26.9723 16.702499 -1.137
-26.503 16.4238 -0.87847298
-26.779699 14.6922 -0.58539802
-27.3402 14.8744 -0.96188402
-27.704399 14.3767 -0.93022197
-28.7631 12.7443 1.93971
-28.627501 12.4771 1.92313
-28.242001 9.36339 1.72558
-28.313299 10.3807 2.06358
-27.839199 10.3099 2.14042
-27.8515 9.3084202 1.8287899
-27.916201 11.6295 2.1661999
-28.547501 11.734 1.9539599
-25.872499 15.5528 1.6371599
-26.5459 14.9617 1.68037
-26.7033 14.9145 1.88954
-25.9128 15.5031 1.95114
-25.4174 15.5239 0.97926599
-25.6359 15.6386 1.25621
-25.2719 15.545 1.36419
-24.454599 14.0695 1.90637
-24.378201 13.6657 1.79479
-24.7246 13.8088 1.53479
-24.7771 14.1415 1.54567
-23.2948 11.5755 0.67044997
-22.825899 11.6303 0.56624103
-24.062201 13.7503 1.8764
-24.076099 13.076 1.67799
-24.275801 12.9785 1.64755
-23.758699 14.2207 2.1038001
-23.6612 13.9736 1.96709
-24.1712 14.0924 2.0360601
-25.826599 15.4845 2.4056301
-26.865801 14.9503 2.1205599
-26.694799 15.1445 2.76002
-25.426201 15.6696 3.2011199
-32.941502 14.8925 1.42136
-33.470402 15.1107 1.21033
-34.134701 15.5016 0.90156502
-34.374199 15.6637 0.38628599
-23.932899 12.7573 1.65895
-24.055 12.4588 1.6474299
-26.428699 14.9313 1.49493
-25.802999 15.5779 1.3940901
-23.466 19.1684 0.71219802
-23.5858 18.4028 0.039342001
-22.648001 16.5828 0.64985597
-22.486601 16.312201 1.20811
-22.9147 16.955 0.47209701
-22.5543 16.1033 0.56371999
-22.4091 16.019199 1.02537
-22.3032 15.3071 0.27183199
-22.129999 15.2772 0.75971401
-21.882999 14.5623 0.60244101
-21.8981 14.4672 0.28740501
-22.1516 15.177 1.0383199
-21.9594 14.5384 0.86589801
-21.663099 13.8314 0.79264897
-22.0947 14.4934 1.10725
-22.2901 15.0251 1.3734601
-22.4576 15.8412 1.27774
-23.737101 15.5237 2.1342001
-23.3298 15.1593 1.97607
-24.0502 14.9007 2.0945001
-24.468 15.3916 2.0474501
-23.0853 15.7228 1.92238
-22.643499 15.5523 1.59937
-22.887199 15.4025 1.7486399
-22.598301 16.0867 1.54241
-23.134501 15.9775 2.0908301
-23.059799 16.132601 2.36765
-23.882799 15.7104 2.3036399
-24.7171 15.5932 2.1575799
-23.975901 15.8493 2.59287
-23.9506 16.2486 3.253
-24.034599 15.9636 2.9758501
-23.0334 16.292601 2.7007799
-23.007 16.465599 2.9768
-22.4946 17.1147 1.98472
-22.5627 16.7509 2.36131
-22.913401 17.3466 0.81734103
-22.860001 18.150499 1.43964
-34.290699 16.0606 -0.33627599
-33.999199 16.4821 -0.88421899
-22.6215 15.0717 -0.28300601
-22.2047 14.1553 -0.197194
-22.9123 14.9015 -0.459014
-22.5637 13.88 -0.50637501
-23.060699 15.9859 -0.221219
-23.4025 15.869 -0.45416901
-23.2008 16.708799 -0.15666801
-23.648001 16.675699 -0.46053201
-24.932199 14.2019 1.16693
-25.2111 15.1803 1.01213
-24.993999 15.0985 1.55439
-24.5019 12.9088 1.48835
-24.6677 12.9641 1.2131701
-24.185801 12.266 1.4538701
-24.424101 14.8762 2.00722
-24.7386 14.932 1.85387
-24.8165 15.393 1.90187
-25.1157 15.4787 1.68249
-25.3885 15.6991 1.63016
-25.1306 15.6299 1.92509
-25.615499 15.6352 1.68479
-27.063601 13.2569 1.86099
-26.921801 13.2417 1.56472
-23.562201 13.7107 1.76643
-22.8848 14.3894 1.76171
-22.826 14.0534 1.55785
-23.930099 13.3071 1.6653
-23.9531 13.0307 1.60396
-24.953899 15.7094 2.27175
-25.384399 15.6377 2.0308599
-27.2843 13.2174 2.0831201
-27.640301 13.3336 2.243
-27.1318 12.5723 1.89608
-27.3748 12.5932 2.0991001
-21.7484 13.0877 1.0489399
-21.791201 13.8087 1.0098
-21.5835 12.8213 0.65287799
-21.688499 12.5093 0.85033703
-21.8536 12.8254 1.13299
-21.596399 13.5897 0.460706
-21.693701 12.7608 0.15714701
-21.773199 12.4199 0.366813
-21.8015 13.3123 -0.019347999
-22.2295 13.7686 1.06897
-22.283001 14.0296 1.15595
-22.101601 13.7634 1.07323
-21.953699 13.7776 1.09873
-22.2967 14.4846 1.33962
-22.492701 14.8949 1.60198
-23.0035 14.6252 1.89452
-23.872601 13.0462 1.57023
-21.867001 13.1206 1.12459
-21.957899 12.1539 1.13919
-22.089199 12.2955 1.45061
-23.6814 12.2312 1.70149
-23.608 12.275 1.6984299
-23.4524 12.1101 1.6439101
-22.0103 12.6708 -0.203293
-22.0324 12.4182 -0.033599
-22.1586 13.0736 -0.338514
-22.5023 12.6133 -0.384684
-22.267 12.0217 0.25462499
-22.013 12.058 0.69197297
-23.0186 13.3852 -0.63525403
-23.4841 12.8426 -0.48868799
-24.2885 13.5315 -0.19156
-23.827 12.3785 -0.09601
-23.913401 13.9723 -0.51418698
-23.462799 14.425 -0.648426
-24.396299 15.0861 -0.53487998
-24.692301 14.7543 -0.25112501
-23.8901 15.4962 -0.58998501
-24.950701 16.272699 -0.72665602
-25.244699 15.9545 -0.51524699
-24.459299 16.4331 -0.74015599
-24.249901 12.123 1.16355
-23.688499 11.8781 1.4481
-23.7022 11.6917 1.11173
-23.671 11.6795 0.698915
-23.304701 11.6066 1.07313
-23.325199 11.798 1.4232
-22.707001 11.648 0.98913002
-22.711901 11.7666 1.38085
-22.834 11.9644 1.67239
-25.350201 15.2638 0.45892599
-25.064501 14.3216 0.749327
-25.364799 15.3806 -0.012528
-25.000999 14.3981 0.32762301
-24.698099 13.2173 0.55108202
-24.739401 13.0557 0.98437202
-24.159599 12.1186 0.60367799
-24.213699 12.1125 0.88327402
-25.497601 15.3562 0.58725101
-27.1329 11.4377 1.9286799
-26.994801 12.6015 1.60105
-26.996099 11.4281 1.6429
-27.382401 10.2558 2.0943699
-27.438 11.5037 2.11443
-27.089001 10.3062 1.91939
-26.941299 10.4207 1.64779
-25.6698 15.5312 -0.19751801
-25.691999 15.2073 0.27510199
-25.6124 16.282 -0.482705
-25.9489 15.3534 -0.26688299
-25.8015 16.363501 -0.54030597
-25.1992 16.6539 -0.72119099
-25.3389 16.7805 -0.79087102
-24.633699 16.752899 -0.741952
-24.805201 16.9161 -0.82205302
-23.894199 17.329399 -0.58219999
-23.741501 17.085199 -0.53421998
-23.386 17.1814 -0.27181301
-23.384001 17.4259 -0.22456101
-26.911301 12.5814 1.24696
-26.945601 11.4795 1.3102601
-26.847799 13.2158 1.19902
-26.877701 13.0507 0.77479702
-26.944201 12.6448 0.82970601
-26.9879 11.5885 0.93113703
-26.892099 10.4912 1.3499399
-27.075399 13.0326 0.37805501
-27.137899 12.6521 0.44988799
-25.979 14.9109 0.14471801
-26.646999 14.4236 -0.210445
-27.431801 13.0886 0.032363001
-27.6479 13.7161 -0.57964301
-26.4137 14.411 0.151903
-27.4655 12.7415 0.137888
-27.179501 11.7531 0.56686801
-26.952 10.5727 1.01774
-27.0819 10.617 0.71849298
-27.4818 11.9392 0.108473
-27.406601 10.544 0.280891
-26.9433 8.7546597 0.26864901
-26.9258 9.3225603 0.556458
-27.2346 9.39643 0.202857
-27.207701 8.77425 -0.017155999
-27.1401 8.3286304 0.171506
-27.316799 8.3529701 0.048276
-27.855801 13.0477 -0.13717
-27.8409 12.6784 -0.023792
-28.240999 12.6274 -0.053674001
-28.2505 12.8281 -0.21609201
-28.5457 12.3927 0.084183998
-27.6998 8.7368803 -0.154378
-27.721701 8.3517904 -0.063649997
-27.878901 11.9886 -0.034143999
-27.8281 10.5094 0.13058101
-28.246401 11.9475 -0.037627
-28.213301 10.4136 0.157737
-28.370501 14.1397 -0.91586798
-26.8328 8.6558905 0.62752098
-26.832199 9.21486 0.87480903
-26.916201 8.5495701 0.98062801
-26.8974 9.0764904 1.12086
-27.430099 9.3645401 1.79691
-27.4748 9.2220602 1.6764801
-27.879 9.1474199 1.67129
-27.084299 9.4662399 1.67489
-28.775101 11.9205 1.71102
-28.854 12.0564 1.15764
-28.7453 10.5807 1.24665
-28.858801 11.6893 1.19433
-28.8078 11.6231 1.7009701
-28.648001 10.4553 1.73919
-28.5434 9.4590302 1.45877
-28.6465 9.5194597 1.2017699
-28.571199 11.8116 0.228255
-28.2677 9.14746 1.54217
-27.962799 7.9565001 0.61049497
-28.34 8.0898504 0.45012799
-28.383301 8.1229 0.74393898
-28.0005 7.9686699 0.96808499
-27.4557 8.0111799 0.685633
-27.509399 8.0336704 1.0410399
-28.609501 8.3761101 0.455982
-28.658701 8.4009895 0.706783
-27.0532 8.2333403 0.44641301
-27.0966 8.18785 0.79163599
-27.153 8.2514696 1.04985
-28.422899 8.7831202 0.062006
-28.349199 8.3854799 0.025268
-28.112301 8.3530397 -0.050246
-28.118 8.73102 -0.144401
-28.4244 9.5471497 0.424496
-28.4391 9.3057203 0.24121501
-28.1577 9.2981997 0.060961001
-28.1735 9.5692101 0.263964
-28.515499 10.3821 0.51948601
-27.7764 9.6121597 0.27839199
-28.554001 9.5523996 0.63618201
-28.5839 9.3132401 0.54916
-28.5952 8.7926397 0.33197299
-28.513901 8.3726702 0.181614
-28.694799 8.8156099 0.631621
-28.6653 9.2550201 1.0863
-28.661501 9.29566 0.85514402
-28.650101 9.5409899 0.94883698
-28.7054 8.8436604 0.895899
-28.5588 9.18643 1.29075
-28.57 8.8886003 1.12964
-28.6005 8.4686203 0.92382997
-27.760401 12.6079 2.1975601
-27.5854 14.3773 2.52281
-28.146099 8.2227201 0.034293
-28.2381 8.1182203 0.171271
-27.7855 8.1494999 0.046684999
-27.871 8.0166998 0.247664
-27.357599 8.1905098 0.099969998
-27.4128 8.05618 0.33015299
-28.260599 12.6618 2.12746
-28.037201 13.9681 2.5474801
-26.921801 9.5466995 1.48692
-27.156099 9.2550297 1.53089
-26.960199 9.3115902 1.37966
-27.108601 9.0454502 1.28615
-26.8633 9.3428802 1.21772
-26.852699 9.5832195 1.30726
-26.8416 9.3938799 0.96610802
-26.8608 9.6307602 1.06578
-26.945 9.4444103 0.64232099
-26.9981 9.6640997 0.77689701
-27.3311 9.65909 0.420526
-27.7355 9.3173103 0.042722002
-28.2946 8.9254398 1.31242
-28.366199 8.8274498 1.23476
-27.900101 8.9962702 1.46629
-28.284201 8.8348904 1.24289
-27.5627 9.0559702 1.50533
-27.263 9.0205297 1.37079
-27.3342 8.9720697 1.35119
-27.3113 9.0592299 1.40994
-28.3638 8.2056198 0.93200898
-28.436001 8.5617704 1.11037
-27.99 8.0530396 1.10443
-27.5303 8.1223402 1.1876301
-27.1961 8.3697996 1.18442
-27.0411 8.6054001 1.18926
-27.117599 8.6294203 1.24488
-28.3438 8.2721996 0.99387699
-28.6395 13.6464 2.6075799
-29.137699 13.6277 2.6284201
-29.9972 13.8294 2.5109899
-27.944799 12.6185 2.20767
-28.0518 13.3339 2.3087699
-28.432301 13.0949 2.2348499
-28.701401 13.0134 2.16243
-29.2082 12.8567 1.96158
-29.037399 13.0818 2.16241
-29.440399 13.2582 2.20803
-29.814501 13.3834 2.18874
-30.2855 13.0711 1.99401
-29.840401 13.0255 2.0838101
-29.5679 12.9629 2.0843401
-29.403099 12.176 2.03442
-29.6661 12.2166 2.06899
-30.358299 13.56 2.1254301
-30.5604 13.9829 2.31743
-30.2307 9.3220301 0.918226
-30.3027 9.3430595 0.93535602
-30.2302 9.3991203 1.0283
-30.417999 9.4033098 0.93471199
-30.365499 9.0600204 0.74235499
-30.4436 9.0764503 0.72339499
-30.2665 8.8693705 0.66711003
-30.310301 8.8337202 0.62548101
-30.371201 8.8070097 0.552378
-30.0846 8.63694 0.715505
-29.0413 12.6936 -0.145427
-29.563999 13.9454 -0.976237
-29.7593 13.3232 -0.73806697
-29.2507 13.2823 -0.689412
-29.1667 13.9586 -0.95968503
-29.2085 15.7039 -1.22393
-29.334801 12.7412 -0.273693
-29.7223 12.7674 -0.36956799
-29.095301 12.537 0.23020899
-29.3391 12.5471 0.030011
-31.1136 13.2437 -0.721618
-31.0851 13.9199 -0.92466098
-31.3123 13.3868 -0.69077897
-30.767799 10.4177 0.159834
-30.82 10.3985 0.32725799
-30.736 10.7619 0.45487699
-30.6625 10.8495 0.221522
-30.6901 11.2262 0.60010499
-30.6175 11.3401 0.31120801
-30.795601 13.0039 -0.65120399
-30.6387 13.6332 -0.87467903
-30.478901 14.0421 -1.06637
-29.858999 13.9379 -1.00516
-30.192301 13.4269 -0.78238702
-29.9566 12.7695 -0.40640801
-30.246 12.7686 -0.43164101
-30.4466 11.4255 0.345402
-30.3568 11.4666 0.20756499
-30.4107 12.3943 0.048542
-28.945101 12.5884 0.195471
-28.842199 12.5611 0.211981
-28.8277 12.2554 0.63122201
-28.868299 12.4528 0.58096701
-28.7768 12.4775 0.267616
-28.815901 12.1289 0.65591103
-28.7304 12.3317 0.335334
-28.8041 11.8464 0.70246202
-28.7201 11.9522 0.455915
-28.709299 10.5836 0.913652
-28.628 10.5748 0.719051
-30.403 12.577 -0.039905
-30.513 12.5504 0.32348299
-30.2882 12.4086 -0.13401499
-30.260401 12.5493 -0.20729101
-29.9804 12.6333 -0.21312501
-29.678301 12.6282 -0.15053999
-29.347799 12.6083 -0.037131
-29.7027 12.5508 -0.090150997
-28.955999 12.4049 0.61089098
-28.9342 12.4734 0.55969399
-29.0709 12.599 0.157674
-30.2668 12.5902 -0.26124501
-29.9809 12.6047 -0.160657
-30.4153 12.6387 -0.080824003
-30.541 12.5926 0.29432899
-30.080601 11.5283 0.073715001
-30.004499 12.4631 -0.12554599
-30.4247 12.8403 -0.45786801
-30.4506 12.6868 -0.123451
-30.9706 14.1689 2.2976601
-31.5261 14.3719 2.08916
-32.011101 14.4974 1.8212301
-31.2103 13.9611 1.94662
-31.657499 14.0849 1.81805
-31.7733 13.8477 1.78854
-32.143902 14.0275 1.5822901
-32.057301 14.2346 1.6178401
-31.131201 12.0043 1.29325
-31.467899 11.9662 1.4730901
-31.4578 12.72 1.6842
-31.115999 12.6554 1.5054801
-31.8479 11.9488 1.3208899
-31.819 12.7359 1.54448
-32.099998 12.8633 1.27569
-32.132099 11.9885 1.04871
-31.810801 13.3519 1.6666501
-31.4443 13.2667 1.78597
-32.120998 13.5115 1.45531
-32.199501 12.432 0.429876
-32.252499 13.2231 0.82786399
-32.629902 14.8647 1.55308
