# .PCD v.7 - Point Cloud Data file format
VERSION .7
FIELDS x y z
SIZE 4 4 4
TYPE F F F
COUNT 1 1 1
WIDTH 1722
HEIGHT 1
VIEWPOINT 0 0 0 1 0 0 0
POINTS 1722
DATA ascii
1.44339 -1.13743 129.511
1.36628 -1.41048 130.46899
8.2360401 -20.308701 130.157
7.7515101 -20.622 129.17999
9.3251801 -17.8459 132.429
9.20611 -19.159401 132.981
9.08599 -19.796801 133.51401
2.9061301 -1.6040699 129.466
2.8247099 -1.8575 130.39301
4.5594401 -2.4054999 129.453
4.52596 -2.6289899 130.32401
9.5380497 -20.9932 132.96899
8.11975 -21.1779 130.55299
8.6673698 -23.738199 129.43401
4.80514 -29.127001 128.362
5.2671499 -28.086201 128.254
1.11948 -25.678801 126.253
10.295 -9.35291 131.14
9.4366302 -6.87992 130.97701
8.0146999 -5.1315098 131.041
6.2060699 -3.6895199 131.196
1.2918 -1.66608 131.61
2.7199399 -2.0783899 131.48199
4.3613 -2.76963 131.321
7.33849 -21.0693 128.897
4.64362 -30.3083 129.27299
4.3583498 -30.003799 128.52299
3.9458699 -29.901501 128.164
1.9827501 -29.4895 127.281
0.93795401 -29.2722 126.93
0.71516103 -24.459999 125.352
10.081 -13.361 129.786
0.80258697 -25.0347 125.832
1.36095 -24.9564 125.934
2.17065 -24.8421 126.166
2.97124 -24.5303 126.326
3.76472 -24.1647 126.55
4.4812198 -23.658001 126.817
5.05371 -23.1173 127.112
2.16553 -28.4576 141.42799
2.16957 -28.462 141.408
2.1313601 -28.4531 141.39
2.1800201 -28.464001 141.39
2.1498899 -28.4555 141.362
2.08531 -28.4331 141.414
2.09375 -28.440001 141.37199
2.0534401 -28.426901 141.351
2.1200299 -28.4429 141.33299
2.0880699 -28.4303 141.30299
1.97302 -28.394199 141.39799
1.98603 -28.410101 141.317
1.9311 -28.369101 141.39799
1.9452699 -28.3888 141.297
2.0327301 -28.417 141.24699
1.99683 -28.3981 141.213
1.9084899 -28.318701 141.39799
1.92285 -28.338699 141.28799
1.90793 -28.2502 141.396
1.92241 -28.2679 141.289
1.97498 -28.3482 141.198
1.96953 -28.2766 141.201
1.94651 -28.1933 141.298
1.99149 -28.124001 141.314
1.98509 -28.197901 141.22099
2.0185699 -28.1262 141.257
2.05161 -28.0693 141.338
2.12396 -28.0301 141.36501
2.0652599 -28.070801 141.30701
2.19648 -28.4662 141.37601
2.18155 -28.4568 141.338
2.2179999 -28.4674 141.366
2.2244 -28.459 141.321
2.16592 -28.445 141.3
2.1491399 -28.433901 141.25999
2.23265 -28.4499 141.276
2.2400601 -28.440701 141.22701
2.11637 -28.4205 141.189
2.0899501 -28.4 141.146
2.2418599 -28.4282 141.14301
2.22559 -28.406099 141.09599
2.06654 -28.349001 141.127
2.05059 -28.275499 141.132
2.19731 -28.3517 141.076
2.1651001 -28.2773 141.08501
2.0494001 -28.1961 141.162
2.06163 -28.124001 141.215
2.1363201 -28.194401 141.12399
2.1171401 -28.118299 141.189
2.0862401 -28.068899 141.285
2.1122999 -28.064699 141.271
2.2412701 -28.468 141.364
2.2748499 -28.4564 141.314
2.2629299 -28.465599 141.368
2.32196 -28.452999 141.315
2.3161099 -28.449699 141.259
2.3571801 -28.4468 141.201
2.3957901 -28.4513 141.256
2.47103 -28.455999 141.194
2.4031799 -28.439199 141.11
2.39659 -28.414 141.062
2.55969 -28.456301 141.101
2.5601299 -28.4252 141.058
2.36008 -28.3594 141.04401
2.3045399 -28.278299 141.05701
2.5145099 -28.3687 141.043
2.4360001 -28.280399 141.05901
2.23842 -28.187901 141.104
2.17802 -28.106899 141.177
2.33373 -28.1784 141.10899
2.2347 -28.091101 141.183
2.13904 -28.0581 141.267
2.16432 -28.0478 141.271
2.2795401 -28.4634 141.37801
2.35308 -28.4496 141.32899
2.2892301 -28.461599 141.394
2.2272301 -28.4625 141.43401
2.3638301 -28.445299 141.354
2.44821 -28.4487 141.272
2.54672 -28.456301 141.211
2.4600599 -28.438601 141.30499
2.5596199 -28.4384 141.254
2.66313 -28.440901 141.121
2.6669099 -28.403099 141.08501
2.6752999 -28.407801 141.181
2.67764 -28.363001 141.157
2.6145799 -28.343901 141.076
2.5209701 -28.2649 141.09399
2.62485 -28.300699 141.15199
2.5335 -28.226999 141.166
2.39733 -28.1598 141.14101
2.27494 -28.073799 141.20799
2.4125099 -28.1308 141.201
2.2903299 -28.055599 141.252
2.1833701 -28.037001 141.285
2.1932499 -28.0289 141.30701
2.2924099 -28.459499 141.414
2.3545499 -28.438801 141.38901
2.28984 -28.4555 141.436
2.3336101 -28.431601 141.431
2.42749 -28.4207 141.356
2.50144 -28.404301 141.323
2.37695 -28.4034 141.42101
2.41869 -28.374399 141.411
2.58283 -28.365101 141.284
2.5783 -28.311701 141.274
2.4589901 -28.316799 141.409
2.44877 -28.261999 141.41499
2.53601 -28.249901 141.27
2.46664 -28.1751 141.272
2.4196501 -28.2013 141.412
2.3765199 -28.1383 141.401
2.3742299 -28.0973 141.28799
2.2776301 -28.040199 141.311
2.31833 -28.0755 141.39
2.25315 -28.032301 141.381
2.19368 -28.0226 141.336
2.1872699 -28.0184 141.37
2.2816 -28.448601 141.45799
2.3097501 -28.4212 141.47301
2.2694399 -28.4424 141.478
2.2865801 -28.410299 141.509
2.33476 -28.389299 141.48801
2.3583901 -28.3549 141.50301
2.30323 -28.375299 141.543
2.3205299 -28.3398 141.582
2.3804901 -28.288799 141.53799
2.3710499 -28.231001 141.55701
2.34389 -28.2771 141.655
2.3461299 -28.224199 141.696
2.3506899 -28.172001 141.554
2.3211501 -28.113501 141.53101
2.32968 -28.166201 141.696
2.3011701 -28.1059 141.659
2.28106 -28.061701 141.49699
2.2333 -28.024599 141.453
2.26354 -28.054001 141.599
2.2195499 -28.019501 141.522
2.1789 -28.0119 141.40601
2.1703701 -28.0091 141.439
2.2551301 -28.438 141.492
2.2654099 -28.403 141.533
2.23962 -28.4361 141.5
2.24402 -28.4002 141.54601
2.2769401 -28.365801 141.57899
2.2921 -28.3283 141.633
2.2506001 -28.361 141.595
2.2634201 -28.321501 141.657
2.3289499 -28.2707 141.745
2.34987 -28.2244 141.81599
2.3094599 -28.267401 141.795
2.3439 -28.230499 141.894
2.3363199 -28.1674 141.826
2.2999201 -28.1036 141.77901
2.3318801 -28.174 141.91499
2.2885699 -28.107201 141.86301
2.2556601 -28.054399 141.69299
2.2076001 -28.0196 141.584
2.23754 -28.0588 141.759
2.1874399 -28.023701 141.62601
2.1593599 -28.0093 141.468
2.1447999 -28.0124 141.48801
2.2226501 -28.4359 141.50101
2.2198801 -28.4006 141.54601
2.20541 -28.437 141.49699
2.1942301 -28.4049 141.536
2.2202899 -28.3624 141.595
2.2260301 -28.3239 141.655
2.1856999 -28.3692 141.578
2.18101 -28.333799 141.63
2.2646101 -28.271799 141.798
2.2970099 -28.236799 141.90601
2.1958799 -28.287399 141.757
2.21279 -28.2505 141.856
2.2833099 -28.1819 141.935
2.24014 -28.1161 141.886
2.1958399 -28.1973 141.888
2.1599901 -28.1343 141.84801
2.19327 -28.0674 141.78
2.1522901 -28.031401 141.64
2.12748 -28.0823 141.75301
2.10673 -28.044201 141.625
2.1247201 -28.017099 141.495
2.10232 -28.023701 141.49001
2.18893 -28.440701 141.485
2.1677201 -28.413 141.515
2.17588 -28.4457 141.468
2.14483 -28.423401 141.48599
2.1486499 -28.381901 141.54601
2.1303401 -28.350201 141.58501
2.1152999 -28.3979 141.504
2.0845201 -28.370899 141.52699
2.11358 -28.309 141.681
2.10776 -28.278 141.759
2.03842 -28.335501 141.58501
2.01142 -28.307899 141.63499
2.0873799 -28.225599 141.784
2.06336 -28.1621 141.757
1.98873 -28.259399 141.653
1.9768699 -28.194099 141.636
2.052 -28.105499 141.68401
2.0571699 -28.0599 141.582
1.9862 -28.1304 141.589
2.0146799 -28.0786 141.521
2.0794401 -28.0329 141.47099
2.0609 -28.044201 141.442
2.1674199 -28.451599 141.44901
2.1299601 -28.4361 141.45399
2.1248 -28.448099 141.422
2.0931301 -28.416599 141.459
2.05457 -28.396099 141.466
2.0432501 -28.4174 141.407
1.99059 -28.3666 141.489
1.952 -28.3398 141.51199
1.92856 -28.290199 141.521
1.92493 -28.2236 141.513
1.94601 -28.155199 141.48801
1.98919 -28.0958 141.451
1.93354 -28.177299 141.38901
1.9813 -28.1129 141.38
2.0492301 -28.0539 141.408
2.0460999 -28.062401 141.37199
0.294027 -25.420799 131.52699
0.50524902 -28.2833 130.901
0.96685499 -27.816401 130.91499
1.37424 -27.393801 130.966
1.6902699 -27.139099 131.07001
1.95926 -26.9594 131.16701
2.14169 -26.7472 131.257
2.23035 -26.536501 131.334
2.25102 -26.3216 131.407
2.20908 -26.107599 131.472
2.1021399 -25.9048 131.52901
1.91192 -25.7106 131.57899
1.64861 -25.576401 131.592
1.33437 -25.4911 131.58099
0.994672 -25.444401 131.56
0.64598799 -25.424999 131.54201
0.67600203 -25.3416 132.015
0.26294899 -25.3386 131.998
0.64601099 -28.4004 131.097
1.1891299 -27.7796 131.105
1.6654 -27.4118 131.19099
1.98449 -27.275499 131.28101
2.3088801 -27.078199 131.425
2.5176799 -26.830601 131.55499
2.5892899 -26.593901 131.659
2.60039 -26.347601 131.757
2.56264 -26.1036 131.855
2.46345 -25.868999 131.953
2.2375901 -25.6192 132.054
1.90538 -25.468599 132.088
1.50668 -25.3897 132.07001
1.0888 -25.355499 132.039
0.68261999 -25.6388 132.92999
0.25160101 -25.6346 132.916
0.66373301 -28.611799 131.427
1.25027 -27.9193 131.43401
1.74542 -27.5473 131.515
2.06423 -27.423201 131.605
2.4045 -27.2521 131.75999
2.62168 -26.991199 131.97099
2.68732 -26.769199 132.147
2.6951201 -26.5502 132.32899
2.6585701 -26.3347 132.504
2.56357 -26.129 132.675
2.3278201 -25.9095 132.85699
1.97524 -25.771601 132.938
1.55286 -25.6959 132.952
1.1137 -25.656 132.94501
0.68355399 -26.459299 133.707
0.27646101 -26.459299 133.666
0.67212099 -28.927299 131.726
1.2455 -28.262501 131.72
1.72929 -27.8936 131.799
2.0750301 -27.7686 131.912
2.3970499 -27.6276 132.095
2.60975 -27.440599 132.353
2.6882401 -27.2703 132.595
2.69753 -27.1033 132.832
2.6585901 -26.946699 133.064
2.55164 -26.8004 133.29401
2.31828 -26.6569 133.52499
1.97109 -26.560699 133.66
1.5541 -26.504299 133.711
1.11613 -26.4734 133.71899
0.676081 -27.4879 134.006
0.27438599 -27.4944 133.96001
0.66823202 -29.365999 131.92999
1.23651 -28.728701 131.939
1.7158099 -28.4716 132.041
2.0594499 -28.379801 132.15401
2.3775699 -28.2768 132.339
2.5875599 -28.152201 132.605
2.66398 -28.0338 132.86501
2.67237 -27.9053 133.114
2.63343 -27.794701 133.355
2.5267701 -27.693001 133.586
2.2961099 -27.598 133.813
1.95192 -27.535101 133.95
1.53883 -27.502001 134.005
1.1047601 -27.4897 134.01601
0.65122598 -28.675301 134.086
0.26361099 -28.685801 134.036
0.64607 -29.783199 132.097
1.19488 -29.534 132.16299
1.65771 -29.417601 132.29201
1.9884599 -29.3456 132.397
2.2955 -29.2635 132.55701
2.4971199 -29.1642 132.80099
2.56813 -29.056801 133.036
2.57532 -28.9673 133.27
2.5369899 -28.8757 133.49699
2.4348199 -28.7925 133.716
2.2119501 -28.723101 133.937
1.88004 -28.681999 134.05901
1.48162 -28.6681 134.099
1.06373 -28.667101 134.10001
0.60689902 -30.0487 134.047
0.237845 -30.064199 133.992
0.60415101 -30.774599 132.37
1.11043 -30.729601 132.41701
1.546 -30.695101 132.505
1.84439 -30.6362 132.567
2.1373601 -30.5627 132.70599
2.3269899 -30.4653 132.92999
2.3911099 -30.3664 133.14301
2.3986101 -30.268999 133.343
2.3641601 -30.190399 133.55
2.2727799 -30.1201 133.75
2.06428 -30.062099 133.951
1.75304 -30.0333 134.05
1.38008 -30.0296 134.07201
0.99004501 -30.0362 134.065
0.555659 -31.429199 133.91
0.155242 -31.452299 133.832
0.57957298 -31.876101 132.505
1.0154999 -31.875799 132.496
1.45189 -31.877899 132.522
1.65004 -31.868799 132.549
1.9684 -31.8295 132.668
2.14694 -31.743099 132.923
2.1760499 -31.6842 133.097
2.18204 -31.618401 133.293
2.1529901 -31.5592 133.48399
2.09693 -31.511299 133.653
1.89983 -31.4438 133.87
1.60566 -31.4224 133.935
1.25308 -31.4209 133.936
0.89210999 -31.4245 133.92101
0.193426 -25.8939 131.02499
0.41991401 -25.872 131.026
0.64431298 -25.85 131.026
0.86331302 -25.8426 131.022
1.0655299 -25.868799 131.011
1.2351 -25.944099 130.991
1.3579299 -26.0721 130.964
1.42654 -26.219 130.933
1.45351 -26.385099 130.89999
1.4406199 -26.567301 130.86501
1.38309 -26.764601 130.83
1.26535 -26.995199 130.793
1.09249 -27.229099 130.757
0.88905299 -27.4519 130.724
0.626616 -27.6926 130.69099
0.329124 -27.9097 130.673
0.50175101 -32.213902 133.817
0.158205 -32.227901 133.75
0.51908398 -32.547401 132.552
0.92352903 -32.554901 132.539
1.30484 -32.565102 132.554
1.50712 -32.563202 132.58
1.77968 -32.543598 132.689
1.94085 -32.485699 132.907
1.97533 -32.437801 133.07201
1.97982 -32.388699 133.25
1.95436 -32.342098 133.425
1.89652 -32.300598 133.582
1.72009 -32.248299 133.765
1.4552799 -32.2225 133.83099
1.13864 -32.213001 133.839
0.81271797 -32.2108 133.83099
0.44394699 -32.740898 133.758
0.16358399 -32.742699 133.745
0.450499 -33.010399 132.64
0.81687999 -33.017502 132.62801
1.1386 -33.024502 132.632
1.33934 -33.023701 132.657
1.5562 -33.008701 132.746
1.6925 -32.970001 132.91499
1.7326601 -32.932201 133.06599
1.73746 -32.893799 133.22099
1.71409 -32.856098 133.37601
1.65387 -32.819801 133.519
1.50289 -32.7784 133.66901
1.27763 -32.754601 133.739
1.0059299 -32.743599 133.75999
0.72194898 -32.740299 133.761
0.380743 -33.144402 133.674
0.16746201 -33.1455 133.675
0.37381101 -33.346298 132.804
0.68475401 -33.349701 132.793
0.939978 -33.3498 132.793
1.11374 -33.343498 132.811
1.2587399 -33.328499 132.869
1.35401 -33.304699 132.976
1.3935601 -33.278 133.093
1.40016 -33.248402 133.218
1.37769 -33.218399 133.343
1.3195699 -33.189098 133.45799
1.2048399 -33.162998 133.564
1.03857 -33.148201 133.627
0.83247697 -33.143398 133.658
0.607207 -33.143398 133.66901
0.293859 -33.457699 133.627
0.15605 -33.456299 133.634
0.246822 -33.612202 132.963
0.45352799 -33.6129 132.964
0.63026798 -33.6101 132.974
0.76836401 -33.6036 132.998
0.87710202 -33.591801 133.043
0.95199001 -33.576199 133.11
0.99153101 -33.557701 133.189
1.00052 -33.537498 133.274
0.98104799 -33.5172 133.35899
0.92982697 -33.497501 133.439
0.84415698 -33.480999 133.509
0.72852802 -33.469799 133.561
0.59042901 -33.4631 133.595
0.44094801 -33.459999 133.61301
0.144714 -33.683998 133.502
0.078791998 -33.683899 133.504
0.121927 -33.7579 133.187
0.22049899 -33.758202 133.188
0.30469501 -33.756802 133.192
0.37090501 -33.7537 133.203
0.42243299 -33.748402 133.22501
0.458092 -33.741001 133.255
0.476668 -33.7323 133.293
0.481462 -33.722698 133.33299
0.471876 -33.712601 133.373
0.447907 -33.7033 133.41
0.40656599 -33.695499 133.444
0.35173401 -33.690201 133.46899
0.28612599 -33.687 133.48599
0.21481501 -33.685299 133.495
0.034159001 -33.756401 133.414
0.049431 -33.7826 133.304
0.085391998 -33.7826 133.304
0.13969301 -33.781898 133.306
0.171141 -33.777199 133.325
0.179529 -33.770599 133.353
0.16723301 -33.763699 133.38
0.132459 -33.758999 133.401
0.083302997 -33.757401 133.411
0.196676 -26.014 130.871
0.37972999 -26.0182 130.867
0.55020499 -26.0334 130.86099
0.70630401 -26.063601 130.851
0.84443003 -26.1127 130.838
0.95918602 -26.184099 130.82201
1.04547 -26.2777 130.80099
1.0985 -26.393 130.778
1.11529 -26.5294 130.75301
1.09402 -26.681999 130.726
1.03321 -26.8475 130.69901
0.93314898 -27.0186 130.673
0.796233 -27.184299 130.64799
0.62576902 -27.3318 130.627
0.42862999 -27.447599 130.612
0.21351901 -27.524799 130.604
3.77619 -33.6549 134.66299
3.744 -33.5737 134.953
3.1112101 -34.437599 135.201
4.21559 -32.9146 134.56
4.1928101 -33.065701 134.323
4.4874902 -32.5103 134.157
4.3850298 -32.727299 134.058
4.4626899 -32.572201 133.923
4.6609602 -32.209599 133.791
4.5591602 -32.408298 133.733
4.6054401 -32.324799 133.595
4.77035 -31.985701 133.44
4.6501098 -32.1964 133.371
4.7529402 -31.8981 132.965
4.6301899 -32.1343 133.069
4.6533298 -31.942101 132.72701
4.5598898 -32.153702 132.88901
4.5009499 -32.075699 132.504
4.4418001 -32.235802 132.659
4.3296499 -32.254101 132.35201
4.3524499 -32.365002 132.62601
4.2684002 -32.5117 132.686
4.1633801 -32.5331 132.412
4.1642098 -32.675098 132.66299
4.0025401 -32.725399 132.321
4.0287099 -32.913399 132.66299
3.7403901 -33.193699 132.37801
3.80898 -33.313202 132.72
3.2413499 -33.999901 132.55299
3.40872 -34.061901 132.884
2.6276801 -34.853401 132.754
2.8487401 -34.9804 133.14799
4.7033401 -31.746201 134.44
4.5826402 -31.467501 134.88
4.0588198 -32.113899 135.588
4.3803201 -32.143501 134.99899
4.5231199 -32.345901 133.187
4.5486202 -32.356899 133.326
4.31317 -32.697601 133.41701
4.3853202 -32.443199 133.006
4.48352 -32.333599 133.039
4.2888598 -32.696499 133.325
0.25481799 -34.426899 129.748
0.14552601 -34.244598 129.541
0.29849899 -34.032101 129.289
0.190368 -34.041199 129.295
0.243506 -33.7467 128.94701
0.13428301 -33.881199 129.108
0.108043 -34.040298 129.298
0.081047997 -34.151001 129.425
0.074427001 -33.955101 129.19701
0.53330201 -34.715599 137.161
0.47771901 -34.4646 137.325
0.32860601 -34.444 137.362
0.35191199 -34.741798 137.173
0.60888797 -34.911598 137.05099
0.37999499 -34.943199 137.06
0.72400701 -35.116001 136.942
0.46335199 -35.184898 136.957
0.87739497 -35.801102 134.30099
0.61483097 -35.864101 134.36301
0.72809899 -35.695599 134.29201
0.63449901 -36.077301 134.502
0.955975 -36.003502 134.42799
0.334517 -35.258999 136.966
0.466225 -35.663399 136.561
0.67511302 -35.591499 136.569
0.81133097 -35.796001 136.24699
0.55768198 -35.883801 136.244
0.63102901 -36.086399 135.929
0.928828 -35.991699 135.92
1.0086401 -36.2229 134.623
0.67097503 -36.3186 134.703
0.68534702 -36.449699 134.914
1.0269099 -36.359699 134.843
0.68756598 -36.478699 135.08
1.02756 -36.3904 135.02
0.67950398 -36.359402 135.455
1.00365 -36.280499 135.424
1.39597 -34.5704 136.96201
1.37287 -34.479198 137.028
1.0127 -34.774899 137.045
2.8494201 -32.4557 137.181
2.88697 -32.398399 137.119
2.96768 -31.911699 137.384
1.73945 -34.214298 136.98801
1.74764 -34.282101 136.916
2.21561 -33.6763 136.908
2.20696 -33.6502 136.97501
2.5868599 -33.034599 136.981
2.55794 -33.047401 137.049
0.14420199 -34.943199 137.24001
0.15785 -35.113899 137.11501
0.26323199 -34.8447 137.19299
0.27920601 -35.0266 137.082
0.93357998 -34.619999 137.158
1.34885 -34.387501 137.138
3.0272601 -32.308498 136.992
2.6961901 -33.022598 136.869
3.28443 -32.180801 136.715
2.88024 -33.0373 136.655
3.33374 -32.4641 136.46201
3.8926201 -31.817801 135.96899
9.4522896 -23.476801 130.481
10.2791 -23.115101 134.11301
8.8397198 -25.630301 138.47501
8.1020298 -26.5739 139.46899
8.0440197 -26.823999 139.36
8.6725397 -25.9216 138.334
8.6539402 -25.6325 137.52299
8.1494503 -26.7934 138.108
7.8461399 -26.8167 136.849
8.5420599 -26.1348 138.272
7.9302902 -27.056801 139.314
0.36292699 -29.8144 143.063
0.741745 -29.910999 143.071
0.52612901 -30.169201 143.40401
1.68695 -29.9827 143.257
1.55609 -30.2598 143.56799
1.071 -30.112801 143.323
1.32925 -29.7777 143.02901
1.74379 -29.516701 142.924
1.4815201 -29.4062 142.737
1.73825 -29.145901 142.644
1.53101 -29.106001 142.487
2.63411 -22.1418 151.05299
3.0039401 -22.0853 150.97099
3.1127901 -20.8417 151.58099
2.93401 -23.3426 150.252
2.27635 -23.4554 150.41499
2.8466899 -24.151199 149.737
2.07149 -24.2866 149.90601
2.8126199 -24.538099 149.44901
2.0422299 -24.666599 149.61501
2.78139 -24.9251 149.12801
2.0183499 -25.0513 149.284
2.7563701 -25.228701 148.79401
1.99189 -25.370199 148.925
2.6856101 -25.7171 148.265
1.99259 -25.866699 148.36501
2.64135 -25.993601 147.942
1.9743299 -26.1371 148.033
2.6324999 -26.214899 147.675
1.96551 -26.3615 147.758
2.60726 -26.445801 147.42101
1.9520299 -26.591299 147.494
2.5738299 -26.710699 147.179
1.93812 -26.851101 147.23599
2.54496 -27.043301 146.90401
1.92715 -27.155001 146.95399
2.4992399 -27.3908 146.675
1.9323 -27.4883 146.709
2.4075699 -27.8335 146.41299
1.90843 -27.9165 146.42
2.3505199 -28.1022 146.272
1.88258 -28.184 146.27299
2.2961199 -28.4944 146.09599
1.82991 -28.6231 146.077
2.2191999 -29.2824 145.716
1.7684799 -29.5285 145.631
2.2112999 -29.897499 145.241
1.73242 -30.1479 145.043
2.23648 -30.2985 144.795
1.7667201 -30.429501 144.58701
2.27688 -30.4384 144.349
1.83241 -30.496901 144.15401
2.3378501 -30.361401 143.88699
1.92173 -30.3134 143.731
2.43173 -30.175699 143.521
2.0164499 -30.072001 143.384
2.5111401 -29.791401 143.241
2.0230401 -29.615299 143.07001
2.24457 -29.242701 142.883
2.00194 -29.208401 142.784
8.1025896 -22.193701 144.632
8.0874395 -22.326599 144.564
8.76929 -22.1035 143.37601
7.3813801 -22.614599 145.40601
7.3850598 -22.452299 145.53101
6.5107498 -23.194099 146.19
6.5278401 -23.031401 146.315
8.0072498 -23.0952 144.19901
8.6888304 -22.958 142.983
8.0767403 -22.5348 144.464
7.2950401 -23.2472 145.02499
7.3484402 -22.819201 145.265
6.4714899 -23.8242 145.74001
6.4906301 -23.471399 145.97701
8.1594296 -21.8244 144.77499
7.4008598 -22.135599 145.78101
9.1731195 -22.768499 141.946
4.73352 -22.782801 149.55701
4.8410101 -21.6901 150.151
4.0988998 -21.8769 150.575
4.00144 -23.0536 149.927
4.6427202 -23.4436 149.075
3.87708 -23.844 149.427
4.1939998 -20.648199 151.145
4.93537 -20.4592 150.791
6.8478599 -20.480801 148.226
7.0584102 -19.594601 148.603
5.8079801 -20.193899 150.035
5.7089601 -21.352501 149.39799
10.1981 -22.909599 135.49001
10.0786 -23.444799 135.48801
8.1473598 -19.209101 147.01801
7.8807602 -20.1224 146.78999
10.1404 -22.752899 136.173
10.1161 -22.069799 137.502
9.7974005 -23.540001 136.78999
10.0519 -21.6586 138.577
9.9122496 -23.0917 137.981
10.0403 -21.277399 139.61
9.9447298 -22.702499 138.98599
9.9624796 -20.8011 140.713
9.8993397 -22.294001 140.01801
9.7796698 -20.218599 141.81799
9.7551098 -21.7227 141.11301
9.5404596 -19.7817 142.783
9.4505301 -21.141701 142.347
9.2788696 -19.3958 143.91499
8.94242 -20.6448 143.798
8.8310604 -19.160601 145.25301
8.5225801 -20.136499 145.15601
3.3568001 -14.5782 153.70599
3.47913 -12.7506 154.174
1.7259901 -12.5882 154.718
1.80782 -14.4602 154.203
3.62449 -10.7878 154.183
1.83394 -10.5262 154.716
3.64346 -8.7627897 153.40601
2.0727701 -8.54848 153.83501
3.5796199 -7.0243001 151.65601
2.14502 -6.8796301 152.14999
3.5125599 -5.9656301 149.858
2.0785501 -5.6733699 150.342
3.38886 -4.0936599 144.187
1.8961 -3.8941 144.575
1.9086601 -4.75279 147.798
3.3701301 -5.0686302 147.524
3.23402 -2.96136 140.38
1.75744 -2.6670101 140.601
3.1133001 -2.5351701 137.446
1.62822 -2.2167499 137.672
1.45372 -21.0781 151.909
1.3388799 -22.2605 151.33099
3.2530701 -18.6618 152.34
1.7007999 -18.7812 152.786
3.23349 -16.086599 153.177
1.76615 -16.202 153.62801
9.9853201 -18.6458 136.424
9.9708099 -19.0366 136.26601
9.9502602 -18.608999 136.256
10.4898 -18.263 140.36
10.3675 -18.561701 140.284
10.385 -18.201599 140.314
9.9912701 -18.120199 136.321
10.0054 -18.1698 136.492
10.0533 -17.6504 136.537
10.0697 -17.7442 136.677
10.1914 -17.2726 137.05099
10.189 -17.3985 137.12199
10.331 -16.9069 137.85899
10.2966 -17.0303 137.879
10.4507 -16.8346 138.66901
10.41 -16.954201 138.66
10.5555 -16.937401 139.334
10.5046 -17.0511 139.286
10.5982 -17.2022 139.778
10.5172 -17.2785 139.711
10.5618 -17.7402 140.138
10.4559 -17.742201 140.064
9.8772497 -20.0877 137.84399
9.8453798 -20.2572 137.25301
9.8045902 -20.155701 137.472
9.8512897 -19.9634 137.85201
9.8637896 -20.0278 137.513
9.9231005 -19.866199 137.808
9.9995403 -19.902 137.46899
10.0664 -19.7547 137.72
10.0518 -19.7367 137.40401
10.1284 -19.5933 137.625
9.8914204 -19.5823 137.34801
9.96101 -19.453699 137.548
9.5660696 -19.4263 137.28999
9.5519199 -19.3197 137.44501
9.2411699 -19.104601 137.194
10.1768 -18.832899 138.616
10.1985 -19.1467 138.86501
9.9821301 -19.2094 138.584
9.9051704 -19.023399 138.345
9.9832802 -19.3876 138.39999
9.9307299 -19.2899 138.257
10.076 -19.517099 138.218
10.0859 -19.406401 138.125
9.9280005 -19.726999 138.825
9.9140997 -19.834299 138.52699
9.91605 -19.697599 138.48199
9.9144402 -19.5613 138.795
9.9871502 -19.621 138.369
9.9551601 -19.495701 138.584
9.9376802 -19.333799 138.088
9.9375296 -19.4513 136.209
10.0306 -19.432899 136.605
9.9500904 -19.625799 136.25
9.7964001 -19.7705 135.916
9.7678699 -19.4953 135.89101
9.5994997 -19.831301 135.737
9.5808201 -19.4608 135.707
9.3441496 -19.7962 135.672
9.3641901 -19.384001 135.634
9.2776299 -19.3843 135.985
9.2751904 -19.684999 135.955
9.2373695 -19.690001 135.97701
9.2123299 -19.4562 135.985
9.1842403 -19.633801 135.90601
9.2328796 -19.710501 135.743
9.2049599 -19.3297 135.703
9.2251501 -19.672501 135.86099
9.1918697 -19.325199 135.862
9.1324196 -19.6278 135.87399
9.1127901 -19.4291 135.955
9.1091299 -19.632299 135.825
9.0551701 -19.433901 135.896
9.1770201 -19.637699 135.60899
9.0935297 -19.436399 135.709
9.9498901 -20.0672 136.27901
9.9838104 -19.9006 136.63901
9.9767904 -20.032801 136.57401
9.8660402 -20.174 136.51199
9.8106604 -20.229401 136.15199
9.7081499 -20.2103 136.498
9.6226597 -20.2283 136.14
9.6501398 -20.2026 136.49699
9.54107 -20.2047 136.138
9.6255598 -20.229799 136.511
9.5182505 -20.241699 136.14799
9.6262398 -20.282 136.54601
9.1808004 -20.0702 134.94701
9.2897501 -19.8507 135.481
9.3827 -20.0944 135.629
9.7751102 -20.412201 136.38499
9.6560698 -20.3403 136.51401
9.7379503 -20.233 137.047
10.0787 -19.0732 140.467
9.9961205 -19.448601 139.772
9.9460402 -19.370199 139.61
9.9735899 -19.079901 140.12601
9.5441904 -20.3883 135.959
9.73734 -20.1763 136.883
9.9271898 -19.4471 139.239
9.9633999 -19.6057 139.289
9.1767702 -19.052299 134.77299
9.0226202 -18.2481 135.925
9.02425 -18.873899 135.795
10.5563 -19.1308 139.661
10.4069 -18.9695 139.629
10.5344 -18.992399 140.005
10.6722 -19.115299 140.03799
10.0526 -18.708599 136.752
10.0463 -18.264999 136.791
10.0389 -19.105801 136.67799
9.9836903 -19.768101 136.38699
9.9736004 -19.5851 136.735
9.9672098 -18.419001 138.35201
9.8918104 -18.270201 138.79201
10.012 -18.603001 139.049
10.135 -18.615801 138.687
10.2686 -18.802999 139.10001
9.1836996 -19.773899 135.78
9.32549 -20.0243 135.862
10.6556 -18.806499 140.282
10.7447 -18.895599 140.325
10.7177 -18.4202 140.355
10.7913 -18.4739 140.399
10.7417 -17.846399 140.15401
10.8005 -17.8568 140.203
10.7531 -17.274799 139.798
10.8049 -17.2603 139.834
10.6916 -16.986601 139.34801
10.7427 -16.951799 139.367
10.5864 -16.8333 138.66499
10.6419 -16.7784 138.66701
10.4485 -16.882799 137.827
10.4907 -16.8013 137.797
10.2853 -17.223499 137.00101
10.3328 -17.146601 136.951
9.9988298 -18.749001 140.396
9.9591103 -18.8062 140.25301
9.9902201 -18.458099 140.258
10.0146 -18.3255 140.397
9.9742098 -18.0466 140.099
10.0011 -17.868799 140.2
9.9059296 -17.597401 139.77699
9.9558201 -17.390699 139.828
9.8281002 -17.2348 139.373
9.8194599 -17.001499 139.354
9.6696196 -16.898399 138.70599
9.7044201 -16.679701 138.67
9.67311 -16.677799 138.052
9.7795 -16.497299 137.989
9.5052996 -16.783001 137.394
9.6373396 -16.6029 137.306
8.9695797 -18.891199 136.007
8.9284496 -18.2978 136.144
9.0542202 -17.6889 136.41901
9.1466398 -17.569799 136.244
9.3681898 -16.947001 136.696
9.2559996 -17.105499 136.83501
9.8098097 -20.135 137.217
9.3026896 -19.894699 135.916
9.9067297 -18.444799 139.737
9.7993202 -18.329201 139.33099
9.8485804 -17.943001 138.866
9.9678402 -18.0977 139.21001
10.0366 -19.3431 139.34
9.9504995 -19.3741 139.466
9.9366503 -19.4401 139.026
9.9755201 -18.863001 140.239
9.3267403 -20.0012 135.903
9.4514599 -20.090599 135.881
9.8822498 -19.839199 138.21899
9.88379 -19.9627 138.235
9.9692297 -19.753099 138.14301
9.9339199 -19.3734 139.522
9.96206 -19.229601 139.91901
9.9376802 -19.186899 139.968
10.0582 -19.2722 139.88901
10.0195 -18.9492 140.233
10.0567 -19.1229 140.265
10.0322 -19.0329 140.246
10.1117 -18.8988 140.461
10.102 -18.783001 140.38499
10.1671 -18.556101 140.564
10.1511 -18.4538 140.438
9.4808702 -19.168699 137.689
9.5930796 -19.1712 137.98199
9.9516497 -19.352699 137.826
9.70788 -19.299999 136.884
9.77248 -19.1985 136.88
9.4116602 -18.969101 136.882
9.39606 -18.720501 136.907
9.8050499 -18.978001 136.911
10.1184 -19.2152 140.237
9.9548903 -16.929001 138.062
9.9623804 -16.781 138.01401
9.92241 -17.1422 137.272
9.8377304 -17.203199 137.37399
9.9984903 -16.7638 138.799
9.9794197 -16.971399 138.783
10.0632 -17.169901 139.42101
10.0843 -16.924 139.481
10.1618 -17.235701 139.877
10.0881 -17.4349 139.80499
10.1632 -17.654499 140.14301
10.0862 -17.722099 140.011
10.124 -18.0896 140.226
10.1851 -18.096901 140.367
10.1037 -18.3454 140.313
10.0642 -18.671499 140.33
9.6362896 -17.005899 137.395
9.81071 -16.823999 138.05701
9.8612099 -17.0116 138.759
9.9946404 -17.299 139.41901
10.0126 -17.651501 139.841
10.0644 -18.1457 140.151
10.0235 -18.539101 140.27499
9.8369198 -16.941099 137.13499
9.8757401 -16.558701 137.94501
9.98452 -16.448601 137.875
9.9123201 -16.846399 137.028
10.2216 -16.513 137.81599
10.1102 -16.886299 136.93401
10.4237 -16.6654 137.787
10.2857 -17.0254 136.912
10.3898 -17.436899 137.88
10.2458 -17.7076 137.255
10.3068 -17.649401 137.88499
10.1035 -17.799601 137.368
10.1516 -17.67 137.871
9.9120998 -17.7344 137.50101
10.0092 -17.6359 137.834
9.8304796 -17.667 137.979
9.6638203 -17.7644 137.634
9.9443798 -16.4596 138.793
10.0903 -16.3386 138.774
10.381 -16.4277 138.733
10.5857 -16.6322 138.69
10.5216 -17.3624 138.55901
10.3383 -17.778099 138.297
10.1092 -17.7255 138.133
10.4973 -17.6826 138.41701
10.108 -16.6014 139.533
10.2623 -16.4863 139.528
10.4944 -16.5772 139.48399
10.6818 -16.795401 139.41901
10.5215 -17.416401 139.14301
10.5027 -17.756001 138.966
10.3644 -17.948 138.908
10.1784 -16.9827 139.972
10.3159 -16.876499 140.00999
10.5446 -16.954201 139.98599
10.7361 -17.129601 139.91
10.4581 -17.590401 139.535
10.3938 -17.8645 139.287
10.1739 -17.9098 138.636
10.1992 -17.528999 140.289
10.3333 -17.490499 140.379
10.5501 -17.590401 140.37801
10.737 -17.755899 140.29601
10.3655 -17.900999 139.884
10.2748 -18.133801 139.686
10.1416 -18.2117 139.459
9.9285297 -17.7663 138.461
10.2004 -18.105 140.534
10.3217 -18.184099 140.621
10.5315 -18.320299 140.61
10.7265 -18.438 140.504
10.3009 -18.171499 140.157
10.2723 -18.6964 140.632
10.4777 -18.8444 140.592
10.6723 -18.913799 140.44299
10.2523 -18.396999 140.05
10.0835 -18.518499 139.899
10.1974 -19.039301 140.494
10.3819 -19.1688 140.386
10.5947 -19.187 140.179
10.1275 -18.7512 140.02
9.7828903 -17.8887 138.362
9.6987896 -18.025 137.97301
10.2481 -19.303699 139.59399
10.3074 -19.296499 140.056
10.3931 -19.221399 139.343
10.5252 -19.2628 139.82001
10.4027 -19.013399 139.147
10.0092 -18.729401 139.62199
10.1079 -19.2878 139.112
9.9535999 -19.3375 138.80299
9.5507002 -18.128201 137.733
9.5507002 -17.8545 137.43401
9.3663797 -18.274 137.552
9.4007397 -18.025 137.246
9.6925402 -19.0833 138.15401
9.5002298 -18.6854 137.883
9.6910801 -18.5208 138.037
9.3682404 -18.9105 137.77499
10.1067 -19.630699 138.01401
10.1393 -19.4748 137.90601
9.8439903 -19.7104 137.175
9.9727898 -19.8615 137.192
9.9351397 -20.0249 137.22099
9.8984203 -20.0979 136.92999
9.97647 -19.936899 136.901
9.8836899 -19.774 137.004
9.8768597 -19.685499 136.886
9.7302704 -19.6513 137.008
9.4411697 -19.3598 136.981
9.5582104 -19.3493 136.923
9.2424202 -18.9632 136.96001
9.6750402 -20.1089 135.91299
9.8738203 -19.9659 136.04201
9.0519505 -18.9014 136.00999
9.1682596 -18.9172 135.987
9.25527 -18.900999 135.94099
9.2267599 -18.8276 135.79201
9.2717505 -18.768101 135.67799
9.4852104 -18.8344 135.631
9.7277298 -18.945299 135.724
9.8567495 -19.0453 135.88699
9.1688004 -18.6092 137.02299
9.2388496 -18.316999 137.10899
9.5021095 -18.4333 136.967
9.0542202 -18.3381 136.153
9.2223997 -18.395 136.11
9.2887402 -18.378799 136.026
9.2895498 -18.309401 135.826
9.3948603 -18.2726 135.65601
9.6310196 -18.3351 135.616
9.85324 -18.3944 135.73399
9.9166603 -18.546801 135.97301
9.21457 -17.816401 136.437
9.3891602 -17.952101 136.399
9.45434 -17.938 136.291
9.4081802 -17.822701 136.043
9.5308504 -17.7976 135.869
9.7749596 -17.8472 135.789
9.9560604 -17.927799 135.832
9.9939299 -17.9923 135.912
10.001 -18.068001 136.114
9.8580904 -18.6348 136.952
9.8604498 -18.208599 136.965
9.6215897 -18.070999 137.045
9.9708099 -17.949699 137.12
9.7687902 -17.8584 137.24001
9.4240303 -17.3472 136.85699
9.6203899 -17.5833 136.851
9.6861496 -17.552099 136.72501
9.5976896 -17.3668 136.493
9.6892996 -17.3118 136.338
9.9189301 -17.3556 136.239
10.0933 -17.4498 136.235
10.1348 -17.5308 136.29401
10.0963 -17.596001 136.414
10.1318 -17.9464 136.948
9.16366 -18.809 137.308
9.3825302 -19.344 137.091
9.1971598 -18.526501 137.41
9.6445799 -19.5758 137.147
9.3987398 -17.1299 135.487
9.6572399 -16.302099 135.994
10.1086 -18.5994 140.82899
10.1478 -17.223 140.505
10.1507 -17.9186 140.81
10.1515 -16.4604 139.95399
10.0455 -16.0613 139.20799
10.0124 -15.8772 138.57201
10.0035 -15.7463 137.75101
9.90907 -15.9154 136.946
10.0849 -20.3972 138.714
10.2243 -20.927 136.91701
10.1387 -20.6486 137.87801
10.0569 -19.318899 140.58299
10.033 -19.683001 139.838
10.0308 -19.816401 139.405
10.042 -20.1434 139.69701
10.0026 -19.622999 140.89101
10.0524 -19.0464 141.174
9.9598904 -18.3288 142.231
9.8498201 -19.252501 142.069
10.2862 -13.5093 141.631
10.3098 -15.1937 141.14
10.3623 -14.5696 140.27499
10.1567 -15.4988 142.545
10.1532 -16.284201 141.905
9.9885397 -16.690201 142.957
10.0703 -17.299999 142.216
9.8932695 -17.452499 143
9.7100296 -18.586399 143.054
9.9467001 -16.3748 143.985
10.109 -17.920099 141.55701
10.0713 -18.5154 141.48
9.8019304 -15.6129 145.464
9.02808 -14.5439 148.07001
8.7293301 -15.8474 148.032
9.5310001 -16.832399 145.50999
10.0369 -12.233 143.895
10.2144 -12.9189 142.37399
10.226 -11.2518 140.819
9.9432297 -10.6196 142.76401
10.0208 -14.1865 144.879
10.1524 -14.8631 143.418
9.6243696 -18.014 143.99899
1.47665 -2.24138 135.11301
1.40645 -2.10449 133.633
1.27915 -1.89539 132.62601
10.2908 -15.8377 140.879
4.69731 -14.633 153.108
4.7664099 -12.8777 153.433
5.0303702 -11.137 153.091
5.0258098 -9.1480799 152.42599
4.9574399 -7.33532 150.82401
4.9878201 -6.3299999 149.12199
5.9808302 -14.7506 152.08
6.0478702 -13.1119 152.065
6.3794398 -11.4813 151.7
6.3242602 -9.5392303 151.187
6.2128501 -7.7862902 149.694
6.3111401 -6.7182398 148.03799
7.65663 -15.188 149.98199
7.8589602 -13.7238 150.16
8.1393299 -12.0578 149.75301
8.0722704 -10.2465 149.161
7.9356999 -8.6193304 147.701
7.9767799 -7.5475898 145.936
9.3520203 -12.9956 147.384
9.4129496 -11.1412 146.42
9.35604 -9.5834398 145.41
9.1441698 -8.23559 144.007
10.0752 -9.1640797 140.40601
9.1224203 -6.6490698 140.97099
7.97054 -5.5911899 141.892
8.0481596 -7.13977 144.979
6.4834399 -4.8449502 142.808
6.4710999 -5.9498301 146.05701
4.9555602 -4.4311299 143.578
5.01408 -5.3865399 146.74001
10.2147 -21.072001 135.89
10.3764 -12.1149 134.42599
10.3728 -11.7034 136.114
10.1194 -14.1151 137.27499
9.9507904 -14.3661 135.87399
10.4309 -11.738 137.70799
10.2465 -14.3201 138.631
10.3949 -11.508 139.237
9.8777199 -14.9822 133.717
2.8927701 -2.6382201 134.89999
2.84303 -2.4707301 133.453
2.74295 -2.2653699 132.464
4.7754102 -3.34905 140.05
4.7555399 -3.0457101 137.2
4.5251298 -3.2033701 134.72099
4.3875098 -3.07389 133.257
4.3323302 -2.9528 132.23399
6.3654699 -3.86587 139.645
6.31777 -3.7128 136.97099
6.18922 -3.9435799 134.578
6.1472301 -3.92085 133.06799
7.9302802 -4.7020502 139.002
7.8758602 -4.6230202 136.638
7.8264098 -4.9548302 134.403
7.95891 -5.1238198 132.899
8.00319 -5.1307101 131.87601
9.2243404 -5.97366 138.39101
9.2425604 -6.0037198 136.36501
9.3617697 -6.37714 134.37399
9.5798597 -6.7742801 132.888
10.2667 -8.2235899 138.295
10.338 -8.0913801 136.528
10.4034 -8.4330502 134.745
10.4651 -8.8857698 133.29201
10.1788 -17.0166 141.38699
9.3071604 -17.8344 145.401
7.5753798 -15.7499 149.832
8.4516401 -17.6668 147.416
7.37111 -17.876101 149.162
6.0300202 -18.0375 150.938
5.12747 -18.275801 151.62199
4.3652701 -18.427799 151.981
5.9793 -15.7789 151.742
4.85181 -15.8639 152.55901
4.4618101 -15.9432 152.701
3.93046 -32.194599 133.474
3.9509001 -32.187199 133.412
4.0131698 -32.459 133.424
3.99986 -32.470402 133.446
3.95 -32.193501 133.345
4.0145602 -32.462799 133.40199
3.9298301 -32.227901 133.284
4.0030799 -32.483501 133.39
4.1000299 -32.687801 133.44501
4.0893998 -32.698502 133.453
4.0977898 -32.687099 133.44
4.0826402 -32.699299 133.444
4.2295098 -32.801399 133.446
4.2878799 -32.766201 133.492
4.2250199 -32.835999 133.48
4.2068601 -32.884499 133.51601
4.2693801 -32.832901 133.55099
4.2297301 -32.914001 133.619
4.17243 -32.962799 133.564
4.1060801 -33.097198 133.63901
4.1647201 -33.0494 133.714
3.9707201 -33.3787 133.767
4.0286598 -33.3223 133.86301
3.8167601 -33.4837 133.28
3.99523 -33.103298 133.248
3.9542601 -33.141701 133.418
3.7794299 -33.5205 133.465
6.57725 -26.738199 141.086
7.3460999 -26.398199 141.15199
7.3387098 -26.451599 141.211
6.5996299 -26.7787 141.16901
6.6371598 -26.711 140.992
7.3227401 -26.428499 141.101
8.6678104 -24.302999 141.472
8.0376997 -25.3885 141.39101
7.98489 -25.4508 141.27499
7.9602399 -25.5502 141.13
2.4603 -30.1527 139.967
3.0727301 -30.3545 139.31
3.08904 -30.238701 139.39101
7.5928402 -27.727699 138.245
7.5647302 -27.7036 138.076
3.10848 -30.2062 139.427
7.4741402 -27.76 137.827
5.8475599 -29.1756 131.311
5.6677198 -29.361799 131.42101
5.3533702 -29.706301 131.02499
5.4826999 -29.5271 130.827
4.9480801 -30.335199 130.69099
3.4428799 -32.136101 129.715
3.6164 -31.946899 129.799
3.4128399 -32.3825 130.32201
3.0007701 -31.3638 137.909
2.9665899 -31.527901 137.761
3.0415001 -31.527599 137.55
3.12345 -31.333599 137.64
3.81071 -32.267899 131.147
3.8403399 -32.286701 131.25101
3.30089 -33.012402 131.34399
3.7732601 -32.260399 131.037
3.15274 -31.4617 137.343
3.21608 -31.275299 137.435
6.7466698 -27.5366 139.952
6.8285699 -27.371799 140.069
6.6371298 -27.5499 139.993
6.8403502 -27.547899 139.95
3.12623 -29.379101 139.922
3.12903 -29.390699 140.02499
2.4518399 -29.295601 140.29401
6.2423801 -28.2939 139.851
6.4046302 -28.3088 139.726
3.13869 -29.452299 139.886
6.56423 -28.3783 139.63901
2.30619 -29.5282 140.314
2.33916 -29.4245 140.341
1.7883199 -29.2694 140.71201
7.4849901 -27.502701 139.63
7.5637002 -27.4783 139.38901
7.7098799 -27.1591 139.592
5.6310301 -27.416599 140.845
5.6550899 -27.3549 140.929
5.4537501 -27.601999 140.99899
5.5618701 -27.5693 140.77499
6.0464802 -27.032 140.842
6.0293102 -27.001101 140.91499
5.68611 -27.2626 141.08
8.9735603 -25.0951 139.705
8.0683002 -25.941799 140.158
8.1264601 -26.0016 140.004
8.2341404 -26.0886 139.894
6.0160699 -27.148001 140.782
5.37151 -27.989 140.56799
5.2586298 -27.9858 140.702
1.8384 -28.811701 140.914
2.34763 -28.893499 140.661
2.3599 -28.767599 140.73599
1.91843 -28.6647 140.98599
3.0450101 -28.920601 140.481
2.9396901 -28.840799 140.589
3.7337601 -28.895599 140.34801
3.7358301 -28.8186 140.46001
3.1444399 -28.8536 140.562
4.3436999 -28.6747 140.334
4.2939801 -28.617201 140.452
5.1714401 -28.153999 140.467
5.0350099 -28.182899 140.59399
4.7795601 -28.428499 140.388
4.6979699 -28.393499 140.509
2.55391 -28.6544 142.52
2.56815 -28.732201 142.595
2.29917 -28.6562 142.451
5.4363899 -27.753201 142.106
5.23564 -27.952299 142.284
5.10987 -27.9935 142.271
5.2983098 -27.818001 142.10699
4.9909201 -28.151199 142.435
4.8678298 -28.169201 142.41
4.6443 -28.373699 142.589
4.5472999 -28.3437 142.543
4.2319899 -28.5821 142.701
4.1561599 -28.5228 142.64
2.9354 -28.774401 142.696
2.90804 -28.6887 142.62199
3.37463 -28.7705 142.741
3.31689 -28.6998 142.673
3.7943699 -28.7253 142.748
3.73527 -28.65 142.683
5.1575599 -27.922899 142.095
5.2965498 -27.742001 141.92
5.3859401 -27.6661 141.94701
5.2307601 -27.8573 142.105
3.4040899 -31.432199 131.70399
3.41874 -31.756001 131.939
3.54022 -31.478001 132.14999
3.27036 -32.0602 131.924
3.1693699 -31.3951 131.507
2.97103 -32.403801 131.91
2.7959001 -31.530899 131.286
2.40538 -32.913101 131.771
2.2783999 -31.6257 131.048
1.99019 -33.2388 131.562
1.9365799 -31.6511 130.938
1.32611 -33.633801 131.472
1.40923 -31.754 130.742
0.66016299 -33.7197 131.492
0.72852701 -31.8139 130.616
0.235983 -33.801201 131.502
0.134587 -31.8099 130.608
2.9587801 -25.7286 132.203
2.95557 -25.7623 132.05099
3.2396901 -26.022699 132.207
3.2855101 -25.971399 132.45399
2.9227901 -25.798599 131.88499
3.2157199 -26.080601 131.92799
2.88095 -25.837601 131.713
3.15259 -26.145 131.638
2.7857101 -25.894899 131.468
3.079 -26.237 131.24899
2.50349 -25.9555 131.211
2.7665401 -26.328899 130.869
2.20663 -25.9758 131.116
2.44555 -26.356701 130.759
1.90312 -25.986401 131.06799
2.10373 -26.3706 130.69501
1.59744 -25.992599 131.037
1.76636 -26.380699 130.645
1.27842 -25.993999 131.022
1.4156899 -26.384399 130.62199
0.91785997 -25.9914 131.02
1.02259 -26.3776 130.621
0.43959001 -25.9863 131.021
0.50142801 -26.3657 130.62
0.49334201 -25.471399 133.272
0.62625599 -25.545601 134.3
1.06723 -25.4725 133.269
1.31986 -25.5382 134.334
1.50642 -25.476299 133.252
1.85052 -25.5452 134.319
1.86903 -25.491301 133.192
2.2332799 -25.5839 134.17599
2.15239 -25.532301 133.028
2.5518899 -25.653099 133.903
2.39817 -25.5849 132.804
2.7844901 -25.741899 133.50999
2.60061 -25.6332 132.59399
2.94152 -25.8218 133.136
2.7957499 -25.670099 132.44701
3.1336401 -25.881599 132.868
2.8980401 -25.703899 132.30701
3.2306199 -25.9326 132.627
3.7874701 -26.575701 132.44099
3.7911799 -26.513599 132.757
3.75595 -26.638599 132.103
3.66872 -26.7096 131.745
3.5793099 -26.812401 131.272
3.2965 -26.918501 130.80499
2.9419601 -26.957701 130.638
2.5441301 -26.9757 130.549
2.1459401 -26.9863 130.485
1.73657 -26.989799 130.45599
1.27635 -26.9795 130.453
0.66724598 -26.9604 130.451
0.88090599 -25.917999 135.214
1.7353801 -25.910999 135.271
2.36484 -25.943501 135.17799
2.83952 -26.008801 134.94901
3.2151301 -26.1012 134.597
3.45332 -26.213699 134.138
3.5768499 -26.311399 133.707
3.7161801 -26.394199 133.32899
3.81444 -26.463499 133.002
4.02807 -28.011801 132.664
4.0802002 -27.9319 133.073
3.96311 -28.086901 132.243
3.80425 -28.1604 131.82899
3.62481 -28.249701 131.29401
3.24998 -28.372299 130.793
2.8996501 -28.4072 130.617
2.53565 -28.427099 130.52699
2.1521299 -28.437 130.46201
1.7361799 -28.430401 130.431
1.27195 -28.4077 130.425
0.66061401 -28.390301 130.424
0.82626402 -27.280701 135.782
1.64671 -27.2771 135.838
2.27038 -27.327801 135.722
2.69558 -27.4083 135.463
3.04861 -27.5019 135.11501
3.31025 -27.615801 134.66701
3.5118899 -27.7152 134.25101
3.8064001 -27.806 133.841
3.9964001 -27.8666 133.401
4.03824 -29.7644 132.936
4.04282 -29.7183 133.37199
4.00388 -29.866199 132.508
3.8794 -29.9046 132.08099
3.7025001 -29.9851 131.53999
3.30601 -30.062901 131.02499
2.99246 -30.096201 130.867
2.6266301 -30.1127 130.791
2.22807 -30.124599 130.73199
1.7891999 -30.104601 130.686
1.29953 -30.099501 130.633
0.66944402 -30.066099 130.617
0.69531298 -29.064899 135.76801
1.40449 -29.072599 135.812
1.95976 -29.0905 135.778
2.44243 -29.1367 135.672
2.8539801 -29.2138 135.452
3.2620001 -29.301701 135.10699
3.56339 -29.402901 134.711
3.8422401 -29.5214 134.22301
3.97387 -29.633699 133.722
3.79884 -30.9366 133.66
3.8106599 -30.948099 133.46201
3.8262701 -30.975901 133.22099
3.8347099 -31.0469 132.925
3.6963301 -31.2101 132.562
0.21505401 -33.058498 135.80499
0.63710898 -32.973 135.798
1.2603101 -32.8064 135.745
1.8381799 -32.537899 135.563
2.25459 -32.2066 135.362
2.7736399 -31.892401 135.02901
3.1036301 -31.6068 134.789
3.3092999 -31.3706 134.614
3.5839901 -31.1747 134.384
3.7309799 -30.992901 133.98399
3.9446101 -31.8573 133.41
3.9179499 -31.872299 133.537
3.9442899 -31.868999 133.299
3.90903 -31.9452 133.14999
3.83412 -32.035099 133
3.7198801 -32.140999 132.85899
3.57148 -32.314499 132.776
3.47368 -32.577599 132.70599
3.1073101 -33.083698 132.737
2.5506201 -33.854198 132.838
1.95674 -34.5513 132.94
1.38578 -35.018501 132.95399
0.712762 -35.2393 132.965
0.25210601 -35.308102 132.925
0.214947 -34.263 135.48199
0.63641 -34.153 135.43401
1.26361 -33.900799 135.379
1.80539 -33.471802 135.17101
2.48476 -33.073799 134.77499
2.98722 -32.647999 134.455
3.2899899 -32.255402 134.302
3.53737 -32.056801 134.133
3.7600701 -31.958401 133.85699
3.8743601 -31.906 133.64301
3.8870399 -32.277401 133.242
3.80779 -32.357601 133.23399
3.6431999 -32.494999 133.26601
3.37095 -32.802502 133.377
2.9633701 -33.343399 133.569
2.5065601 -34.0914 133.789
1.8859299 -34.799198 133.993
1.31726 -35.230301 134.108
0.73183203 -35.483501 134.17
0.29061401 -35.577702 134.18401
0.26990899 -35.171501 134.933
0.688631 -35.0336 134.86099
1.26327 -34.757301 134.74699
1.88367 -34.3326 134.623
2.56359 -33.784698 134.12
3.0560501 -33.182999 133.96899
3.4033501 -32.678101 133.823
3.6244199 -32.394199 133.7
3.80389 -32.274899 133.595
3.8894701 -32.218899 133.52299
0.75403202 -35.716202 134.416
0.30652899 -35.8181 134.45
0.71659499 -35.479198 134.343
0.291906 -35.5839 134.381
1.29401 -35.212399 134.24699
1.94103 -34.8391 134.09599
2.6470101 -34.0793 133.882
3.0987699 -33.483299 133.76801
3.4572201 -32.966 133.64101
3.7239599 -32.682301 133.552
3.8889599 -32.546299 133.494
3.9637001 -32.494999 133.465
3.9707699 -32.515999 133.392
3.8987401 -32.582001 133.41901
3.7277601 -32.742401 133.489
3.42415 -33.0634 133.61501
3.0322499 -33.617298 133.802
2.56357 -34.5382 134.04401
1.9266599 -35.132801 134.22501
1.3492 -35.5392 134.347
0.296368 -35.768902 134.35201
1.32873 -35.415401 134.17
2.0011799 -35.041599 134.01401
2.72665 -34.278 133.80901
3.1807001 -33.659401 133.69099
3.5434899 -33.1707 133.584
3.81691 -32.903198 133.517
3.98716 -32.7789 133.483
4.06148 -32.724098 133.464
4.0440898 -32.728001 133.459
3.9537499 -32.797401 133.49699
3.7688999 -32.959801 133.57401
3.49526 -33.2999 133.702
3.12309 -33.924198 133.89101
2.61288 -34.754002 134.108
1.9764 -35.388401 134.30299
1.3682801 -35.798 134.453
0.76272702 -35.958199 134.534
0.312374 -36.099499 134.58299
4.9228702 -31.476801 133.761
4.9450798 -31.3685 133.006
4.9323502 -31.1796 134.03
5.0008702 -30.983601 133.084
4.78615 -31.5172 132.367
4.8954601 -31.400999 132.69901
4.3397999 -32.458801 132.83701
4.1841798 -32.813 133.254
4.2416501 -32.6604 132.98199
4.2377701 -32.743 133.284
4.44419 -32.587898 133.649
4.4759798 -32.509701 133.506
4.1463099 -32.7836 133.451
4.1497502 -32.7887 133.45399
4.1742101 -32.818401 133.452
4.17835 -32.820999 133.455
4.1922698 -32.824799 133.444
4.2241902 -32.806801 133.41701
4.1981802 -32.826801 133.45399
4.1897898 -32.849602 133.47
4.1682301 -32.839199 133.464
4.1395602 -32.8027 133.46001
4.1242399 -32.795799 133.459
4.14712 -32.835499 133.459
4.1693301 -32.847099 133.44501
4.1993499 -32.841202 133.40199
4.07621 -32.8232 133.47701
4.11203 -32.831299 133.47099
4.1700602 -32.891899 133.492
4.1433101 -32.8741 133.478
4.09586 -32.8713 133.478
4.1173201 -32.881001 133.45399
4.0936699 -32.940701 133.50101
3.99628 -33.09 133.543
3.9131801 -33.025902 133.522
4.0522099 -32.8895 133.49001
3.8092501 -33.077999 133.59599
3.9784501 -32.893002 133.51601
4.03019 -32.962898 133.48
4.0033998 -32.945 133.513
3.8979399 -33.142601 133.52901
3.8487301 -33.1348 133.584
4.3758101 -32.7145 133.783
4.12995 -32.966099 133.524
4.15521 -32.8894 133.395
4.0721102 -32.976299 133.39999
4.1147599 -32.924801 133.245
4.1494098 -32.814701 132.964
4.19735 -32.1152 131.786
3.9284201 -32.430099 131.72099
4.1672101 -31.991199 131.439
3.8801799 -32.377602 131.47701
3.7934501 -33.380001 133.612
3.66524 -33.3055 133.575
3.5848 -33.454899 133.71899
3.7105701 -33.5369 133.61301
3.6479499 -33.538101 133.69701
3.4079399 -34.237099 133.75101
3.3327401 -34.2047 133.855
2.80634 -35.075802 133.92599
2.73892 -35.027599 134.056
2.14431 -35.802799 134.105
2.0938101 -35.721001 134.244
1.48505 -36.298901 134.289
1.45023 -36.1852 134.422
0.836923 -36.587101 134.442
0.80743301 -36.445702 134.564
0.36689001 -36.677399 134.481
0.346019 -36.5425 134.60201
3.3071799 -33.801998 133.67999
3.4418099 -33.894501 133.72301
2.8248 -34.445801 133.814
2.9261899 -34.575001 133.882
2.08163 -35.201599 134.02499
2.16645 -35.344501 134.11
1.40396 -35.5807 134.185
1.47864 -35.770401 134.287
0.28386199 -35.914501 134.408
0.302591 -36.122299 134.55099
4.0447001 -33.0345 132.972
4.2993898 -32.870701 133.911
3.58565 -33.140301 132.047
3.8466301 -33.394402 133.005
4.14465 -33.1703 134.127
4.0490899 -33.112301 133.58
3.2233 -34.101002 133.89799
2.6693499 -34.924198 134.112
2.03214 -35.578201 134.30499
1.39925 -36.005699 134.47701
0.77942002 -36.2216 134.591
0.32398301 -36.3423 134.634
0.37191799 -36.726898 134.27699
0.36598 -36.694401 134.05901
0.847808 -36.639 134.23599
0.84719801 -36.595901 134.005
1.49792 -36.348598 134.07899
1.4995199 -36.340698 133.854
2.1742101 -35.845798 133.894
2.16834 -35.840099 133.666
2.8671 -35.094601 133.72099
2.8980701 -35.074501 133.495
3.4830401 -34.239899 133.57401
3.50896 -34.235001 133.38
3.6879201 -33.924 133.94501
3.7405901 -33.8778 134.077
3.1121399 -34.674198 134.15401
3.1688299 -34.645901 134.298
2.32585 -35.515202 134.42101
2.3701601 -35.518398 134.57401
1.60639 -36.0909 134.66901
1.62321 -36.1143 134.84
0.33867201 -36.472198 134.925
0.34599501 -36.501499 135.076
0.191899 -32.817101 128.20399
0.242616 -33.366798 128.589
0.28198901 -34.797901 130.34599
0.25497401 -35.1157 130.909
0.242606 -35.3386 131.368
0.242809 -35.514099 131.92
0.261002 -35.663399 132.19501
0.28573701 -35.909801 132.547
0.31433499 -36.162201 132.927
0.354105 -36.5755 133.75301
6.7972398 -27.5777 129.332
7.3452001 -27.621201 130.95
6.3972001 -28.6078 130.573
5.9415102 -28.7346 129.834
2.40956 -34.120899 136.437
3.4105 -32.823898 136.14101
0.26051599 -35.714199 136.521
