# .PCD v.7 - Point Cloud Data file format
VERSION .7
FIELDS x y z
SIZE 4 4 4
TYPE F F F
COUNT 1 1 1
WIDTH 1625
HEIGHT 1
VIEWPOINT 0 0 0 1 0 0 0
POINTS 1625
DATA ascii
-1.51239 -24.912201 78.265404
-1.07627 -24.568399 77.811203
-3.3271201 -26.883699 75.951103
-3.0049801 -29.9802 74.472397
-3.45314 -28.577101 75.232101
-2.4339199 -26.3193 76.266602
-3.71456 -27.3542 76.615799
3.00509 -29.9802 74.472397
2.43402 -26.3193 76.266602
3.7146399 -27.3542 76.615799
3.4532399 -28.577101 75.232101
3.3271999 -26.883699 75.951103
0.62551898 -24.755899 78.324997
1.51248 -24.912201 78.265404
1.07636 -24.568399 77.811203
-2.0146401 -24.678699 78.113098
-1.6769201 -30.3179 74.345398
-3.0611899 -24.5809 76.683899
1.6770101 -30.3179 74.345398
3.06129 -24.5779 76.6772
2.01473 -24.6663 78.106003
-2.8589201 -29.690399 74.356201
2.859 -29.690399 74.356201
-1.25934 -32.010502 74.287498
-3.5508201 -28.0289 75.357597
1.2592 -32.010502 74.286499
3.5509 -28.0289 75.357697
-0.66752899 -32.241199 74.691704
-2.33811 -30.6488 76.076698
-2.6833799 -25.6052 76.318604
-0.98977101 -32.106499 73.417999
-0.743415 -32.1992 73.430901
0.98984402 -32.1059 73.418404
2.68349 -25.6052 76.318604
0.66762102 -32.241199 74.691704
0.743514 -32.199001 73.430901
2.3382001 -30.6488 76.076698
-2.6545401 -29.2561 74.526497
-2.4475701 -31.327101 73.896698
2.4476399 -31.327101 73.896698
2.65464 -29.2561 74.526497
-3.6001 -24.8934 78.035301
-2.76668 -29.143101 76.653702
-2.3815401 -30.9888 73.971802
-1.6792099 -29.6551 75.250198
4.6000001e-05 -29.6327 75.9674
1.6793 -29.6551 75.250198
2.3816299 -30.988899 73.971802
3.6001999 -24.8783 78.0252
2.7667799 -29.143101 76.653702
-2.4276099 -29.5268 74.352898
-1.68154 -31.818001 74.562698
-0.72493201 -31.990299 73.413498
-1.96857 -31.168501 73.621002
-2.44647 -30.592699 73.896301
-3.6150701 -27.4132 75.796898
-3.24051 -29.7635 75.303802
2.4277 -29.5268 74.352898
2.4461999 -30.5919 73.8965
1.6817501 -31.818001 74.562698
3.2405901 -29.7635 75.303802
3.61517 -27.4132 75.796898
0.72502398 -31.990299 73.413498
1.96866 -31.168501 73.621002
-2.35498 -30.833401 75.688904
-2.7681401 -30.433001 74.336403
-1.4598 -30.8652 73.6437
-0.598593 -32.2854 73.528099
-2.67468 -24.8596 76.544998
0.59868598 -32.2854 73.528099
2.6747601 -24.8596 76.544998
1.4599 -30.8652 73.6437
2.76824 -30.433001 74.336403
2.3550701 -30.833401 75.688904
-2.08969 -30.006901 74.132698
-3.78949 -26.5401 77.2444
-1.49165 -30.833401 76.006699
-1.2923501 -32.028599 73.590401
-0.12931301 -32.322601 73.547096
-1.34348 -28.625601 76.334999
-3.37589 -25.8018 75.842003
-2.61096 -25.3592 76.396004
-1.8701 -31.669901 74.140701
-1.43373 -31.9582 74.424698
3.3759899 -25.8018 75.842003
2.6110401 -25.3592 76.396004
3.7895899 -26.5401 77.2444
0.12940601 -32.322601 73.547096
1.4338599 -31.9582 74.424698
1.87019 -31.669901 74.140701
1.29249 -32.028599 73.590401
2.0897801 -30.006901 74.132698
1.34357 -28.625601 76.334999
1.49175 -30.833401 76.006699
-1.26384 -31.9785 73.531403
-3.6301701 -24.9382 76.694801
3.63027 -24.925501 76.6772
1.2639199 -31.9785 73.531403
-2.2239299 -30.576599 74.038498
-0.20493899 -24.755899 78.324997
-3.0228801 -29.687099 76.2071
-1.20613 -31.999201 74.667198
-2.6106 -30.557199 76.112099
-1.24772 -31.8589 73.557198
-3.1134901 -24.6415 76.516098
-1.72519 -29.289 75.678101
0.20502999 -24.755899 78.324997
1.72528 -29.289 75.678101
1.20631 -31.9991 74.666496
3.11359 -24.6415 76.516098
2.22402 -30.576599 74.038498
1.2479 -31.858601 73.5578
3.02298 -29.687099 76.2071
2.6106801 -30.557199 76.112099
-2.5313001 -24.912201 78.265404
-1.52141 -31.5319 75.740402
-3.0151801 -26.9757 75.317001
-1.44542 -31.212 73.541397
-0.462796 -32.202599 73.590797
-3.59676 -28.4806 76.178802
3.5968599 -28.4806 76.178802
0.46288899 -32.202599 73.590797
1.44551 -31.212 73.541397
3.01525 -26.9757 75.317001
2.5314 -24.912201 78.265404
1.5215 -31.5319 75.740402
-3.1440699 -26.573999 76.260803
-0.349545 -31.005501 73.373802
-3.7980001 -26.044901 76.5252
3.14417 -26.573999 76.260803
0.349637 -31.005501 73.373802
3.7981 -26.044901 76.5252
-3.49718 -28.4037 76.6968
-0.22627901 -30.979799 75.950897
-2.3596699 -30.9384 75.966698
-2.74352 -24.755899 78.324997
-1.37327 -31.8435 73.528
-0.17804299 -30.8319 73.8144
-1.76246 -29.5292 75.295097
0.22637101 -30.979799 75.950897
0.17813499 -30.8319 73.8144
1.76255 -29.5292 75.295097
1.37336 -31.843399 73.528
2.7435901 -24.755899 78.324997
3.4972501 -28.4037 76.6968
2.35976 -30.9384 75.966698
-1.4417599 -29.528799 75.544601
-2.2442701 -28.729 74.840202
-3.5725501 -27.3118 75.686096
-2.15364 -31.4729 74.010201
-1.32399 -30.039499 75.058098
1.4418499 -29.528999 75.545097
1.32408 -30.039499 75.058098
2.1537299 -31.4729 74.010201
3.5726199 -27.3118 75.686096
2.24436 -28.729 74.840202
-2.05251 -24.6061 77.835297
-3.5403099 -28.2111 76.665901
-2.4563701 -29.552099 76.497498
-3.1670899 -26.9023 75.976799
-3.4456301 -28.2328 75.2062
-2.8526101 -30.3564 74.708397
-2.31761 -25.975901 77.162003
2.3176999 -25.975201 77.158897
3.54039 -28.2111 76.665901
2.85271 -30.3564 74.708397
3.44573 -28.2328 75.2062
3.16717 -26.9023 75.976799
2.45645 -29.552099 76.497498
2.0525999 -24.5662 77.809502
-0.137619 -32.311298 73.788902
-2.45135 -28.2754 74.794197
-1.95559 -30.882601 73.863403
-2.43242 -25.511801 77.218597
-2.9067199 -30.1094 74.446404
2.90679 -30.1094 74.446404
2.4325099 -25.502399 77.190697
0.137711 -32.311298 73.788902
2.50614 -31.0371 74.429398
2.4514501 -28.2754 74.794197
1.95568 -30.882601 73.863403
-1.97664 -30.1036 74.141899
-2.4837301 -30.4321 76.159698
-3.16646 -29.4419 74.758598
-3.0488999 -29.649599 75.655098
-1.87818 -29.128 75.628403
3.049 -29.649599 75.655098
1.87827 -29.128 75.628403
1.97673 -30.1036 74.141899
3.1665599 -29.4419 74.758598
2.4838099 -30.4321 76.159698
-0.85956901 -24.568501 77.811203
-2.2961199 -30.7768 74.033501
-1.19883 -30.9499 73.497597
-3.13517 -29.254999 74.685898
1.19892 -30.9499 73.497597
2.2962101 -30.7768 74.033501
3.1352701 -29.254999 74.685898
0.85965902 -24.5905 77.826599
-2.36149 -24.912201 78.265404
-1.99009 -29.943001 74.195
-2.6355901 -27.318399 75.4161
-0.80439401 -31.993 73.222397
-2.4635401 -31.2285 73.849197
-3.29267 -29.357 75.017799
1.99018 -29.943001 74.195
0.80448902 -31.993 73.222504
2.46364 -31.2285 73.849197
3.2927401 -29.357 75.017799
2.63569 -27.318399 75.4161
2.3615799 -24.912201 78.265404
-0.64226103 -24.568501 77.811203
-2.8066199 -25.820999 76.187202
-3.0632401 -26.865499 75.989304
-1.1278 -32.089802 73.588501
-0.26118499 -31.694901 73.446701
1.12783 -32.089802 73.588501
2.80672 -25.820999 76.187202
0.26127699 -31.694901 73.446701
3.0633199 -26.865499 75.989304
0.64235198 -24.6178 77.853104
-1.00353 -31.976101 73.323898
-3.08009 -29.7803 74.628502
1.00359 -31.976101 73.323898
3.0801899 -29.7803 74.628502
-2.8978701 -27.9303 75.562897
-2.8828199 -29.0847 74.908699
-0.90928698 -32.135399 73.411301
0.90937698 -32.1348 73.411499
2.8979399 -27.9303 75.562897
2.8829 -29.0847 74.908699
-3.0229101 -28.290701 76.976097
-0.227781 -30.014799 75.789299
-1.20902 -32.0732 73.871597
-2.4592199 -30.908199 73.956596
-3.6838801 -26.4669 76.210297
-3.3713801 -25.832001 75.835503
-2.1561999 -28.6924 74.862396
-3.0555601 -29.6737 74.540901
-0.59944201 -31.096901 73.345497
-1.8670599 -29.489799 74.622398
1.20902 -32.0732 73.871399
0.227873 -30.014799 75.789299
0.59953398 -31.096901 73.345497
1.8671499 -29.489799 74.622398
2.1562901 -28.6924 74.862396
3.68396 -26.4669 76.210297
3.05566 -29.6737 74.540901
2.4593201 -30.908501 73.956596
3.37148 -25.832001 75.835503
3.02301 -28.290701 76.976097
-3.77354 -25.4914 76.4375
-2.4744401 -28.2911 76.976303
-3.78737 -25.2964 76.606903
3.7874501 -25.295099 76.603104
3.7736199 -25.4914 76.4375
2.47454 -28.2911 76.976303
-0.85175401 -24.912201 78.265404
-3.3639901 -28.456699 74.953796
-0.061487 -32.1534 73.199898
-1.6368901 -30.778999 73.783997
-3.2448001 -29.499701 74.930496
-2.72457 -24.877899 76.497002
4.6000001e-05 -30.9876 75.947899
0.061579 -32.1534 73.199898
2.7246699 -24.877899 76.497002
1.6369801 -30.778999 73.783997
3.24488 -29.499701 74.930496
3.36409 -28.456699 74.953796
0.85184401 -24.912201 78.265404
-0.208547 -24.590799 77.826897
-3.50898 -28.313601 75.209602
-2.09549 -28.898199 74.751503
-0.464701 -32.3549 73.542801
-2.50126 -31.0364 74.4291
-2.67348 -30.547899 74.881401
-1.79643 -29.5389 75.0578
1.79652 -29.5389 75.0578
2.6735599 -30.547899 74.881401
0.464793 -32.3549 73.542801
3.5090499 -28.313601 75.209602
2.0955801 -28.898199 74.751503
0.208636 -24.6126 77.849098
-2.51509 -26.426901 75.895203
-2.1970799 -29.129601 74.328697
-3.57374 -27.7645 76.834602
-2.6888001 -30.438299 74.059898
-0.057827 -32.212399 73.287201
-1.10146 -31.9473 73.402702
-1.17027 -31.949301 73.478798
1.17044 -31.949301 73.478798
0.057918999 -32.212399 73.287201
3.5738399 -27.7645 76.834602
2.6889 -30.438299 74.059898
2.5151601 -26.426901 75.895203
2.19717 -29.129601 74.328697
1.1015199 -31.9473 73.402702
-3.3879099 -24.669901 77.8731
-3.7788401 -26.570601 77.3955
-1.52021 -31.776501 75.4114
-2.9707301 -24.771299 76.498596
-0.345761 -30.891399 73.589203
-2.0813601 -27.9566 75.707497
3.38801 -24.629299 77.839996
0.345853 -30.891399 73.589203
2.08145 -27.9566 75.707497
2.97083 -24.771299 76.498596
3.7789099 -26.570601 77.3955
1.5203 -31.776501 75.4114
-2.62028 -27.572599 75.382103
-1.9256001 -29.909 74.247101
-2.3447599 -31.3689 73.764198
-1.97767 -31.4844 73.666
1.9256901 -29.909 74.247101
1.97776 -31.4844 73.666
2.3448501 -31.3689 73.764198
2.6203599 -27.572599 75.382103
-2.92081 -26.940901 75.322304
-1.1977 -31.393101 75.792702
-0.160064 -32.2985 74.122398
-1.18325 -32.0825 73.633003
-3.7298501 -27.791201 76.161499
-1.13301 -32.037399 74.241997
1.18329 -32.0825 73.633003
0.160156 -32.2985 74.122398
1.1325099 -32.0368 74.238701
3.7299199 -27.791201 76.161499
2.9209099 -26.940901 75.322304
1.19779 -31.393101 75.792702
-1.0868 -24.7616 77.7761
-0.94124502 -30.917601 73.525299
-1.20213 -30.7955 73.763199
-2.8858199 -28.371901 74.585503
-2.40868 -31.1231 74.7201
-0.53605098 -32.355801 73.542397
-3.7576001 -25.216101 76.981003
1.08688 -24.7616 77.7761
3.7577 -25.2059 76.967598
0.94133699 -30.917601 73.525299
2.4087701 -31.1231 74.7201
0.536143 -32.355801 73.542397
1.20223 -30.7955 73.763199
2.88592 -28.371901 74.585503
-1.61619 -31.653299 73.540398
-0.35369 -30.753401 73.935303
0.353782 -30.753401 73.935303
1.6162699 -31.653299 73.540398
-1.61068 -24.6663 78.106003
-0.532951 -32.0215 73.593201
-2.58726 -30.719999 74.152
0.53304398 -32.0215 73.593201
1.61077 -24.6663 78.106003
-3.6352899 -24.9081 76.601402
-2.53791 -25.087601 76.938599
-2.96924 -24.6812 78.115799
-2.76617 -27.990801 77.090897
-3.09289 -29.104099 76.666199
-2.72367 -24.927799 78.259499
-3.5106599 -26.187901 76.058502
-2.0278599 -29.1113 74.608704
-3.62819 -27.642 75.721199
-2.8631201 -24.632601 76.628998
2.5380099 -25.069 76.911598
2.86322 -24.6315 76.625
3.63536 -24.9037 76.5924
2.02795 -29.1113 74.608704
3.6282699 -27.642 75.721199
3.51074 -26.187901 76.058502
2.96931 -24.6663 78.106003
2.7237699 -24.927799 78.259499
3.0929699 -29.104099 76.666199
2.7662699 -27.990801 77.090897
-3.3961999 -29.030001 75.142998
-0.45966101 -32.384899 73.533699
0.45975301 -32.384899 73.533699
3.3963001 -29.030001 75.142998
-1.29328 -24.568399 77.810997
-0.31137201 -32.257099 75.201302
-1.11878 -30.467699 74.516602
-1.97387 -28.229799 76.2257
1.97396 -28.229799 76.2257
1.11887 -30.467699 74.516602
0.31146401 -32.257099 75.201302
1.29337 -24.568399 77.810997
-2.86724 -27.2549 77.371696
-2.9695301 -24.5501 77.423798
2.96961 -24.4956 77.364799
2.8673401 -27.2549 77.371696
-0.217562 -29.5968 75.971901
-0.689565 -32.307201 73.536301
-3.8713 -25.483101 77.221901
0.217654 -29.5968 75.971901
3.8713801 -25.483101 77.221901
0.68966198 -32.307201 73.536301
-3.7200501 -25.1359 77.725502
-3.2196901 -29.2169 76.623199
-0.69876498 -29.288601 76.093903
-3.2086401 -28.992701 74.778297
-3.60759 -28.095699 75.443604
-3.2794001 -24.6761 76.520599
-3.8689301 -26.0306 76.8843
-0.169774 -30.555901 74.3946
3.72012 -25.125401 77.714401
0.169866 -30.555901 74.3946
0.69885701 -29.288601 76.093903
3.86901 -26.0306 76.8843
3.2795 -24.6761 76.520599
3.6076601 -28.095699 75.443604
3.20874 -28.992701 74.778297
3.21979 -29.2169 76.623199
-0.425253 -24.568501 77.811203
-1.0053999 -30.785 73.790604
-3.6517 -25.9361 76.120102
-3.4301901 -29.1306 75.339302
-3.7428701 -25.288601 76.502098
1.0054899 -30.785 73.790604
3.43029 -29.1306 75.339302
3.74297 -25.288601 76.502098
3.6517701 -25.9361 76.120102
0.42534399 -24.618401 77.853699
-2.75583 -25.8507 76.241402
-0.424952 -31.771 75.648903
-3.0053 -27.0005 75.302498
-1.19471 -31.5313 73.679199
-2.5492001 -30.8368 73.956398
-0.258073 -31.8381 73.467697
2.7559299 -25.8507 76.241402
0.258165 -31.8381 73.467697
1.19481 -31.5313 73.679199
3.0025699 -27.0005 75.302498
0.42504501 -31.771 75.648903
-3.4607201 -27.110399 75.484299
-2.13937 -31.273899 75.602203
-1.69815 -31.427601 73.524399
-2.02758 -31.520201 74.810402
2.0276699 -31.520201 74.810402
1.69824 -31.4275 73.524399
3.46082 -27.110399 75.484398
2.1394601 -31.273899 75.602203
-3.2966199 -27.060801 75.291603
-1.2439899 -31.721901 75.667999
-3.6166601 -26.492599 76.0504
-0.92072803 -32.006199 73.275703
-3.2953501 -25.742399 76.255898
-3.43487 -28.8438 75.221497
-2.6343999 -25.6378 76.359802
-0.42949 -32.4254 73.671402
-1.67109 -29.852301 74.941902
0.92079097 -32.006199 73.275703
3.2954299 -25.742399 76.255898
2.6345 -25.6378 76.359802
0.42958301 -32.4254 73.671402
1.67118 -29.852301 74.941902
3.4349799 -28.8438 75.221497
3.61673 -26.492599 76.0504
3.29672 -27.060801 75.291603
1.2440799 -31.721901 75.667999
-2.9860599 -29.986601 74.450699
-3.2802999 -24.6506 76.564796
2.98614 -29.986601 74.450699
3.2804101 -24.650499 76.564102
-2.1754401 -31.221201 75.621696
-2.57461 -30.8545 73.970802
-0.60413098 -31.192499 73.297401
-0.80541801 -30.828899 73.715897
0.60422099 -31.192499 73.297401
0.805511 -30.828899 73.715897
2.57425 -30.8538 73.974701
2.17553 -31.221201 75.621696
-0.134261 -32.130299 73.298897
-0.87940401 -31.257099 75.845299
-3.22961 -27.073999 75.246696
-1.9557199 -27.790899 76.440102
1.95581 -27.790899 76.440102
0.134353 -32.130299 73.298897
3.2296901 -27.073999 75.246696
0.87949699 -31.257099 75.845299
-1.34648 -31.299999 75.828201
-3.0467801 -29.722601 74.536003
-3.1760099 -24.5704 77.452599
3.17612 -24.515499 77.393303
3.04686 -29.722601 74.536003
1.34657 -31.299999 75.828201
-1.32574 -31.715599 75.669899
-1.19289 -31.0863 73.512901
-1.82937 -31.2693 73.499603
1.1929899 -31.086399 73.512901
1.82946 -31.2693 73.499603
1.32583 -31.715599 75.669899
-2.8947001 -30.237 74.429199
2.8947699 -30.237 74.429199
-1.9938999 -31.476999 75.027802
-1.0834 -32.057999 74.545799
-3.33249 -28.433001 74.936501
-0.913481 -32.1395 74.1231
0.91354901 -32.139198 74.123596
1.08411 -32.057899 74.545898
1.9939899 -31.476999 75.027802
3.3325901 -28.433001 74.936501
-3.2283399 -29.1658 76.405502
-1.36915 -30.583799 74.244003
-1.77241 -29.9025 74.609299
-2.18081 -31.4734 74.603203
-0.63027298 -30.859501 73.679298
1.7725101 -29.9025 74.609299
0.63036501 -30.859501 73.679298
1.36924 -30.583799 74.244003
2.1809001 -31.4734 74.603203
3.22842 -29.1658 76.405502
-2.6584401 -27.054001 75.426498
-2.63603 -28.7568 76.7995
-3.8125801 -26.0751 77.8218
-3.7312901 -27.518999 76.096703
-2.1586101 -26.8078 76.290001
-3.89624 -26.0044 77.080299
-2.61696 -25.9622 76.330803
2.6170599 -25.9622 76.330803
3.8963399 -26.0044 77.080299
2.1587 -26.8078 76.290001
3.73139 -27.518999 76.096703
2.65854 -27.054001 75.426498
3.81266 -26.0751 77.8218
2.6361101 -28.7568 76.7995
-2.46578 -24.681999 78.116302
-2.96924 -24.9461 78.252296
-1.20716 -31.9886 73.496201
-0.12719201 -32.271099 73.375702
-2.5373199 -31.137199 73.8965
-0.26158899 -32.3335 73.454903
-2.7807701 -30.0758 74.458099
2.78088 -30.0758 74.458099
0.12728401 -32.271099 73.375702
0.261682 -32.3335 73.454903
2.53743 -31.1373 73.8965
1.20725 -31.9886 73.496201
2.4658799 -24.6663 78.106003
2.96931 -24.9461 78.252296
-2.8626101 -30.0154 76.082703
-3.10133 -26.9946 75.2966
-3.41295 -27.209 75.342499
-0.85718501 -32.036701 73.271698
-3.7162199 -28.325399 75.949097
-3.01401 -24.569901 76.874199
3.0141101 -24.549101 76.850403
3.71629 -28.325399 75.949097
0.85727102 -32.036701 73.271698
3.4130499 -27.209 75.342499
3.1013999 -26.9946 75.2966
2.86268 -30.0154 76.082703
-3.8546901 -25.978001 77.351402
-0.75136399 -31.9993 75.561897
-3.46421 -25.818501 75.871696
-3.71263 -26.7488 76.210197
-2.2313399 -28.413601 74.953499
4.6000001e-05 -32.3018 74.439499
3.8547699 -25.978001 77.351402
3.46436 -25.818501 75.871696
2.2314301 -28.413601 74.953499
3.7127299 -26.7488 76.210197
0.75145602 -31.9993 75.561897
-3.04617 -25.5245 76.584503
-1.7415299 -30.371799 74.199898
-3.3338001 -25.84 75.833199
-2.1345799 -31.4 73.624397
-1.3081501 -30.4998 74.4431
-0.452813 -32.411999 73.546898
-2.1066101 -27.187 76.087799
3.0462699 -25.5245 76.584503
0.45290601 -32.411999 73.546898
1.3082401 -30.4998 74.4431
2.1066999 -27.187 76.087799
1.7416199 -30.371799 74.199898
2.13467 -31.4 73.624397
3.3339 -25.84 75.833199
-1.40622 -30.310801 76.206001
-3.7286301 -26.4512 76.298698
-2.5270801 -31.1898 73.933403
-3.6466 -28.5268 75.6521
3.6466999 -28.5268 75.6521
3.7286999 -26.4512 76.298698
2.5271599 -31.1898 73.933403
1.40631 -30.310801 76.206001
-0.17037401 -31.188101 75.8713
-3.6041501 -26.6383 77.606903
-3.10513 -29.5735 74.647903
0.17046601 -31.188101 75.8713
3.1052301 -29.5735 74.647903
3.60425 -26.6383 77.606903
-2.97399 -27.7742 75.569603
-2.9403701 -30.1229 74.467796
-1.90844 -29.4604 74.507401
-1.9981 -28.151199 76.066902
-0.53243899 -32.310299 74.3274
2.94047 -30.1229 74.467796
0.53253198 -32.310299 74.3274
1.99819 -28.151199 76.066902
1.90853 -29.4604 74.507401
2.9740901 -27.7742 75.569603
-1.07056 -24.912201 78.265404
-1.4916101 -31.875 74.837799
-2.3680401 -29.929001 74.473
-1.66536 -31.711599 73.624001
2.36814 -29.929001 74.473
1.49182 -31.875 74.837799
1.66547 -31.711599 73.624001
1.07065 -24.912201 78.265404
-2.348 -29.7752 76.412003
-3.04232 -26.0686 77.824303
-0.84787297 -31.4629 73.223701
-0.76841301 -31.469801 73.184402
-2.4756601 -31.2061 74.423698
-0.51723403 -32.371799 73.892998
4.6000001e-05 -32.105301 75.5214
0.76850498 -31.469801 73.184402
0.517326 -32.371799 73.892998
2.47576 -31.2061 74.423698
0.84796602 -31.4629 73.223701
3.0424199 -26.0686 77.824303
2.3480899 -29.7752 76.412003
-2.5072601 -25.054399 77.307098
-3.5021501 -26.9517 75.628601
-1.16212 -32.028999 73.4589
-2.22293 -26.3246 76.912804
-3.84162 -25.4489 77.488297
3.8417201 -25.4489 77.488297
2.2230201 -26.3246 76.912804
2.50736 -25.004 77.252403
1.1622 -32.028999 73.4589
3.5022299 -26.9517 75.628601
-2.1982801 -31.2966 75.167999
-3.7602601 -26.0504 76.379204
-3.7423601 -27.206499 76.426102
2.19837 -31.2966 75.167999
3.74246 -27.206499 76.426102
3.76033 -26.0504 76.379204
-0.108182 -31.819599 73.186897
0.108274 -31.819599 73.186897
-2.0432601 -30.248899 74.042801
-3.1309299 -27.471001 77.289299
-2.7379301 -26.063801 77.825897
-2.49733 -26.681101 75.772102
-3.5767901 -26.145201 76.086601
-2.20309 -28.169901 75.244797
-0.70302701 -32.296902 73.6408
0.70312202 -32.296902 73.6408
2.2031801 -28.169901 75.244797
2.04335 -30.248899 74.042801
3.57687 -26.145201 76.086601
2.4974401 -26.681101 75.772102
2.73803 -26.063801 77.825897
3.1310101 -27.471001 77.289299
-3.01072 -25.209101 78.1521
-1.04636 -31.798401 73.388496
-3.4844201 -27.308901 75.416496
-3.34778 -29.4266 75.199898
-2.56602 -31.0061 73.935997
-0.38258299 -32.048698 73.586502
1.04644 -31.7983 73.388496
0.38267499 -32.048698 73.586502
3.3478501 -29.4266 75.199898
2.5660999 -31.006201 73.936302
3.48452 -27.308901 75.416496
3.0107901 -25.209101 78.1521
-2.5720201 -27.2342 77.3797
-3.0153201 -29.362101 74.511803
-3.23505 -28.6012 74.802299
3.2351501 -28.6012 74.802299
3.01542 -29.362101 74.511803
2.57212 -27.2342 77.3797
-2.23645 -27.344101 75.738998
-2.4798999 -28.085199 74.971298
-3.28021 -25.3354 78.103699
-1.87635 -30.290199 74.128601
-1.8373801 -31.6063 73.801201
-2.87307 -30.0896 75.461502
2.8731401 -30.0896 75.461502
2.2365401 -27.344101 75.738998
1.8374701 -31.6063 73.801201
1.87644 -30.290199 74.128601
2.48 -28.085199 74.971298
3.2803099 -25.3354 78.103699
-3.0910101 -27.8536 77.143402
-1.2591701 -31.649099 73.652397
-0.040070001 -31.8561 73.048302
-2.51999 -30.642599 73.902901
-1.91467 -29.686199 74.390701
-0.44432101 -32.4216 73.574997
1.25929 -31.648899 73.652496
0.040162999 -31.8561 73.048302
0.44441301 -32.4216 73.574997
1.91477 -29.686199 74.390701
3.09111 -27.8536 77.143402
-2.2091 -29.32 74.236
-1.65548 -31.801701 74.799202
-3.1812799 -29.2834 74.706398
-2.12554 -28.9063 74.741096
-3.5876901 -27.188 75.782501
1.65567 -31.801701 74.799202
3.58779 -27.188 75.782501
2.2091899 -29.32 74.236
2.1256399 -28.9063 74.741096
3.18138 -29.2834 74.706398
-1.59115 -31.879101 74.537102
-3.1514101 -29.2691 74.691399
-1.79324 -31.181999 73.497803
-1.9404 -29.0201 75.3283
-1.72008 -29.499001 75.493202
1.5913399 -31.879101 74.537102
1.72017 -29.499001 75.493202
1.94049 -29.0201 75.3283
1.79333 -31.181999 73.497803
3.15151 -29.2691 74.691399
-3.10935 -29.3929 76.319298
-1.83796 -29.93 76.351196
-3.1210301 -28.500999 74.678802
-0.44819 -31.8102 73.583
-1.91575 -29.0301 75.048401
0.44828299 -31.8102 73.583
1.91584 -29.0301 75.048401
3.12113 -28.500999 74.678802
3.1094501 -29.3929 76.319298
1.83806 -29.93 76.351196
-1.8868999 -24.755899 78.324997
-3.0609901 -29.383699 74.535896
-3.22732 -27.0378 75.247398
-3.5555501 -28.037001 76.836304
-1.37651 -31.448601 73.574097
-0.365024 -32.381901 73.503799
-0.80276102 -30.441299 74.526398
-0.127994 -30.4072 74.699898
4.5000001e-05 -24.6812 78.115799
0.128086 -30.4072 74.699898
0.80285299 -30.441299 74.526398
0.365116 -32.381901 73.503799
3.0611 -29.383699 74.535896
1.37657 -31.4485 73.574402
3.2274001 -27.0378 75.247398
3.55563 -28.037001 76.836304
1.88699 -24.755899 78.324997
-3.40342 -27.121201 75.366501
-1.20395 -31.934099 73.520103
-2.9518001 -28.3929 74.582397
1.2041301 -31.934 73.520103
3.4035001 -27.121201 75.366501
2.95191 -28.3929 74.582397
-3.8306 -26.0193 77.605904
-3.1675999 -24.9461 78.252296
-0.61310399 -30.1598 75.035896
-3.74158 -27.7696 75.989098
0.61319602 -30.1598 75.035896
3.7416799 -27.7696 75.989098
3.8306799 -26.0193 77.605904
3.1677001 -24.9461 78.252296
-2.7408099 -25.992399 76.090599
-0.79374301 -31.657499 75.691803
-2.46193 -30.0509 76.307503
-1.88901 -27.659 76.758102
1.8891 -27.659 76.758102
2.74089 -25.992399 76.090599
2.4620299 -30.0509 76.307503
0.79383498 -31.657499 75.691803
-1.87758 -24.566999 77.810097
-3.39871 -28.070299 77.0606
-2.67378 -26.5676 77.633698
2.6738501 -26.5676 77.633698
3.3988099 -28.070299 77.0606
1.87767 -24.566999 77.810097
-2.2370501 -31.240999 75.166397
-2.74861 -24.6812 78.115799
4.6000001e-05 -31.489401 73.079399
2.23715 -31.240999 75.166397
2.7487099 -24.6663 78.106003
-2.6289101 -30.211901 76.246101
-0.80555701 -32.088299 73.299599
-0.167245 -31.006001 73.4105
4.6000001e-05 -32.291302 75.177902
0.167337 -31.006001 73.4105
0.80564201 -32.087898 73.299698
2.62901 -30.211901 76.246101
-2.32091 -31.0005 75.2089
-1.80748 -31.683001 74.814102
-3.2932301 -24.7843 76.5271
-3.71156 -27.3466 76.1688
-3.5339999 -24.8948 76.569504
-1.95152 -28.854099 75.0998
-2.3160999 -31.158899 74.962898
-2.4832201 -25.553801 76.591499
-3.72334 -25.106701 77.542099
3.7234399 -25.094299 77.526398
1.8076 -31.683001 74.814102
2.31619 -31.158899 74.962898
2.3210001 -31.0005 75.2089
1.95161 -28.854099 75.0998
2.48332 -25.553801 76.591499
3.7116399 -27.3466 76.1688
3.29333 -24.7843 76.5271
3.53407 -24.8944 76.567497
-2.6470301 -29.534201 74.244301
-1.97769 -30.2138 74.101402
-2.1483901 -31.360399 75.154099
-2.96292 -29.9921 74.443901
-0.59196299 -32.165699 73.551903
-3.2992499 -29.1912 75.873596
2.6471 -29.534201 74.244301
2.9630001 -29.9921 74.443901
3.29935 -29.1912 75.873596
2.1484799 -31.360399 75.154099
1.97778 -30.2138 74.101402
0.592053 -32.165699 73.551903
-0.24130701 -31.525101 75.742897
-0.152339 -32.2915 75.450401
-2.6659501 -29.4767 74.165001
4.6000001e-05 -32.2649 73.487297
2.66605 -29.4767 74.165001
0.24139901 -31.525101 75.742897
0.15243199 -32.2915 75.450401
-1.29509 -31.9083 75.596703
-2.8162501 -30.2003 74.4151
-2.86553 -30.210199 74.388603
-2.35728 -31.2731 74.7836
4.5000001e-05 -24.6101 77.847198
2.8656299 -30.210199 74.388603
2.81633 -30.2003 74.4151
2.3573699 -31.2731 74.7836
1.29518 -31.9083 75.596703
-3.7645199 -25.2812 76.509003
-0.15174 -24.681999 78.116302
-1.42383 -30.6583 74.0681
-2.91311 -28.934 74.9104
-3.28842 -24.664301 76.538101
-0.26383799 -32.3074 73.460503
0.151831 -24.681999 78.116302
0.26392999 -32.3074 73.460503
1.42392 -30.6583 74.0681
3.7646201 -25.281099 76.508598
3.2885301 -24.6642 76.537804
2.9131801 -28.934 74.9104
-2.70294 -29.721701 74.403
-1.6768 -24.755899 78.324997
-2.0606201 -24.781 77.788696
-3.6649599 -26.802 75.9487
-1.64224 -31.679199 75.448303
-0.66690499 -31.705099 75.673798
2.7030201 -29.721701 74.403
3.66506 -26.802 75.9487
1.6423301 -31.679199 75.448303
2.06071 -24.7584 77.773903
1.67689 -24.755899 78.324997
0.66699702 -31.705099 75.673798
-0.18552101 -31.175501 73.2883
-2.01103 -28.7092 75.412498
0.18561301 -31.175501 73.2883
2.0111201 -28.7092 75.412498
-1.4141099 -31.626101 75.704597
-2.70679 -30.2794 74.244698
-2.94788 -30.136101 74.511101
2.9479799 -30.136101 74.511101
2.7068701 -30.2794 74.244698
1.4141999 -31.626101 75.704597
-3.59869 -26.7712 75.882004
-0.81213099 -32.153198 75.253601
-0.73182797 -31.3491 75.810097
-3.5204899 -28.253 76.990799
-3.6670599 -27.019501 77.461502
-0.077500001 -32.305801 75.444801
-1.29738 -30.754601 73.889
4.5000001e-05 -24.912201 78.265404
0.077592 -32.305801 75.444801
1.29747 -30.754601 73.889
3.5987899 -26.7712 75.882004
3.66714 -27.019501 77.461502
3.5205901 -28.253 76.990799
0.81222302 -32.153198 75.253601
0.73192 -31.3491 75.810097
-0.41533399 -24.755899 78.324997
-1.80845 -31.2638 75.842499
-3.2576001 -28.8228 74.776703
-1.69546 -30.0879 74.557999
-0.82095802 -30.6663 74.093803
1.69556 -30.0879 74.557999
0.82104999 -30.666401 74.094002
3.2577 -28.8228 74.776703
0.41542399 -24.755899 78.324997
1.80854 -31.2638 75.842499
-2.8994 -28.763599 76.795898
-1.16675 -32.002998 73.454399
-2.3548801 -27.759399 75.2892
-2.3146 -27.7624 75.315804
-1.41242 -30.985399 73.510902
-2.72457 -25.873501 76.263397
-1.85113 -29.3627 74.916801
-3.6259699 -24.891199 76.933098
-2.74561 -29.9382 74.469902
2.7456901 -29.9382 74.469902
2.7246699 -25.873501 76.263397
3.62605 -24.854401 76.895103
1.85122 -29.3627 74.916801
2.3146901 -27.7624 75.315804
1.4125 -30.985399 73.510902
2.35496 -27.759399 75.2892
1.16682 -32.002998 73.454399
2.8994999 -28.763599 76.795898
-1.0378 -30.775999 76.028702
-2.34255 -28.0287 75.132698
-3.31932 -26.568399 76.237099
3.3194001 -26.568399 76.237099
2.3426399 -28.0287 75.132698
1.0379 -30.775999 76.028702
-2.207 -25.650801 77.590401
-1.663 -27.6101 76.8424
-3.6577001 -26.094601 76.154297
-0.175468 -31.1369 73.305801
0.17556 -31.1369 73.305801
2.2070899 -25.641001 77.578102
3.6578 -26.094601 76.154297
2.54177 -30.6472 73.913597
1.66309 -27.6101 76.8424
-3.6514299 -26.792101 75.919197
-2.11254 -30.2208 76.240303
-2.89048 -30.269699 74.494698
-2.63379 -25.3591 76.390701
-3.3023 -29.558701 75.133102
-2.9970601 -29.676201 74.463799
-3.48545 -28.945601 75.425499
2.8905799 -30.269699 74.494698
2.6338899 -25.3591 76.390701
3.3024001 -29.558701 75.133102
3.4855199 -28.945601 75.425499
2.9971399 -29.676201 74.463799
3.65151 -26.792101 75.919197
2.1126399 -30.2208 76.240303
-2.5423 -29.154499 76.648598
-0.064112999 -32.0937 73.157402
-2.1540501 -31.1059 73.797401
-2.5028901 -31.091299 73.911903
-0.60190701 -31.4807 73.360298
-3.2883799 -28.8571 74.833603
0.60199702 -31.4807 73.360298
0.064204998 -32.0937 73.157402
3.28848 -28.8571 74.833603
2.15414 -31.1059 73.797401
2.503 -31.091499 73.911797
2.5423801 -29.154499 76.648598
-3.1294401 -25.153299 76.647697
-0.49170101 -31.327801 73.3675
-2.54635 -28.3104 74.709297
-1.30322 -31.595699 73.609497
-0.57126403 -31.7621 73.556297
0.49179301 -31.327801 73.3675
0.571356 -31.7621 73.556297
3.1295199 -25.153299 76.647697
2.5464201 -28.3104 74.709297
1.3033201 -31.5954 73.609802
-1.8989201 -31.215599 75.860901
-2.7955 -30.3722 74.255302
-2.29055 -28.1271 75.140297
-3.5771999 -26.503201 76.095299
-1.01104 -32.033199 73.341103
-2.4254401 -30.749701 73.965401
-1.89933 -29.677999 74.407097
1.01109 -32.0331 73.340897
2.2906401 -28.1271 75.140297
1.89942 -29.677999 74.407097
2.7955999 -30.3722 74.255302
2.4254899 -30.749901 73.965401
3.5773101 -26.503201 76.095299
1.8990099 -31.215599 75.860901
-2.01103 -31.369101 75.566299
-1.96234 -31.171801 75.8778
-3.0999899 -24.787701 76.4851
-1.91157 -31.421101 73.569397
-3.6974399 -25.9149 76.204102
-2.22984 -31.3382 75.0103
-0.51587301 -30.7045 74.036697
-0.441782 -30.340401 74.745102
0.441874 -30.340401 74.745102
2.2299299 -31.3382 75.0103
0.51596498 -30.7045 74.036697
3.10006 -24.787701 76.4851
3.69754 -25.9149 76.204102
1.91167 -31.421101 73.569397
2.0111201 -31.369101 75.566299
1.96243 -31.171801 75.8778
-2.5063601 -26.389099 75.937698
-3.7751999 -26.725201 76.331596
-0.60364801 -32.360802 73.582497
2.50646 -26.389099 75.937698
0.60373998 -32.360802 73.582497
3.77528 -26.725201 76.331596
-0.286805 -31.506001 73.382401
-2.10901 -31.4454 74.938202
4.6000001e-05 -30.8694 73.7146
2.1091001 -31.4454 74.938202
0.286897 -31.506001 73.382401
-0.079820998 -32.2943 74.4692
-1.2556601 -32.077099 73.699303
-2.04075 -29.815701 74.305702
-2.8814499 -30.284901 74.519203
0.079912998 -32.2943 74.4692
2.8815601 -30.284901 74.519203
2.5933101 -30.9147 74.139297
1.25572 -32.077099 73.699303
2.0408399 -29.815701 74.305702
-0.099740997 -24.6124 77.846397
-1.88729 -29.9007 74.309601
-1.39487 -31.9009 75.599602
-1.21355 -30.707199 74.004303
-0.83350903 -31.9596 73.196701
-1.51261 -31.939199 73.769402
-2.7616301 -30.2687 75.302002
-3.35024 -29.4575 75.418701
0.099831998 -24.6124 77.8489
2.76173 -30.2687 75.302002
1.39496 -31.9009 75.599602
1.51271 -31.939199 73.769402
3.3503399 -29.4575 75.418701
1.88738 -29.9007 74.309601
1.21364 -30.707199 74.004303
0.83359599 -31.9596 73.196701
-2.60219 -30.444201 75.918404
-3.5589399 -25.7215 76.227699
-2.21962 -28.714899 74.841103
-2.566 -30.667101 73.945999
-1.42757 -31.9181 73.609901
3.55902 -25.7215 76.227699
1.42768 -31.9181 73.609901
2.2197101 -28.714899 74.841103
2.6022899 -30.444201 75.918404
-3.6728401 -27.483999 75.939697
-0.63894397 -32.320599 73.902603
4.6000001e-05 -30.0502 75.775902
0.63902903 -32.320499 73.902603
3.67294 -27.483999 75.939697
-2.82406 -29.3587 74.263298
-1.40409 -31.9079 73.567703
-0.81594998 -32.142399 73.3526
-1.73671 -31.798201 74.155602
-0.83480799 -32.1721 73.780197
-2.37832 -30.992901 74.962097
4.6000001e-05 -31.266899 73.179398
0.83490098 -32.171902 73.780296
2.3784101 -30.992901 74.962097
1.73683 -31.798201 74.155602
1.40417 -31.9079 73.567703
0.81603497 -32.141998 73.352699
2.8241601 -29.3587 74.263298
-2.4904301 -24.8944 77.595299
-0.178818 -31.827 73.329597
2.49051 -24.8354 77.536102
0.17891 -31.827 73.329597
-2.8669701 -29.9333 75.941803
-1.90773 -31.576099 74.907303
-1.13519 -32.013302 75.556702
-3.80407 -26.6502 76.442902
-3.1954701 -29.4939 75.700897
-0.36190301 -32.344002 73.514297
3.19555 -29.4939 75.700897
1.90782 -31.576099 74.907303
2.86707 -29.9333 75.941803
0.36199501 -32.344002 73.514297
3.8041699 -26.6502 76.442902
1.13528 -32.013302 75.556702
-2.5403199 -27.0168 75.559303
-3.5016899 -28.402599 76.590698
-2.59165 -30.3444 75.726501
-0.160303 -32.269402 75.1922
-2.1868501 -30.8459 76.001801
-2.7891901 -30.4025 74.284698
-2.37321 -28.046801 75.084702
-1.9145499 -29.106199 75.444504
-0.27353999 -32.314301 74.211403
3.50179 -28.402599 76.590698
0.27363199 -32.314301 74.211403
2.5917499 -30.3444 75.726501
1.9146399 -29.106199 75.444504
2.3733001 -28.046801 75.084702
2.78929 -30.4025 74.284698
2.5404201 -27.0168 75.559303
0.160395 -32.269402 75.1922
2.18694 -30.8459 76.001801
-0.31013501 -32.2803 75.454697
-2.43417 -27.2243 77.383202
-1.16356 -32.058399 73.507896
-2.44805 -26.4641 75.9879
-1.8081 -31.529499 73.637001
1.16368 -32.058399 73.507896
2.4481299 -26.4641 75.9879
1.80818 -31.5294 73.637001
0.31022799 -32.2803 75.454697
2.4342599 -27.2243 77.383202
-3.56426 -28.0243 76.739899
-3.0059099 -29.7367 74.467598
-2.5655601 -27.269699 75.441101
-0.51020598 -31.506901 73.464302
-3.81319 -26.758499 76.478302
-2.20279 -26.428699 77.055199
2.2028799 -26.428699 77.055199
0.51029599 -31.506901 73.464302
3.5643301 -28.0243 76.739899
3.8132901 -26.758499 76.478302
3.0060101 -29.7367 74.467598
2.56566 -27.269699 75.441101
-2.3164001 -27.459 75.554298
-2.2710199 -31.016199 75.699997
-0.58650899 -31.2862 73.297096
-2.5711401 -30.818001 74.443703
-0.76537502 -31.1439 73.314598
0.58660102 -31.2862 73.297096
2.3164899 -27.459 75.554298
0.76546699 -31.1439 73.314598
2.2711101 -31.016199 75.699997
-1.5175 -24.7614 77.775902
-3.2442601 -28.6343 76.845497
-2.6918001 -26.8937 75.518402
-3.22644 -29.297001 74.860603
-0.78833503 -32.212399 73.573502
-2.9259601 -24.6451 76.533302
1.51759 -24.7614 77.775902
0.78844202 -32.212299 73.573502
2.9260299 -24.6451 76.533302
3.2265201 -29.297001 74.860603
2.6919 -26.8937 75.518402
3.24437 -28.6343 76.845497
-1.76547 -26.252001 77.394501
-1.28881 -31.042801 73.536697
-2.09482 -31.3314 73.627701
1.28891 -31.042801 73.536697
2.0949099 -31.3314 73.627701
1.76556 -26.252001 77.394501
-2.3857601 -30.2952 73.761597
-3.22998 -29.1504 76.310204
-1.80875 -24.6663 78.106003
-1.36084 -31.1784 73.5522
-0.75436097 -31.590401 73.152496
-3.6800799 -26.0753 76.193802
-3.1075001 -24.6285 76.530899
-3.0975699 -24.611799 76.552498
-2.9699399 -29.8999 75.566803
-2.43032 -25.8643 76.571602
2.38585 -30.2952 73.761597
2.4304099 -25.8643 76.571602
0.754453 -31.590401 73.152496
3.2300799 -29.1504 76.310204
2.9700501 -29.8999 75.566803
3.0976701 -24.6117 76.5522
3.1075699 -24.6285 76.530899
1.36093 -31.1784 73.5522
3.68016 -26.0753 76.193802
1.80884 -24.6663 78.106003
-2.9535799 -29.503201 74.406097
-0.45290399 -32.072701 75.533699
-0.23694199 -32.381599 73.603996
0.237037 -32.381599 73.603996
2.95366 -29.503201 74.406097
0.45299599 -32.072701 75.533699
-1.28817 -24.912201 78.265404
-0.87068999 -24.7616 77.7761
-3.68115 -26.987101 77.237
-2.7278099 -30.023701 76.319099
0.87077898 -24.788 77.793503
3.6812501 -26.987101 77.237
1.28826 -24.912201 78.265404
2.72791 -30.023701 76.319099
-2.4614699 -30.6775 75.829002
-2.8582699 -30.1392 76.274902
-0.134344 -32.194099 73.306396
-0.94683802 -32.127102 73.5364
-1.93774 -29.453501 74.448898
-2.5060599 -26.252899 76.208397
-0.322759 -30.236401 75.018898
4.6000001e-05 -32.282001 74.012802
4.6000001e-05 -30.318501 74.9179
2.50614 -26.252899 76.208397
0.322851 -30.236401 75.018898
0.134436 -32.194099 73.306396
0.94692099 -32.126999 73.536102
1.93783 -29.453501 74.448898
2.85834 -30.1392 76.274902
2.46157 -30.6775 75.829002
-3.5481601 -28.0818 77.056099
-2.5042601 -27.500999 75.366402
-3.5650599 -28.038099 75.359299
-0.34642601 -31.8696 73.561302
4.6000001e-05 -30.4153 74.701302
0.34651801 -31.8696 73.561302
2.5043399 -27.500999 75.366402
3.56516 -28.038099 75.359299
3.54826 -28.0818 77.056099
-2.852 -29.432199 74.267403
-3.34846 -25.6782 77.973
-1.6163599 -30.5949 74.0205
-1.94254 -31.614599 74.621399
-1.58066 -30.0338 74.869003
-1.9904799 -27.4837 76.5578
1.99055 -27.4837 76.557602
1.94265 -31.614599 74.621399
1.58075 -30.0338 74.869003
1.61645 -30.5949 74.0205
2.8520999 -29.432199 74.267403
3.3485601 -25.6782 77.973
-1.24638 -31.2416 73.615402
-0.69801903 -32.1534 73.506302
-2.00351 -27.1775 76.678101
2.0036099 -27.1775 76.678101
0.698111 -32.1534 73.506302
1.24646 -31.2416 73.615402
-2.17646 -30.487499 76.138397
-3.4642601 -25.0793 78.201599
-3.2715299 -27.7465 75.619003
-3.8313799 -26.3999 76.508499
3.83148 -26.3999 76.508499
3.2716 -27.7465 75.619003
3.46436 -25.0793 78.201599
2.1765499 -30.487499 76.138397
-2.3849299 -24.6096 77.832497
-2.76197 -30.1532 75.820702
-2.5201299 -30.3083 73.754997
2.38502 -24.562 77.791199
2.52021 -30.3083 73.754997
2.7620499 -30.1532 75.820702
-2.2710199 -31.148399 75.180702
-1.86405 -30.869101 75.993202
-0.80336303 -32.1805 75.492996
-2.0690401 -29.1154 74.530403
-3.34326 -29.203501 75.084
-2.6644599 -30.657 74.495903
2.2711101 -31.148399 75.180702
2.6645401 -30.657 74.495903
2.0691299 -29.1154 74.530403
3.34337 -29.203501 75.084
0.803455 -32.1805 75.492996
1.86414 -30.869101 75.993202
-1.42433 -31.227699 75.855904
-1.63451 -31.676901 73.569702
1.63457 -31.676901 73.569702
1.42442 -31.227699 75.855904
-2.1170599 -31.3587 73.6287
-3.6961999 -27.9736 75.752296
4.6000001e-05 -32.319401 75.439903
3.6963 -27.9736 75.752296
2.1171601 -31.3587 73.6287
-2.5177901 -24.755899 78.324997
-0.10395 -24.798901 77.802597
-3.24312 -26.210501 76.124496
-2.6461301 -26.088301 76.112
-3.5430701 -26.167601 76.062897
3.2432201 -26.210501 76.124496
2.6461999 -26.088301 76.112
0.104041 -24.815701 77.823196
3.54317 -26.167601 76.062897
2.5178699 -24.755899 78.324997
-0.214858 -24.789301 77.794296
-3.3879099 -24.779699 78.316002
-1.65604 -30.9063 73.643303
-0.99313903 -30.627899 74.175797
4.6000001e-05 -31.843901 73.042397
0.214949 -24.816 77.823402
0.993231 -30.627899 74.175797
1.65614 -30.9063 73.643303
3.38801 -24.779699 78.316002
-2.3882401 -27.192699 75.640503
-1.38937 -31.886499 75.330704
-1.32367 -30.8263 73.693802
-0.86579299 -31.8671 73.1744
-3.0460999 -29.927999 74.612602
-0.58131999 -32.057598 73.565399
0.86588299 -31.8671 73.1744
1.38948 -31.886499 75.330704
2.38833 -27.192699 75.640503
1.32377 -30.8263 73.693802
3.0462 -29.927999 74.612602
0.58141202 -32.057598 73.565399
-1.87216 -30.4884 74.0849
-2.5998399 -30.5322 73.958603
-1.0894001 -32.073101 73.453697
-0.244884 -32.373501 73.491203
1.0895 -32.072899 73.453796
2.59992 -30.5317 73.960197
0.244976 -32.373501 73.491203
1.87225 -30.4884 74.0849
-0.65398198 -24.7617 77.7761
-0.62091899 -31.039301 75.9282
-1.12414 -32.070702 73.869003
-2.41589 -27.770901 75.225304
-3.0924499 -27.033701 75.281799
-1.80805 -30.431299 74.104797
-1.09431 -32.044899 73.396896
-0.54879099 -32.3228 73.545998
-3.47033 -29.0091 75.666397
-2.2523799 -31.417299 74.735703
0.654073 -24.8188 77.816002
3.4704101 -29.0091 75.666397
2.25247 -31.417299 74.735703
0.54888397 -32.3228 73.545998
1.12407 -32.070702 73.868401
1.80814 -30.431299 74.104797
2.4159801 -27.770901 75.225304
1.09435 -32.044899 73.396896
3.09255 -27.033701 75.281799
0.62101102 -31.039301 75.9282
-2.9830101 -28.4398 76.919197
-1.69514 -31.347 75.8106
-2.5896001 -25.575001 78.012604
-0.96055698 -29.1343 76.135002
-2.5494399 -30.9981 73.9319
-1.3884701 -31.9053 73.544296
-1.60708 -31.9293 74.145302
-0.480663 -30.837799 73.677399
-0.34560201 -30.532801 74.407898
0.96064901 -29.1343 76.135002
0.34569401 -30.532801 74.407898
0.480755 -30.837799 73.677399
1.60719 -31.9293 74.145302
1.38855 -31.9053 73.544296
2.5495 -30.9984 73.931801
2.58968 -25.575001 78.012604
1.69523 -31.347 75.8106
2.98312 -28.4398 76.919197
-3.55106 -26.9515 75.701698
-1.1277699 -32.004299 75.259697
-2.5595601 -30.351 73.795197
-0.76305801 -32.2225 73.475502
2.5596399 -30.351 73.795197
0.76315999 -32.222401 73.475601
3.5511401 -26.9515 75.701698
1.12793 -32.004299 75.259697
-2.4558599 -27.487301 75.397301
-1.06788 -30.940901 73.467598
-1.0164 -32.080399 73.816902
1.01626 -32.080299 73.815399
1.0679801 -30.940901 73.467598
2.45596 -27.487301 75.397301
-0.32133499 -32.289101 74.5746
0.32142699 -32.289101 74.5746
-1.2560101 -24.755899 78.324997
-3.0320301 -29.366501 74.510002
-3.2801099 -29.110001 74.931396
-3.66594 -25.327 76.5065
-2.56651 -31.131399 74.114502
-0.52170998 -32.404499 73.688599
0.52180302 -32.404499 73.688599
3.6660399 -25.327 76.5065
3.28021 -29.110001 74.931396
2.5666101 -31.131001 74.114601
3.03213 -29.366501 74.510002
1.2561001 -24.755899 78.324997
-0.226706 -32.093601 73.422997
-2.8162501 -24.639099 76.8162
-3.55848 -25.3195 78.1101
-3.27494 -29.0263 76.695999
-1.37854 -32.053001 73.751602
-0.065297998 -32.286701 73.753998
-1.68919 -30.5404 74.024597
-3.3724799 -28.75 75.0755
-1.8451101 -29.6738 74.508102
-0.61268997 -32.363201 73.681503
-2.0158401 -28.600599 75.859001
0.065389998 -32.286701 73.753998
2.81633 -24.623899 76.796402
0.612782 -32.363201 73.681503
2.0159299 -28.600599 75.859001
0.226798 -32.093601 73.422997
1.37868 -32.053001 73.751701
1.8451999 -29.6738 74.508102
1.68928 -30.5404 74.024597
3.3725801 -28.75 75.0755
3.2750199 -29.0263 76.695999
3.5585799 -25.3195 78.1101
-3.6246099 -26.7822 75.890999
-3.2883301 -28.968201 76.392601
-2.51477 -29.2502 74.059402
-1.71828 -28.9154 76.029602
-0.85690302 -31.3654 73.2295
-2.41469 -25.685801 76.806801
-1.2913001 -31.439501 73.6828
-2.5244999 -30.8241 73.950798
-1.97316 -28.666599 76.002502
-0.33023 -32.381401 73.840797
1.29136 -31.4394 73.682899
3.28843 -28.968201 76.392601
1.97325 -28.666599 76.002502
1.71837 -28.9154 76.029602
0.33032301 -32.381401 73.840797
2.4147799 -25.685801 76.806801
0.85699201 -31.3654 73.2295
2.5148699 -29.2502 74.059402
3.6247101 -26.7822 75.890999
-1.8908 -31.43 75.779198
-2.7732601 -29.3276 74.250198
-0.96368498 -32.1031 73.372498
-2.7870901 -28.4461 74.682503
-3.61393 -27.8146 75.542702
-2.67558 -25.610201 76.324203
-2.22293 -26.9876 75.981201
-0.67357397 -30.6842 74.082703
4.6000001e-05 -32.126099 73.157997
0.96388203 -32.102501 73.373299
2.6756599 -25.610201 76.324203
0.673666 -30.6842 74.082703
2.2230201 -26.9876 75.981201
3.6140001 -27.8146 75.542702
2.7871699 -28.4461 74.682503
2.77334 -29.3276 74.250198
1.8909 -31.43 75.779198
-0.95153999 -30.5905 76.099403
-0.395753 -31.3993 73.383301
-1.63793 -30.310699 74.418701
1.63802 -30.310699 74.418701
0.395845 -31.3993 73.383301
2.5734401 -30.669399 73.996498
0.95163202 -30.5905 76.099403
-0.63414598 -24.912201 78.265404
-3.1760099 -24.616899 77.876297
-2.4621 -31.283701 73.8507
-2.47419 -30.7638 75.047302
3.17612 -24.5749 77.841499
2.4742999 -30.7638 75.047302
2.4621999 -31.283701 73.8507
0.63423699 -24.912201 78.265404
-2.82827 -29.496201 74.254898
-2.3851299 -30.247299 73.7826
-1.02698 -31.1653 75.879997
-3.34022 -26.147699 77.793999
-0.46248201 -31.0173 73.389702
-0.98049301 -30.441099 74.533203
-1.4497 -30.150101 74.817596
2.3852201 -30.247299 73.7826
1.44979 -30.150101 74.817596
0.98058498 -30.441099 74.533203
0.46257401 -31.0173 73.389702
2.8283501 -29.496201 74.254898
3.3403201 -26.147699 77.793999
1.02707 -31.1653 75.879997
-2.1561999 -24.912201 78.265404
-0.479085 -32.243301 75.212799
-0.174619 -32.293098 74.528603
-1.17937 -24.6663 78.106003
-2.4309199 -29.200001 74.585999
-2.41379 -26.672501 75.876198
-3.30127 -28.4132 74.925797
-3.329 -25.813601 75.847504
3.3290999 -25.813601 75.847504
0.174711 -32.293098 74.528603
2.4138801 -26.672501 75.876198
3.3013799 -28.4132 74.925797
2.43101 -29.200001 74.585999
0.479177 -32.243301 75.212799
1.17946 -24.6663 78.106003
2.1562901 -24.912201 78.265404
-2.3268499 -30.275801 76.219002
-2.77897 -24.9088 76.466103
-2.60075 -24.9746 76.731201
-0.81251901 -32.207802 74.221199
2.6008201 -24.973499 76.726196
0.812509 -32.207802 74.221497
2.7790699 -24.9088 76.466103
2.3269401 -30.275801 76.219002
-3.7614 -26.630501 77.609703
-1.74503 -25.874901 77.503601
-1.23587 -29.8866 75.313103
-2.5625601 -30.741699 74.801903
-3.65991 -28.072701 76.335297
-1.96534 -28.9004 75.731499
1.74512 -25.874901 77.503601
3.6599901 -28.072701 76.335297
1.23597 -29.8866 75.313103
1.96544 -28.9004 75.731499
2.56266 -30.741699 74.801903
3.7614999 -26.630501 77.609703
-2.33973 -28.2579 76.989304
-2.8327601 -29.7117 74.323502
-2.0046799 -31.5198 73.852203
-2.02245 -27.6404 76.103699
4.6000001e-05 -32.1861 73.251701
2.83286 -29.7117 74.323502
2.0225401 -27.6404 76.103699
2.00477 -31.5198 73.852203
2.3398199 -28.2579 76.989304
-2.9184201 -26.093201 76.061996
-2.26267 -29.439301 76.540497
-3.78335 -25.525 76.477798
-1.2970099 -31.4576 73.6464
-3.0869401 -29.398701 74.596703
-3.5059099 -25.8724 75.881203
3.7834201 -25.525 76.477798
3.0870399 -29.398701 74.596703
3.5060101 -25.8724 75.881203
2.91852 -26.093201 76.061996
1.29707 -31.4575 73.646698
2.2627599 -29.439301 76.540497
-2.2063999 -31.1752 75.876503
-2.6779699 -30.384399 74.028801
-2.41048 -27.763599 75.223198
-2.48473 -26.3985 75.976097
-0.87304699 -32.158001 73.527496
-3.6809599 -27.533899 76.5532
-1.74112 -29.700899 74.990601
-0.349352 -32.416901 73.545799
2.6780701 -30.384399 74.028801
2.4848001 -26.3985 75.976097
3.6810601 -27.533899 76.5532
0.349444 -32.416901 73.545799
1.74121 -29.700899 74.990601
0.87315899 -32.157902 73.527496
2.4105699 -27.763599 75.223198
2.20649 -31.1752 75.876503
-0.90645599 -31.9426 75.583504
-0.55239099 -30.8473 76.001297
-0.769023 -31.3263 73.220001
-1.84782 -29.3557 75.152702
0.769113 -31.3263 73.220001
1.84791 -29.3557 75.152702
2.56071 -30.663099 73.948402
0.55248302 -30.8473 76.001297
0.90654802 -31.9426 75.583504
-3.50422 -24.754999 76.583702
-1.39517 -24.6663 78.106003
-1.26864 -32.016998 73.554001
-2.35006 -28.194401 74.9823
-3.2733099 -29.036301 74.823303
-3.6736701 -28.2234 75.642799
-3.6466 -27.2764 76.017097
-2.3870399 -26.959999 75.749802
3.5043199 -24.754299 76.580803
2.38713 -26.9601 75.750298
2.3501599 -28.194401 74.9823
3.6466999 -27.2764 76.017097
3.67377 -28.2234 75.642799
1.26876 -32.016998 73.554001
3.2734101 -29.036301 74.823303
1.39526 -24.6663 78.106003
-2.87514 -29.382999 74.295502
-1.59435 -26.909 77.1828
-0.81898803 -31.877899 73.144897
-3.61497 -27.2218 75.869499
-3.0975201 -29.995399 74.878098
-0.77785999 -30.9942 73.432999
-1.90132 -29.1371 75.2379
-0.25348401 -32.3638 73.462997
-0.31735101 -30.3736 74.727699
0.31744301 -30.3736 74.727699
1.59443 -26.909 77.1828
0.25357401 -32.3638 73.462997
0.77795202 -30.9942 73.432999
1.90142 -29.1371 75.2379
3.0976 -29.995399 74.878098
3.6150801 -27.2218 75.869499
0.81907803 -31.877899 73.144897
2.8752201 -29.382999 74.295502
-2.75776 -25.5658 78.0159
-0.63113898 -32.242298 75.469299
-2.4563899 -30.354601 73.735603
2.45647 -30.354601 73.735603
0.63123101 -32.242298 75.469299
2.7578599 -25.5658 78.0159
-2.0248599 -29.2901 74.432297
-1.88088 -29.1768 74.994003
-0.35826501 -32.408001 73.516098
0.35835701 -32.408001 73.516098
1.88098 -29.1768 74.994003
2.02495 -29.2901 74.432297
-3.33041 -28.9258 74.970901
-3.6018801 -28.4531 75.5177
-2.5809 -25.694201 76.403397
2.5810001 -25.694201 76.403397
3.6019599 -28.4531 75.5177
3.3305099 -28.9258 74.970901
-2.51718 -27.2551 75.481499
-3.63151 -25.805901 76.165398
3.6316099 -25.805901 76.165398
2.5172601 -27.2551 75.481499
-1.98106 -30.374001 74.058701
-2.84654 -28.1364 75.424202
-1.10473 -31.347401 73.5942
-3.40995 -28.5131 75.098
1.98115 -30.374001 74.058701
3.4100599 -28.5131 75.098
1.10482 -31.347401 73.5942
2.8466401 -28.1364 75.424202
-2.1740799 -30.7812 74.073097
-2.5718801 -26.061199 77.827202
-1.78994 -30.624201 73.974197
-0.91395599 -31.067301 73.372398
-3.2899401 -25.811501 75.858299
-2.74049 -25.860901 76.2528
-3.69349 -27.718399 75.849998
-3.83443 -26.096701 76.724701
-2.02966 -27.320601 76.241402
3.29001 -25.811501 75.858299
2.7405901 -25.860901 76.2528
2.0297599 -27.320601 76.241402
3.8345301 -26.096701 76.724701
0.91404903 -31.067301 73.372398
1.79003 -30.624201 73.974197
3.6935699 -27.718399 75.849998
2.17417 -30.7812 74.073097
2.57198 -26.061199 77.827202
-2.59009 -30.2784 74.008003
-2.68309 -26.7526 75.704597
-1.00209 -32.094898 73.385597
-2.5213799 -28.368099 74.685997
-3.1268599 -29.935801 75.233704
1.0022 -32.0942 73.385803
2.5901899 -30.2784 74.008003
3.12696 -29.935801 75.233704
2.5214801 -28.368099 74.685997
2.6831901 -26.7526 75.704597
-3.3745501 -28.219801 77.003799
-3.71332 -25.2414 78.139801
-2.56707 -30.430599 73.824402
-1.06288 -31.1565 73.432404
-3.5536499 -27.424601 75.530899
-0.42496499 -31.5723 73.503998
-3.8318501 -26.422199 76.747597
4.6000001e-05 -31.5445 75.735703
2.5671699 -30.4305 73.824402
3.8319499 -26.422199 76.747597
0.42505699 -31.5723 73.503998
3.55373 -27.424601 75.530899
1.0629801 -31.1565 73.432602
3.7134199 -25.2414 78.139801
3.37465 -28.219801 77.003799
-3.1162 -25.819599 75.894501
-3.4960499 -28.424601 76.925499
-3.1903 -29.305401 74.736099
