# .PCD v.7 - Point Cloud Data file format
VERSION .7
FIELDS x y z
SIZE 4 4 4
TYPE F F F
COUNT 1 1 1
WIDTH 1579
HEIGHT 1
VIEWPOINT 0 0 0 1 0 0 0
POINTS 1579
DATA ascii
-0.117971 -43.8936 80.295303
0.080263004 -42.698898 80.323997
1.6206 -38.951 79.991501
0.53642201 -42.073399 79.323402
2.0827999 -38.713501 79.324501
-2.8524599 -44.901798 81.319901
-3.11287 -44.182098 81.0019
-3.8369701 -44.308899 82.184601
-3.92046 -38.734901 82.054802
-4.2167201 -39.532101 81.927696
-3.9790499 -41.919201 81.860603
-4.0422902 -37.863201 82.135101
-4.7341599 -41.061001 81.318497
-4.7139101 -37.407902 81.897202
-1.65718 -44.7645 79.786598
1.49071 -38.293098 80.2323
0.73698002 -41.556499 79.885201
-0.529589 -44.1366 79.989403
-1.10717 -43.9562 79.766296
-3.78932 -44.355 80.593697
-3.5834301 -37.318401 82.153
-4.3449001 -40.580399 81.8088
-3.9141901 -43.417 80.828796
-1.6231101 -45.193501 80.922798
1.4356 -39.689899 80.039902
0.497848 -41.9533 80.055099
0.30404601 -41.739899 80.268997
0.087388001 -42.290401 80.311501
0.76208502 -42.740799 79.798401
-0.70483798 -44.981201 81.049896
-4.2818599 -44.125099 81.658897
-4.1989198 -41.051102 81.833
-3.85764 -40.940498 81.844299
-3.8734 -40.069599 81.796303
-3.85905 -41.532398 81.805298
-3.9665401 -43.093899 81.351097
-4.8034301 -41.6717 81.905098
-3.7039499 -44.405102 82.185204
-4.60888 -43.231098 81.976898
-1.96136 -44.901402 80.606201
-1.82265 -44.2435 80.2388
-1.09737 -44.972 80.717201
-0.30474699 -43.445099 80.302299
0.198826 -41.747002 80.0075
1.40639 -38.994301 80.222298
0.54620999 -42.221699 80.012901
0.72567397 -42.207199 80.051804
0.057264999 -43.750401 80.3405
-0.060520001 -42.601101 80.425201
-0.129464 -42.314201 79.905098
1.4929301 -39.4128 79.603104
0.95136899 -40.886299 79.454903
0.47536901 -42.543701 79.354202
0.83670002 -40.848999 79.414299
0.71083999 -42.137199 79.383598
0.234439 -43.051102 79.352097
-3.0968299 -44.6833 81.036003
-3.2147 -43.976101 80.765701
-4.0740299 -44.222801 81.917603
-3.73947 -43.805099 81.157799
-3.8943601 -42.782799 81.402901
-3.95456 -40.9492 81.579697
-3.7595899 -38.001999 82.177696
-4.3470001 -41.281799 81.865097
-4.4419799 -41.2146 82.007896
-3.7845099 -41.885799 81.834801
-3.97685 -41.575199 81.361504
-4.8250899 -41.5256 81.360603
-4.5528302 -40.001801 82.169197
-4.8010201 -38.4851 81.694504
-4.8375101 -41.0714 81.483803
-4.8242102 -42.079399 81.266998
-0.362865 -43.387501 80.3283
0.30038199 -41.3424 80.104103
0.064511001 -43.260101 80.048798
0.197613 -43.431702 80.176102
1.77043 -38.7113 79.994003
0.78293198 -40.3727 80.059601
1.02627 -41.522701 80.036201
1.18212 -40.4963 80.0037
1.85525 -38.0951 79.840698
0.13212 -42.3382 79.253197
0.4752 -42.8792 79.172997
1.12607 -41.624001 79.235001
1.28657 -39.007301 79.414597
0.162984 -44.151501 80.170303
-3.6348901 -44.484798 81.825302
-4.04179 -38.519299 82.054398
-4.0106902 -38.437401 82.086403
-3.8314199 -40.548698 81.668098
-4.0209498 -39.818699 81.839897
-4.0667801 -37.590099 82.203499
-3.87953 -39.4771 81.824501
-4.4379702 -40.473099 82.1045
-4.2328801 -39.4561 82.053497
-4.0234499 -36.9659 82.065903
-4.5845499 -41.432201 81.038597
-5.0504799 -41.817799 81.264603
-5.0542102 -40.436901 81.574402
-4.19871 -37.953602 81.490898
0.68681997 -41.5257 79.929298
1.17237 -39.385601 79.707703
0.044776 -44.163399 79.552696
-4.2372098 -44.327 81.199799
-4.2716799 -40.573299 81.806198
-2.4676099 -45.267502 80.9151
-1.93302 -45.073601 80.727203
-2.43385 -44.9879 81.079498
-1.57085 -45.052898 80.837196
-0.52125502 -44.8316 80.630096
-1.1712199 -44.550701 79.6063
1.2983299 -39.7505 79.988403
0.38687199 -42.298302 80.107803
0.732979 -42.307701 79.927101
-0.30823401 -44.0774 79.303596
0.80602598 -42.298599 79.8256
-3.67626 -44.641998 81.393898
-3.7295799 -44.1842 81.230797
-2.4932001 -44.976501 81.101898
-4.1658301 -43.975498 80.739899
-4.2003298 -41.417099 81.844101
-4.5597401 -41.291 81.930496
-4.8124399 -43.2122 81.008598
-4.6726098 -41.246201 81.899399
-1.8168401 -45.288898 80.171204
-1.36616 -45.050701 80.806702
-0.513134 -44.657001 80.910202
0.87393302 -40.778099 80.134903
0.54661101 -42.070301 79.9655
1.5786901 -38.871101 79.999901
1.54355 -39.004501 80.021301
0.20171601 -41.461102 79.697502
-0.55917501 -43.280399 79.525002
0.038819 -43.151798 80.1036
2.0771899 -38.448299 79.364998
-3.6024499 -44.9459 80.847
-3.2231901 -44.998901 81.096497
-3.8377299 -44.276001 81.201103
-4.32833 -41.133801 81.810799
-3.9479599 -40.0424 81.659698
-3.9818499 -37.803001 82.104698
-3.9870901 -37.942101 82.114799
-4.0623398 -40.641998 81.3116
-4.23668 -42.574001 80.917099
-4.2390599 -42.330101 81.7229
-4.5977702 -37.1661 81.891602
-2.2883699 -44.123402 80.492699
-0.536529 -44.400101 79.9403
1.16825 -39.945999 79.927696
1.02809 -40.7714 80.0056
0.50446898 -41.1628 80.258904
0.22525699 -42.188801 80.188599
1.9898601 -38.4949 80.0783
-3.7156799 -44.194901 80.679199
-2.68923 -44.046398 80.644402
-4.0929298 -38.935398 81.919197
-4.0006099 -41.376999 81.788101
-4.0946999 -37.326099 82.381401
-4.6344199 -42.452301 81.294197
-1.87973 -45.034901 79.767197
-2.0223801 -44.965 80.943497
-0.67197698 -44.669601 79.620903
1.5900199 -38.211498 80.174698
1.54213 -39.4021 79.840698
1.80503 -39.809399 80.024101
0.185578 -41.548401 79.782898
0.17972299 -41.640301 79.687302
0.28309399 -41.2416 79.595802
-0.163271 -42.804298 80.347397
1.32393 -41.112202 79.818901
0.178975 -43.294399 80.127899
0.78296101 -42.2239 79.568901
1.3219399 -41.140499 79.677002
1.48985 -40.622898 80.084801
-3.7351999 -44.678501 80.469597
-2.8588099 -44.804298 81.260101
-3.7910399 -43.803501 81.338203
-3.6628599 -37.202499 82.163101
-4.0247998 -40.7397 81.376701
-4.4322 -42.538898 81.931099
-4.112 -40.815899 81.311798
-4.1126499 -40.397202 81.259697
-3.82916 -42.100101 81.7351
-4.36729 -42.4212 81.848701
-4.7969198 -41.1521 81.681
-4.4358802 -39.484699 82.327904
-2.1527801 -45.3489 80.897697
-2.62129 -44.955799 80.133102
0.53017998 -41.806301 80.256599
0.89229 -40.176899 80.225899
0.73674297 -41.614601 79.849297
0.86579198 -39.677898 79.765503
0.52832502 -42.8269 79.274597
0.2225 -43.572899 79.656998
1.5161901 -40.717701 79.769501
-2.9596 -44.8908 80.2612
-3.1021399 -44.305 81.066299
-4.0443001 -40.927601 81.988098
-3.7851 -39.2784 81.996399
-4.3866401 -40.630501 81.788597
-4.5067401 -39.800701 81.589401
-3.89959 -38.762501 81.569298
-4.7414999 -42.528301 81.0672
-4.7110801 -42.499699 81.412498
-5.0050998 -41.764 81.369202
-4.6873202 -39.5261 82.117599
-2.0418999 -45.269798 80.669403
-1.36099 -45.290401 80.804001
0.75482702 -41.448002 79.929802
0.66928297 -42.7309 79.479301
2.0012 -38.2635 79.5578
1.19069 -41.341099 79.338898
-3.6849 -44.8493 81.262802
-3.8287201 -44.2794 82.203598
-4.9404998 -41.653301 81.602699
-4.3611102 -37.041302 81.966103
-4.6964998 -40.038502 82.116203
-1.78162 -44.935299 79.706802
-1.00155 -44.728298 79.611603
-0.62577498 -44.9809 80.937897
1.1087199 -40.5224 79.947304
0.84035301 -41.524601 79.953903
1.71136 -39.601601 79.541801
0.73656499 -40.25 79.516899
1.15773 -41.906601 79.5336
-3.80966 -44.545799 80.474503
-4.33812 -44.087299 80.874496
-3.8306401 -44.365299 82.151001
-3.8497701 -43.580502 81.264801
-4.2524199 -42.575699 81.702698
-4.2266002 -39.497501 81.966904
-4.1070299 -42.875198 81.681503
-4.3621802 -40.525299 81.923203
-4.15552 -39.310299 81.368698
-4.1421399 -38.431999 81.418999
-4.9766102 -40.728199 81.855598
-1.39895 -45.153801 80.3461
-1.86252 -45.223 80.8946
-0.47497401 -43.6147 80.360497
1.5204999 -38.6175 80.059898
1.0164 -41.573101 79.9916
1.47129 -39.362499 79.760201
-3.1942301 -45.085602 81.4505
-3.7021201 -44.1437 81.871597
-4.0000401 -38.493698 82.074898
-3.82037 -37.591599 82.081497
-4.25107 -43.092602 81.859901
-4.4760799 -40.518101 82.070702
-4.4506898 -38.678699 82.384399
-4.2676101 -40.006199 81.285103
-4.86516 -42.6497 81.384399
-4.2209401 -38.2691 81.914803
-2.55632 -44.631599 80.410004
-1.69546 -45.3097 80.9963
-1.94178 -44.535999 80.118797
-0.76337099 -44.1278 80.128502
1.84847 -38.330002 80.016197
-0.0026380001 -43.341499 79.541702
1.3397501 -41.4389 79.963501
-0.55707902 -43.313099 79.305603
-3.4926801 -44.932598 81.569504
-2.7216001 -44.599899 80.472504
-3.3041601 -44.2743 80.634499
-3.88027 -44.058102 82.1754
-3.98265 -37.2099 82.223396
-4.0563002 -43.241402 81.452797
-4.6750798 -40.283501 82.240196
-4.3895302 -42.577 80.756302
-1.84168 -45.220901 80.033997
-1.56467 -45.3004 80.974899
-1.69017 -44.870499 80.741203
1.7755899 -38.2136 80.019096
0.55707902 -42.116402 79.415298
1.6553 -40.128101 79.262497
-0.202713 -42.862202 79.299599
-3.6510301 -44.873402 80.718903
-3.26582 -44.973701 81.618797
-2.94929 -44.382099 81.053802
-3.7135401 -44.5168 81.670097
-3.77022 -43.939602 81.505402
-3.8922801 -37.124901 82.164497
-4.3049698 -39.9515 82.113503
-4.7035398 -41.1059 81.406601
-4.2079101 -38.383598 81.436302
-4.9172802 -38.865601 81.750397
-4.4927702 -42.038101 80.9235
-2.29952 -45.127102 80.144096
-2.4472101 -44.788399 80.952202
-1.60119 -44.142502 80.344803
-1.11664 -44.812401 80.5924
1.31635 -39.672501 80.052498
-0.13277701 -43.451 80.092796
-0.54576099 -43.2672 79.727997
-3.2318201 -44.948002 80.497002
-3.0829301 -44.534801 81.080704
-3.2676401 -43.8223 80.975601
-2.3886001 -45.2868 80.430397
-1.54887 -44.700802 79.995598
-1.87798 -45.294998 81.0653
-1.71246 -44.8689 79.7313
-1.88436 -44.562901 80.456398
0.65006399 -41.476299 80.033203
-0.096266001 -43.207802 80.001198
0.91158801 -40.551899 80.153999
0.104473 -42.985001 80.0354
-0.081096999 -42.9627 79.291496
0.133718 -43.8409 79.3368
-3.03829 -45.162102 80.6763
-3.70978 -44.285702 80.813499
-2.9883399 -45.081699 81.485603
-3.8204 -44.463902 80.529198
-4.2308798 -42.685902 81.656799
-3.8698699 -42.956902 81.645699
-4.1634598 -40.551701 81.855202
-4.2526698 -38.383801 82.2584
-3.96667 -39.614799 82.000603
-4.1290698 -38.325199 81.718498
-4.2741199 -42.143902 81.692802
-4.61517 -42.091801 81.007797
-5.0212002 -42.8507 81.288101
-2.07198 -45.2356 80.555496
-1.48952 -45.309101 80.937897
1.69643 -39.815498 80.077698
-0.343418 -43.207199 80.051804
1.07447 -39.4482 79.573097
1.47972 -39.367199 79.984901
1.98025 -38.2425 79.441803
0.90844703 -40.9053 79.359001
0.64682502 -43.079201 80.126404
-3.16134 -45.026402 80.967796
-3.3445301 -44.952801 81.640099
-3.5680699 -44.907101 81.470497
-2.8327999 -44.307301 81.038803
-3.42413 -44.765598 81.660797
-3.8905301 -42.709499 81.665703
-4.3954301 -40.042599 82.198601
-4.4970498 -42.524101 81.901497
-4.0841398 -38.298401 82.091003
-4.4141598 -37.014198 81.862198
-4.6231999 -42.066898 82.121201
-2.2124901 -45.060501 80.191498
-1.2172199 -44.826801 80.447701
-0.95500499 -44.75 80.700104
1.0659 -40.1334 80.0896
1.5319 -40.208801 79.967598
-0.16285899 -42.974602 80.257202
0.70409 -42.861599 80.284599
1.35358 -41.3447 79.963501
-0.110725 -43.4305 79.285004
1.29526 -40.788101 79.7659
1.81204 -39.185299 79.441399
-3.2402201 -44.863098 80.580498
-3.09781 -44.8494 81.168297
-3.4584 -44.0331 81.182198
-3.97893 -39.164299 81.999199
-3.86324 -42.813099 81.546204
-4.4054499 -39.068298 82.215103
-4.2934299 -39.904999 81.418198
-4.4500899 -42.9436 82.105598
-3.94274 -42.248501 81.688004
-4.4906702 -41.8638 82.2509
-4.75104 -42.5392 81.041397
-4.5590901 -39.663601 81.981903
-4.6044998 -37.952801 81.870201
-2.4049499 -45.225899 81.2239
-1.49429 -45.150799 80.8927
-1.7431999 -44.1604 80.259201
-1.08397 -45.034 80.660797
0.37539399 -41.558899 80.327698
-0.270006 -44.058601 80.231003
1.73876 -38.077301 79.858597
-0.087108001 -42.300098 79.3284
1.00881 -40.9431 79.3526
0.82196099 -40.868801 79.388901
-2.49809 -45.208 81.259102
-3.3187001 -44.8004 81.583298
-3.2297699 -43.874901 80.821899
-4.3483701 -43.663101 81.383598
-3.8106401 -40.754902 81.912201
-3.9252501 -36.989399 82.002602
-4.3716302 -41.4771 80.950203
-4.9631 -40.150501 81.580101
-4.3544402 -43.105701 80.892197
-1.75314 -45.372002 80.740303
-1.22869 -44.453701 79.771896
-0.63395298 -44.361801 79.755798
1.3764499 -39.686901 80.002899
-0.277468 -43.486801 80.254898
0.99754602 -41.183102 79.969101
-0.080568001 -43.208199 79.874603
0.97770298 -40.665298 80.0429
1.90635 -38.193199 79.461304
1.77562 -40.069599 79.441002
-0.079181001 -42.950802 79.267197
-3.51425 -44.418598 81.504303
-4.1156301 -44.3312 81.1772
-4.38166 -43.641899 81.1744
-4.12079 -39.685902 81.972801
-4.33424 -36.9944 81.823502
-4.86724 -38.793598 81.955498
-4.6282101 -42.077 80.989197
-2.31232 -45.3302 80.6782
-1.98044 -44.639599 79.935402
-0.51335698 -44.817902 80.812698
1.54082 -39.453499 80.032402
1.21672 -41.379799 80.132103
1.69372 -39.750702 79.352699
1.29599 -41.4543 80.106697
-0.773004 -44.193802 79.7276
1.32373 -41.449799 80.069901
1.78307 -39.1283 79.312599
1.58684 -40.291901 79.270798
-0.163702 -44.1306 79.302696
-2.94648 -45.208401 80.918198
-3.4286599 -44.361401 80.483597
-4.5465999 -42.410801 81.448303
-4.5578198 -40.329899 82.322502
-4.2484698 -43.526199 81.043198
-4.6484199 -37.892899 81.747101
-4.9176898 -39.0425 81.732903
-4.9307399 -43.214901 81.107201
-2.2987599 -45.044601 81.086502
-0.451803 -44.075901 80.222702
1.46503 -38.2766 80.224297
0.169714 -42.3395 79.422203
1.2383 -41.154202 79.452599
1.4727499 -39.385502 79.856796
-2.6010001 -44.9865 81.200897
-4.0945601 -38.439098 82.134003
-3.9714899 -42.581501 81.648201
-4.2080698 -43.182999 81.6269
-3.5653801 -37.310398 82.128502
-4.5026999 -41.442001 81.190804
-4.16747 -38.302101 81.991798
1.16768 -40.081501 79.854301
1.22172 -41.277699 80.093498
-0.39889199 -44.266102 79.849998
0.049038 -43.645802 79.270203
0.271936 -43.2962 80.1381
-2.93471 -45.105 80.478996
-3.3039999 -44.4669 81.398102
-4.1836901 -39.053501 81.879997
-4.9415598 -42.687099 81.159302
-4.42593 -42.393799 81.916298
-2.1495399 -45.280998 80.5401
-1.3889 -44.725498 80.320396
-0.77350199 -44.636799 79.4767
-1.02034 -44.993599 80.827599
-0.68390799 -44.1576 80.098999
0.43866 -42.147301 80.121399
0.54132998 -42.689301 80.159599
2.0152099 -38.7892 80.077202
0.86167198 -40.504398 79.352798
-3.1320601 -45.092201 80.912003
-3.9147401 -44.463299 81.768402
-4.5532999 -43.910702 80.907402
-4.1784201 -41.260399 81.869102
-4.40168 -41.739799 82.030602
-4.2087698 -37.593601 82.433098
-4.43048 -39.487801 81.356102
-4.8521199 -40.0205 81.652
-2.3065801 -44.603298 80.872498
0.89570397 -41.013901 80.079102
-0.27714199 -43.2929 80.244499
1.40003 -38.737301 80.192299
0.70189899 -41.752201 79.9245
0.54387897 -40.905602 79.6278
0.75479299 -42.2864 80.027298
0.131798 -43.9244 80.394501
1.65668 -39.775501 79.224197
-2.7432699 -45.177299 80.753899
-2.58919 -44.549 80.979401
-3.6907201 -37.759399 82.119301
-4.1230102 -43.030399 81.654297
-4.1823902 -43.106499 81.629204
-4.3589501 -40.779999 81.840202
-4.5036201 -41.276299 82.017799
-1.9925801 -45.133099 80.3545
-1.62068 -45.369202 80.822601
-1.35625 -45.2286 80.566597
-0.54956299 -44.877602 80.982803
1.33621 -38.7271 80.215202
0.32402399 -43.805401 80.112198
-3.34694 -45.037601 81.476097
-3.61693 -44.217499 81.072601
-3.2920899 -44.355999 81.347
-3.82112 -44.249199 82.221199
-3.62837 -37.773499 82.094498
-4.6006398 -39.891201 82.044601
-0.102919 -43.450001 80.0858
1.36131 -39.0956 80.198601
1.52474 -39.398701 79.743797
0.79280001 -42.026001 80.0914
1.64788 -39.729301 79.232803
1.13279 -41.326801 79.2425
0.184127 -42.948002 80.077003
0.04558 -43.469398 79.439003
1.24948 -41.660599 79.956497
-0.018352 -44.123699 79.376099
0.28250599 -43.3204 80.107498
0.98338199 -42.192501 79.700302
1.2066 -41.686401 79.3759
-2.9716499 -44.609501 81.194
-3.78776 -44.483101 81.920799
-3.7764599 -38.1087 82.143402
-4.4041901 -41.027802 82.058601
-4.3454499 -39.9198 81.328903
-4.29075 -42.088402 81.770798
-4.6890001 -40.519901 82.204399
-4.9823699 -43.170101 81.255096
-4.4607401 -42.409302 81.902901
-4.84165 -41.073601 81.905197
-5.0400801 -40.4865 81.740402
-2.09694 -45.065201 80.368896
-1.98464 -44.659302 79.948502
-0.45441601 -44.380798 80.342697
-3.52527 -44.832298 81.650902
-3.4237299 -44.382801 80.493301
-3.1363599 -44.321999 80.930397
-4.35883 -38.332199 82.119102
-1.8162 -45.347301 80.794601
1.30914 -39.457199 80.089798
0.69087398 -41.592201 79.903099
1.50624 -38.995602 80.1045
1.23684 -39.124401 80.029198
-4.0604501 -43.498699 81.379303
-4.3129902 -40.631001 81.797096
-3.9049001 -37.9562 82.152802
-4.4702501 -42.7216 82.031097
-4.0978799 -40.159698 81.362801
-3.8079801 -38.155399 81.938797
-1.19646 -44.912399 80.362999
-1.85533 -45.318501 80.829002
1.72707 -38.5392 79.974998
0.092901997 -43.439201 80.174103
0.79259402 -40.4767 80.024902
1.40326 -39.349602 79.893997
-0.708893 -43.607601 79.330101
2.11655 -38.628899 79.360497
0.446141 -43.270802 80.153198
-4.4794202 -43.6926 80.946198
-3.99283 -37.440399 82.140099
-4.1535702 -42.823299 81.6651
-3.9423499 -39.5672 81.8172
-4.0836701 -38.2957 81.970901
-4.42061 -39.875198 81.365601
-4.3642702 -42.905499 80.713699
-4.68678 -37.322102 81.935699
-4.5289502 -42.315102 82.0364
-1.91624 -45.3078 81.075401
-0.538234 -44.6838 79.956398
-0.443638 -44.4916 80.262604
-0.736049 -44.305302 79.558403
-0.92493302 -44.143002 80.157097
0.31230801 -41.952702 80.224503
1.51896 -38.375599 80.207397
0.079483002 -43.257599 79.971497
-0.41859001 -43.865299 80.225197
0.78541303 -39.952301 79.944298
0.65848303 -41.682999 79.918701
-0.35812399 -43.207401 79.656799
-0.64345801 -44.960701 81.053299
0.59055603 -43.077999 80.286797
0.95374 -41.928398 79.219704
-3.1900401 -45.040401 81.208702
-2.95948 -45.107399 81.470299
-3.21597 -44.7878 81.446899
-4.4190102 -43.5979 80.952499
-3.63924 -44.419601 81.957298
-4.0523601 -38.841 82.001701
-3.9611499 -41.131802 81.842102
-3.6459301 -37.3834 82.162399
-4.1965599 -43.187302 81.623199
-3.8183999 -39.068001 81.686897
-4.3099799 -40.7286 81.7994
-4.5682702 -39.7929 81.7145
-3.73772 -44.366299 82.224602
-4.4808202 -42.103802 82.206398
-5.0433898 -40.776501 81.489799
-1.95421 -44.573299 80.677101
-1.58216 -44.152401 80.205101
-0.50544602 -44.7551 80.298302
1.04512 -40.506699 79.993103
0.27115899 -41.333401 79.984398
1.05846 -41.4049 80.080299
-0.174758 -42.368999 79.450104
-0.37269801 -44.3018 80.016701
1.78969 -39.810101 79.507004
1.57523 -40.219398 79.183502
-0.256596 -44.245499 79.683197
-3.3736999 -43.808201 80.883301
-3.73383 -44.064201 81.482903
-4.1479802 -39.509201 81.958801
-3.88499 -40.535099 81.557602
-4.2550998 -41.585201 80.994598
-4.6993799 -42.495899 81.162903
-4.94203 -38.967499 81.650398
1.4246401 -39.569599 79.989601
1.86787 -38.144501 80.005203
1.01265 -40.602501 80.024002
0.499953 -42.2742 80.0812
1.1179 -39.4077 79.420601
1.03241 -41.861 79.232903
1.1005 -41.613998 79.216698
-3.23472 -43.927299 81.147903
-3.7927999 -44.414501 82.120102
-3.9268601 -38.445499 82.071297
-3.94278 -37.028301 82.204697
-4.1367602 -39.6133 81.973198
-4.2881198 -41.354401 81.8936
-5.0676198 -40.689301 81.541901
-5.04492 -40.433601 81.5429
-2.58798 -44.853001 79.923401
-1.3188699 -45.254501 80.815201
-0.61637098 -44.918999 80.206596
0.86124402 -40.7243 79.831596
0.048147999 -42.205002 80.179199
0.73294902 -41.636002 79.851799
1.05475 -40.707901 79.980797
1.34776 -41.229301 79.956802
1.27469 -38.531799 79.632698
-0.045175001 -42.9855 79.459999
0.106028 -44.179001 79.767303
-3.22436 -45.075699 81.3274
-3.0838101 -44.757801 80.111099
-3.0880301 -44.987099 81.358704
-4.2862401 -44.214001 81.595398
-3.9738801 -43.504601 81.3461
-4.0571198 -38.318001 81.821198
-3.88888 -41.4487 81.669403
-4.3893399 -40.652 81.790703
-4.2280002 -39.693199 81.980499
-3.89575 -37.538601 81.589798
-4.5394101 -42.1222 81.161201
-2.02035 -44.463299 80.7313
-0.93741798 -44.696899 79.501099
-1.15353 -44.307999 80.175102
1.76592 -38.308998 79.9729
1.75328 -38.288601 79.984299
1.57819 -38.533001 80.087502
1.39782 -38.451599 80.201897
1.03853 -40.521099 79.970001
1.9614 -38.1469 79.928299
1.1840301 -40.224998 79.850403
0.31155801 -43.531898 80.0242
-0.30745599 -44.0853 79.311501
0.99999499 -42.193901 79.9804
-3.7946 -44.546001 80.856796
-4.0522799 -44.403999 81.317596
-4.4433098 -44.023399 80.828201
-3.7497101 -43.9328 81.302299
-3.9462199 -37.2117 82.135002
-3.92346 -37.198101 82.133102
-3.8152399 -37.496899 82.128998
-3.5899999 -37.4935 82.089996
-4.1628799 -39.521999 81.938904
-3.6989601 -38.826302 81.983299
-4.3895798 -42.554298 81.922096
-4.0578599 -36.9907 82.206802
-4.2442598 -39.182301 81.905197
-4.8092499 -38.654499 81.976898
-4.8105602 -43.220299 81.015999
-4.6739802 -41.104 82.128098
-1.9227 -44.811001 80.796997
-1.65137 -45.0886 80.854698
-1.5663 -44.231701 80.093697
-1.72048 -44.1791 80.356499
1.49761 -39.979198 80.029701
1.76403 -38.786201 79.9599
0.22335801 -41.797901 79.564201
1.5935301 -39.6036 79.265198
1.07706 -40.567699 79.267303
1.61192 -40.244202 79.261902
2.0429599 -38.971699 79.4366
-3.4820299 -43.863701 80.818901
-3.18924 -43.8969 80.912399
-4.1085901 -37.6581 82.1828
-4.2725401 -40.934299 81.265999
-4.9573498 -40.1577 81.547997
-4.65557 -39.466499 81.437302
-4.9252701 -38.988499 81.736397
-4.69839 -37.676701 81.988403
-2.0376301 -45.331699 81.065102
1.46782 -39.5145 80.029198
0.950459 -41.0439 79.994904
1.76722 -38.433399 79.9739
1.08646 -41.296398 80.058701
1.18949 -39.374901 79.829399
0.67508298 -41.9757 80.033501
-3.09674 -44.5905 80.940002
-3.28196 -44.708 80.800797
-3.9274299 -43.988098 80.894699
-3.7225001 -43.948002 81.110397
-4.16644 -38.4398 82.217903
-3.98698 -37.328098 82.152
-4.3431702 -41.011799 81.933098
-4.4261198 -43.300301 81.109497
-1.67749 -45.203499 80.016197
-2.3689899 -44.9515 79.957603
-2.4472899 -44.892799 79.866898
1.70632 -40.138901 79.9841
1.1717499 -41.172401 79.371498
-0.17898101 -43.0588 80.101303
0.70939702 -42.987598 80.1278
0.140108 -44.092701 79.533203
-3.7708199 -44.801399 80.808601
-3.2460401 -44.783001 80.289597
-3.1405001 -44.801201 80.114304
-3.2307501 -44.742298 80.163399
-3.2457399 -44.510899 81.358704
-4.4857602 -43.696701 80.959999
-4.0977502 -38.828499 81.987701
-3.93539 -39.9235 81.825798
-4.7174401 -38.5019 81.977303
-4.5578098 -39.8223 82.009804
-4.49331 -38.948002 82.330803
-4.05901 -42.313499 81.57
-4.63589 -41.9608 82.151199
-4.9816198 -43.108898 81.471901
-2.1068399 -44.5299 80.250397
-0.74113202 -44.361401 80.412201
1.78451 -38.257301 79.969002
0.3163 -41.915798 80.243103
0.210489 -41.624802 80.012604
0.77576399 -40.772099 79.645599
0.44292501 -42.8493 80.255096
0.79085499 -39.883202 79.459503
1.02657 -42.102798 80.095001
0.64604598 -42.9725 80.311699
-3.10306 -44.338501 80.627502
-3.9447899 -37.156799 82.137703
-3.9400001 -41.098202 81.854202
-4.3183198 -42.597599 81.852898
-3.9196501 -40.831402 81.575897
-4.32411 -41.933601 82.059601
-4.11063 -38.9417 81.314796
-4.5892901 -41.024101 82.220802
-4.4690399 -41.990002 82.247902
-1.72325 -45.1399 79.888
-1.38774 -44.824902 80.681396
-1.08603 -44.666401 79.652
0.86713499 -40.712502 79.959396
-0.031798001 -43.628502 80.2547
0.643538 -42.093399 79.990898
1.0040801 -41.711899 79.981201
0.10012 -44.062302 80.366997
-0.02977 -43.508999 79.280701
-3.8006001 -44.740799 80.674301
-4.2333598 -44.061798 80.843399
-4.2959399 -38.6068 82.352097
-4.3868799 -41.127102 81.895103
-4.43818 -38.311001 81.680496
-4.5193801 -40.650902 82.071999
-4.8355498 -42.585899 81.0998
-2.2755799 -45.335899 80.791603
-1.11988 -44.9744 80.255898
-0.77548599 -44.7677 80.888496
0.42860699 -41.950699 80.167603
0.080922998 -43.668701 80.286499
0.38436899 -42.0023 79.376503
1.01029 -41.8419 79.213997
-2.9010701 -45.215698 81.028397
-2.5434599 -44.546398 80.845497
-3.9890599 -44.327999 81.185699
-4.0777998 -41.085098 81.873398
-4.7711701 -39.9305 81.631203
-4.5713501 -41.0504 81.252296
-4.6449099 -42.851501 81.993698
-5.0582199 -40.676201 81.511002
-2.5546601 -45.060001 80.033897
-1.4842401 -44.297298 80.246201
-2.56741 -44.4622 80.180099
-0.60949701 -44.954601 81.013
-0.664922 -44.2174 80.261101
0.00364 -43.453098 80.154099
1.4777 -39.194099 80.045303
1.26248 -41.152302 80.024498
1.33331 -39.288601 79.943901
-3.1034501 -44.954601 80.2416
-3.3104 -45.072102 81.329597
-2.8062 -44.416302 80.2705
-3.7851601 -44.344601 82.215103
-4.0311198 -43.206902 81.577698
-3.9876599 -38.144299 82.114098
-4.3740201 -39.855 81.4561
-3.9832001 -38.267399 81.956299
-1.99244 -45.048599 80.230103
-1.75186 -44.148499 80.225304
-0.44118801 -43.772499 80.315903
-3.2416201 -43.862301 80.7892
-1.96991 -44.934502 79.880898
-0.123258 -43.470798 80.094398
1.0747 -39.582699 80.200104
1.80186 -39.778599 80.021698
1.8329099 -38.1189 79.699699
0.39624101 -42.120499 79.6222
-1.28069 -44.194401 79.7341
1.46793 -38.176899 79.537903
-3.7792201 -44.774399 81.017601
-3.39379 -45.040699 81.0905
-2.69485 -45.244499 81.1166
-3.5669701 -44.627701 80.485397
-4.1114998 -44.008598 81.929604
-4.3845601 -39.743198 81.974403
-4.1061001 -36.9781 81.9478
-4.5544801 -39.836899 81.538597
-4.4604502 -41.187599 81.460602
-3.89183 -43.692799 80.722504
-3.97528 -37.131302 81.598297
-4.6297498 -43.102901 82.022301
-2.15221 -45.289398 81.165802
-2.46435 -45.154999 81.125702
-0.57662499 -44.641499 79.812897
-0.69067401 -44.5499 79.577202
0.59200102 -41.3881 80.1007
1.90688 -38.207001 80.023499
0.94844401 -40.451199 80.170998
1.00342 -39.524899 80.025497
-0.09742 -44.197399 79.540199
-2.73158 -45.178101 81.385101
-2.4967699 -45.1488 81.137901
-4.4759498 -43.892502 81.288803
-4.5180602 -43.814701 81.026001
-4.0510898 -40.496201 81.8582
-4.27315 -42.638 81.780502
-3.9784601 -37.0765 82.251297
-3.9486201 -39.510601 82.024696
-4.2941399 -42.915298 81.989098
-1.99255 -44.802601 80.522102
-1.99707 -45.046001 80.4272
-1.04163 -44.592999 80.454399
-0.553321 -43.4249 80.138298
1.74371 -38.084 79.939796
0.70962101 -42.524799 80.1092
0.42370501 -42.946701 79.180702
1.3998899 -38.2477 79.509598
0.036109999 -44.050499 79.287102
-3.8787999 -37.004002 82.0681
-4.1111798 -42.582001 81.077499
-4.4973302 -41.524601 82.0802
-5.0317001 -41.898701 81.245697
-3.9691899 -37.2164 81.541901
-5.0535202 -43.072899 81.2136
-2.0617399 -45.336498 80.880699
-2.1538301 -44.103901 80.327202
0.28263801 -43.459099 79.991898
1.2227499 -38.927799 79.466103
1.22316 -38.823002 79.452797
-2.97649 -45.1884 81.077904
-3.7325301 -44.816502 81.154404
-2.8824999 -43.964001 80.602997
-4.2969298 -39.786701 82.066704
-4.0954199 -37.9062 81.479202
-4.6546102 -40.192799 82.2379
-4.0700998 -37.806198 81.456497
-1.9216599 -45.193001 80.084
-0.014408 -43.259102 80.086403
0.70483202 -40.862 80.2276
0.58737099 -41.834499 80.1287
1.28174 -40.5849 80.034203
-0.064896002 -42.308201 79.440399
-0.25119901 -42.436199 79.3573
1.23197 -39.084301 79.694099
-0.27484399 -42.511799 79.334099
-3.5543201 -44.879398 80.702003
-3.63887 -44.706699 81.486397
-4.0693302 -43.9184 81.981598
-4.1752501 -40.919701 81.931396
-4.2673302 -42.453999 81.135803
-4.31143 -39.510502 82.151299
-4.3178802 -41.491299 81.050201
-4.2834401 -43.029301 82.000198
-4.2834001 -41.661701 80.883598
-4.0065198 -38.078098 81.677002
-4.3064899 -41.737301 80.8601
1.26246 -39.483501 80.1092
0.234134 -43.433701 80.157204
0.19690201 -41.8139 79.650803
0.81204402 -41.685902 79.911003
0.98665398 -40.6647 79.561699
-0.70210397 -43.609699 79.321404
-4.0679998 -38.5191 82.049004
-4.0385399 -40.407398 81.9067
-4.1521702 -43.2444 81.6306
-4.2038298 -40.968601 81.316597
-4.4225602 -40.680401 81.892403
-4.0858498 -38.546501 81.373901
-4.4355502 -39.623199 81.614098
-4.3751898 -42.904202 80.7118
-2.1882 -45.254002 80.423599
-1.46331 -45.270901 80.422699
-2.1078501 -44.1964 80.273598
1.22364 -39.855499 80.004799
0.96398401 -39.816299 80.209
0.91368598 -40.3699 80.250099
1.22542 -40.976299 80.045197
1.7983201 -39.881699 80.018997
0.79852301 -40.5784 79.830002
2.11041 -38.578701 79.995003
-3.17118 -45.065102 80.795601
-3.60884 -44.125099 80.914703
-2.9789701 -44.029099 80.603302
-3.7382901 -44.504902 81.915398
-3.7283599 -38.915001 81.985199
-3.84727 -39.455399 82.052299
-4.10463 -39.6366 81.685997
-4.25912 -37.355202 82.406097
-1.36959 -45.273102 80.888496
-1.28125 -45.2206 80.841797
-0.60554999 -44.955898 80.548798
-0.92940301 -45.006599 80.915298
1.71532 -38.513599 79.981003
0.36378399 -42.1749 80.089401
-0.364005 -43.193001 79.878998
0.269164 -43.8689 80.263397
-3.44786 -44.873901 81.675201
-4.0398502 -40.309299 81.913803
-3.9724801 -37.421001 82.133904
-4.15591 -41.306702 81.800201
-4.67767 -39.858601 81.505302
-1.76546 -45.021999 79.764297
-1.7768101 -44.9548 79.723701
-1.2792799 -45.0704 80.649803
-1.52364 -44.701099 80.665199
1.57116 -39.549 80.046204
0.31751299 -41.617901 80.283997
1.33421 -38.544701 80.157097
0.96263897 -40.842999 79.5214
0.46308899 -43.107899 79.455399
-3.8122201 -44.628799 80.539101
-3.8085101 -44.564499 80.492798
-3.81761 -40.823601 81.849297
-3.6049199 -37.595901 82.026703
-3.8362701 -38.584 81.725304
-4.6838498 -39.847 81.785004
-4.9352999 -42.070999 81.498802
-1.34728 -44.8102 80.394997
0.78302199 -40.281502 80.072197
0.18846101 -41.548401 79.699097
1.61938 -40.106499 79.187599
1.17963 -41.503502 79.308403
0.282042 -43.8559 79.7267
-3.8418 -39.393101 81.8228
-4.4492402 -40.102402 82.182503
-4.0805702 -40.728298 81.315002
-4.93329 -38.847801 81.6679
-5.0050802 -40.315498 81.649498
-4.8789601 -42.864498 81.680298
-1.05678 -44.927898 80.012901
0.75800103 -40.973499 80.271004
0.92076802 -40.100201 80.211304
0.85780102 -39.718201 79.562202
1.66049 -39.976799 79.213203
1.14507 -41.6385 79.280403
-3.7892799 -39.195499 81.994202
-4.0376101 -38.777901 81.415199
-4.9032502 -38.716 81.697701
-5.0429602 -40.449799 81.622704
-2.0938399 -44.127201 80.444901
-1.90031 -44.3377 80.139801
-0.45150101 -44.618999 80.7817
1.30167 -39.353001 79.890404
1.14397 -40.198601 79.864098
0.772928 -40.508598 79.633797
1.277 -39.029202 79.441803
-2.8563001 -43.980801 80.733498
-3.25493 -44.077499 80.652496
-3.8304601 -38.7393 82.041199
-3.9549899 -38.5042 82.059601
-4.19909 -39.172298 81.886597
-4.4436798 -39.746201 81.8862
-4.18999 -39.555302 81.512398
-4.1817198 -37.980701 81.508102
-2.4953301 -45.2075 80.966499
-2.5604401 -44.912601 79.894699
-2.2690899 -44.301998 80.735397
-1.65724 -44.1497 80.357697
1.2084399 -41.479 80.1036
-2.5943999 -45.1884 81.004097
-2.61584 -44.2911 80.668503
-2.6051099 -44.237499 80.862602
-3.22279 -43.848999 80.950302
-4.2501898 -43.752499 81.705902
-4.00666 -43.843399 82.025803
-4.08038 -38.714802 82.024101
-4.2150102 -42.721699 81.648804
-3.88556 -42.9603 81.684402
-4.8980198 -40.1539 81.888199
-1.80136 -45.362701 80.621696
-1.64132 -44.805199 79.833504
-2.3110299 -44.792 79.919502
-2.62707 -44.875702 80.204597
-2.4231601 -44.5695 80.800003
1.25002 -39.856998 79.963097
0.536053 -40.8983 79.700104
-1.10794 -43.9618 79.752403
-0.293778 -42.696602 79.352798
-0.20865799 -42.871201 79.324699
1.23445 -38.909698 79.437798
-3.7835 -44.3937 80.644402
-3.2588501 -44.610001 80.278297
-2.8836501 -44.8265 80.301804
-3.11062 -44.428001 81.005997
-3.5244801 -44.5266 81.576202
-4.0261202 -38.642899 82.074898
-4.16681 -40.236 81.982903
-4.32619 -43.246899 81.906197
-3.9243701 -43.420799 80.818497
-4.3414698 -41.919102 80.884903
-4.4754801 -42.051601 80.939796
-1.83854 -45.339802 80.5019
0.294891 -42.6964 80.0979
0.37485 -42.632198 80.066002
0.26059699 -43.512001 80.194298
-0.73374897 -44.925999 81.029404
1.23211 -41.0205 79.555603
-0.115274 -43.4352 79.2771
1.23492 -41.6586 80.051598
-3.2072599 -45.028099 80.641701
-3.2315199 -44.400799 81.308296
-4.2610698 -38.759201 82.280098
-3.87393 -42.9422 81.523102
-4.3264399 -39.760201 82.042603
-4.2723799 -41.819099 81.826698
-4.3274598 -41.728901 81.845901
-4.5026302 -40.1604 82.2892
-3.6790099 -44.360298 82.144302
-4.6184101 -40.087399 82.217102
-4.7295499 -39.882702 81.812698
-4.7544899 -42.543999 81.033096
-4.6172299 -40.534401 82.2668
-2.1828799 -45.342098 80.775597
-1.52958 -45.2047 80.167
-2.4562099 -44.895699 81.015602
-0.94603699 -44.962799 79.952301
0.98958701 -40.905499 79.973701
1.38218 -39.506001 80.039299
1.63855 -38.5839 79.982903
1.1974 -41.106899 80.071899
0.76011503 -40.041599 79.527702
1.5032099 -40.558201 80.089897
-3.9408 -37.512199 82.094803
-4.0971098 -39.108601 81.366302
-4.4208498 -39.4202 82.332298
1.79821 -38.258099 79.969398
0.70280099 -40.2957 79.702797
0.75316799 -42.918301 79.804703
2.03986 -38.344501 79.3871
-3.6407101 -44.360298 81.264503
-3.95432 -37.153099 82.146896
-4.02772 -39.387001 81.493401
-4.64888 -39.861198 81.581902
-4.4042301 -39.854698 81.391602
-4.8510699 -41.841801 81.926003
-4.52388 -37.083698 81.871597
-1.68453 -44.133202 80.254501
1.33322 -39.504398 80.063499
0.35449299 -41.750301 80.318703
1.02829 -40.4202 80.146202
1.67634 -39.499901 79.835098
1.14642 -40.487999 79.985497
0.28809199 -41.986801 79.586998
0.085499004 -43.032299 80.049896
1.4286799 -40.665001 80.086899
0.833166 -42.299999 79.936798
1.29039 -40.535599 79.215103
-3.7068999 -44.577702 81.2995
-3.2646899 -43.8297 80.8526
-4.0831199 -44.425301 81.472603
-4.06323 -38.639 82.060303
-3.8641801 -40.939899 81.915497
-4.0099001 -39.4524 82.053299
-4.2171302 -39.457699 82.015701
-4.3644099 -41.093102 81.348099
-4.2670898 -42.196301 81.697403
-4.4057598 -39.5443 82.295403
-4.6205702 -41.252399 82.001198
-4.8267999 -39.3605 81.530602
-1.2972 -44.987499 80.564003
-1.25925 -44.678299 80.280197
-0.71978998 -45.0219 80.958397
-0.61137098 -44.9618 80.725304
-0.81760597 -44.487598 80.535004
1.41448 -39.5495 79.993103
1.01779 -40.7295 79.967499
0.42669901 -42.471001 80.043602
1.1529 -40.6539 79.992798
-0.064563997 -42.962601 80.1968
1.4399 -39.340698 80.0224
0.42149299 -43.254002 80.184799
-3.7655201 -44.436901 82.111298
-3.9707601 -44.316502 81.996902
-3.6671 -44.305401 81.574997
-4.2512999 -38.5037 82.279701
-3.9465301 -39.9147 82.0093
-4.3253899 -41.558201 81.8424
-4.2709498 -39.612 82.045799
-4.0458598 -42.1978 81.703796
-4.0238099 -38.291199 82.090599
-4.4861002 -42.311298 82.042397
-2.36181 -45.2094 81.226303
-0.55769801 -44.807701 80.0821
-0.48963001 -44.4464 80.090401
1.95186 -38.176399 80.0112
-0.88537598 -44.0522 79.9049
1.20938 -39.011299 80.065697
0.23108201 -43.8428 80.333397
-3.1393399 -44.667 80.9888
-2.5211501 -45.178799 81.286598
-4.0632901 -43.546299 81.561401
-4.0258298 -38.4613 82.086197
-3.9080901 -38.424099 82.051399
-4.0076299 -37.0317 82.267097
-4.01057 -43.451801 81.087898
-3.7286501 -38.062698 81.934898
-2.4714501 -45.2631 80.464996
1.3991801 -39.577099 79.977097
1.52262 -39.114101 79.982803
-0.62094402 -44.9007 81.059303
-0.69697702 -44.885601 81.0317
0.22255901 -42.792599 80.099602
-0.28425801 -42.693501 79.326302
-0.018664001 -43.230099 80.079498
-2.95084 -45.171001 80.6464
-2.5004001 -44.778198 80.972298
-3.0697899 -44.766399 81.215797
-4.0329399 -38.046902 82.085701
-3.73001 -44.303501 82.236099
-3.68996 -44.310699 82.164597
-4.2523198 -41.932999 81.793503
-4.8282199 -38.525902 81.699402
-4.3640499 -41.909801 80.870598
-4.2401099 -42.419201 81.677399
-1.96398 -45.209499 80.282402
-1.90641 -44.890598 80.705399
-2.5443299 -44.964802 80.849197
-0.33476299 -44.159 80.238503
1.4400899 -39.241199 80.098396
0.207662 -41.776001 79.484001
1.42901 -39.434502 79.351196
1.67421 -39.844002 79.2286
0.86383098 -40.490002 79.335701
1.25201 -41.527401 79.396202
1.85914 -39.248901 79.574699
-2.5566499 -44.962399 80.853798
-4.1059899 -42.5923 81.670998
-3.97595 -38.479198 82.072601
-3.9397299 -38.380699 81.876801
-3.9428101 -38.207199 82.136002
-4.6592102 -38.4044 81.7668
-4.3059402 -40.908901 81.192497
-4.59935 -40.3125 82.311798
-4.8596601 -38.588902 81.701797
-4.4382901 -39.4716 81.342697
-5.0068302 -40.325199 81.765404
-4.57235 -38.013401 82.009201
-1.77461 -45.146099 80.892799
-0.87049401 -44.900398 79.769997
-0.67693102 -44.998699 81.017097
-0.64021403 -44.591599 79.6661
1.12023 -41.0994 80.056602
0.68323898 -40.807201 80.076202
0.90668899 -39.675701 80.056198
0.49450901 -42.216499 79.968498
-0.27868199 -43.186699 79.817398
0.73290098 -40.354401 79.917297
1.29023 -40.644199 80.044403
0.13778 -42.328701 79.2771
0.185636 -41.6978 79.5
0.73696601 -40.856602 79.415199
0.097833999 -43.834 79.270401
-4.3835802 -44.225498 81.0998
-3.7500501 -44.408401 82.180397
-4.5096598 -43.848301 81.130798
-4.0921898 -38.485901 82.076897
-3.7408299 -38.783001 81.815399
-4.3378201 -41.2883 81.797699
-4.4049802 -39.805599 81.538101
-3.9301 -39.458599 81.682404
-4.33005 -39.564602 82.171799
-4.5700498 -41.4244 81.059097
-4.25493 -40.844799 81.180901
-5.0366201 -42.847801 81.213997
-1.89891 -44.329899 80.1203
-0.25866401 -43.3269 80.261398
-0.017442999 -43.957699 80.350197
-3.2658601 -44.067299 80.637802
-4.3822598 -42.459301 81.816498
-4.54316 -38.538502 82.263901
-4.7624302 -42.870399 81.8713
-0.81917697 -45.019699 80.206497
-0.69870698 -45.011101 80.547401
1.2884099 -38.353401 79.951897
0.719356 -40.3969 79.675301
-1.21867 -44.1082 79.944801
1.73141 -40.324799 79.689201
1.65104 -40.4408 79.456398
-4.0402899 -44.369301 81.812302
-4.1008 -38.515099 82.058601
-3.7049799 -38.722801 82.008003
-3.6424201 -37.4062 81.818398
-4.0897498 -39.473202 81.495697
-3.7717099 -43.617802 80.911201
-4.7603898 -39.077801 82.1465
-4.8916702 -39.183998 81.932999
-1.35852 -45.259701 80.685303
-2.2883401 -44.888401 80.009102
-0.93467098 -45.009701 80.110397
-0.70018899 -44.438599 80.532097
0.27229199 -41.9557 80.198898
-0.336972 -43.9491 80.160698
-0.23192701 -42.5061 79.933701
1.83426 -39.0937 80.097
0.39861599 -42.9459 80.237099
-3.2484901 -44.703999 80.372597
-3.9622099 -44.214802 82.069199
-3.95081 -41.144501 81.797401
-3.9498301 -41.791901 81.341003
-4.1694899 -37.940399 82.369598
-4.3363299 -42.036301 82.029404
-1.40327 -44.7118 80.6278
-1.60595 -44.146599 80.1614
-0.72267598 -44.993698 80.190002
-0.511747 -43.275501 79.946297
0.290714 -43.767899 80.220001
0.940651 -39.518398 79.451797
1.04335 -42.139999 79.994301
-2.8556299 -44.580601 81.148499
-3.3833499 -43.805099 80.834198
-4.0215201 -39.895802 81.696404
-4.1008501 -38.549999 81.360199
-4.67765 -41.041 82.159798
-1.55154 -45.160702 80.902298
-1.95109 -44.474701 80.0382
0.33790901 -41.355099 80.207199
1.3680201 -39.8647 79.9907
1.58874 -38.677502 79.943703
-0.34961399 -43.949501 80.166298
1.38632 -40.240101 79.959503
0.923096 -42.0742 80.115898
-0.054703001 -43.3876 79.405197
0.85421801 -42.098099 79.355202
-0.1675 -44.122101 79.294502
-3.5232201 -44.791 81.692299
-3.7955599 -40.561199 81.771797
-3.9618299 -37.611301 82.044701
-4.3197398 -39.144001 82.1194
-4.4946599 -41.033501 82.166702
-4.9425802 -40.9846 81.5494
-4.8106499 -39.9818 81.853996
-4.9306598 -43.2071 81.097397
-1.9227 -45.236801 80.765404
-0.869376 -44.640202 80.669197
1.41119 -39.775299 80.0093
0.60918498 -41.955601 79.986397
0.235772 -41.335899 79.6912
0.96558899 -39.5336 79.5868
0.33599299 -43.008099 79.196701
1.47765 -39.191799 79.4972
-3.14586 -44.151001 81.131699
-4.2786698 -42.744099 81.805099
-4.3210802 -41.008598 81.8526
-4.0493102 -40.512798 81.313202
-4.5830302 -39.8372 81.468498
-4.9805198 -41.9869 81.209099
-4.3385201 -38.0746 81.698799
-4.8365102 -43.227299 81.638496
-0.88887203 -45.053699 80.835503
1.03163 -40.882599 79.986
0.86942703 -41.2094 79.988197
0.89251602 -40.298 80.247398
1.17138 -38.848 79.968002
-0.71928799 -43.6269 79.515099
1.12111 -39.398998 79.439301
0.74726099 -40.028599 79.450897
1.40571 -40.538601 79.338402
-3.31622 -44.577702 81.449097
-3.8138299 -44.515499 81.642303
-3.8034 -40.312901 81.838997
-3.81089 -39.3946 82.027802
-4.21241 -42.427399 81.306198
-3.7118599 -37.91 81.816399
-4.3687801 -43.059601 82.098
-4.2446299 -42.949799 80.849503
-4.1332202 -39.091099 81.298302
-4.8287802 -39.341 81.698303
0.506091 -41.327301 80.184502
-0.487331 -43.7743 80.3321
0.23511399 -42.725899 80.1455
0.43076801 -41.013599 79.486504
-0.18116499 -43.001301 79.822197
1.46149 -39.157902 79.391502
1.3225501 -41.524601 79.828697
-2.9188001 -45.198299 81.192596
-3.9178801 -40.477501 81.859001
-4.0825801 -43.140598 81.612602
-3.89906 -40.249401 81.5989
-4.2098799 -41.872002 81.828102
-4.2177901 -42.225899 81.350098
-4.3840199 -38.035099 81.604202
-4.7774901 -40.352798 82.137703
-2.2532401 -44.982899 80.092903
-2.11904 -44.196301 80.2575
-0.15191799 -43.498001 80.103203
1.09636 -40.552399 79.935898
-0.22071899 -44.160801 80.268097
0.86474401 -39.632999 79.475098
0.23658501 -41.817799 79.442703
2.14411 -38.73 79.8797
-3.24998 -44.791401 80.469902
-3.1029301 -45.0811 81.445999
-2.9814899 -44.030602 80.5839
-4.1691098 -44.173599 81.808197
-4.2350998 -39.528301 81.954002
-4.0704999 -38.685001 81.3433
-4.3661098 -40.933601 81.184998
-4.4057899 -37.471901 82.359001
-2.24962 -45.212002 80.279198
-1.96091 -44.860699 79.806702
-2.0191901 -44.313599 80.677597
-1.9541 -44.487701 80.054604
-0.57849997 -44.778198 79.911301
-0.58744001 -44.238499 80.239304
0.37755799 -41.951599 80.216904
0.55869699 -41.926201 79.9916
0.57699198 -41.578602 80.199097
0.891725 -40.438 80.224098
1.47341 -39.082401 80.071297
0.17343301 -41.737499 79.757896
0.26095501 -42.747398 80.116898
1.29125 -41.270901 80.093399
1.20602 -41.534 80.064697
0.32227099 -43.7113 79.910599
0.194952 -43.309101 80.004204
-3.59677 -44.546398 80.425903
-2.81954 -44.159801 80.980499
-3.3210499 -44.225101 80.571999
-4.1604199 -44.384602 81.335602
-4.45613 -44.033401 81.378799
-4.0110002 -41.108601 81.878098
-4.1231599 -38.357498 82.175797
-4.2730799 -40.9981 81.820602
-4.0395298 -40.691898 81.946602
-3.8708899 -39.523201 82.026802
-4.4177399 -38.5802 82.375702
-3.9316199 -38.044102 82.117302
-4.0939398 -40.917801 81.373299
-4.2532101 -41.880299 81.8256
-4.5481801 -40.428699 82.242897
-4.4625301 -42.414501 81.767197
-2.53601 -45.2234 80.5084
-0.69656801 -44.341702 79.664703
-0.163219 -43.480701 80.105103
0.89425302 -40.811199 80.135498
1.2521501 -39.660599 80.119202
-0.95651501 -44.014 79.709702
-2.86519 -45.160099 80.633003
-3.1663101 -45.066299 81.325104
-3.1968999 -44.201698 81.2397
-4.3900499 -43.632198 81.062798
-4.0739598 -43.415199 80.889702
-1.95726 -44.833 79.800102
-0.64278501 -44.8587 79.882896
-0.952649 -44.307701 80.275703
0.422077 -42.433998 80.035896
0.53990901 -42.3941 80.093102
1.5998501 -39.220901 80.021004
1.6670099 -40.128601 80.003502
1.61667 -40.2477 79.974998
-3.5944901 -44.518501 80.419899
-3.9348099 -44.4165 81.3367
-4.45578 -44.126301 81.326202
-4.04562 -38.511902 82.059601
-4.3472099 -41.455299 81.943001
-4.3150902 -41.523998 81.829002
-4.5596499 -38.578899 82.273598
-4.0967999 -38.126598 82.177399
-4.4501801 -38.953602 82.319
-4.4723001 -39.078098 82.2798
-2.1398799 -44.970402 80.2593
-0.612293 -44.939899 80.390198
-0.46165901 -44.575199 80.814697
-0.82559502 -44.6992 80.781197
1.06192 -39.7957 80.176102
0.91817498 -40.2994 80.256401
0.85933298 -40.847 79.482498
-1.28522 -44.195 79.747498
1.64639 -39.973701 79.199303
0.81345302 -42.0513 79.2453
-2.9885399 -45.1581 81.239197
-3.2178299 -44.763302 80.667297
-4.3048501 -43.871101 81.648697
-3.82341 -39.388599 82.051201
-3.9346499 -43.096699 81.637802
-3.8803101 -43.696602 80.729797
-4.90131 -38.716 81.677803
-4.9695201 -40.940498 81.434303
-4.6764398 -43.342701 81.712799
-1.97369 -45.2033 80.498398
-1.81626 -45.293999 80.977402
-2.19473 -44.836601 80.937599
1.76355 -39.677399 80.017601
1.39867 -38.854599 80.224998
-0.110968 -43.226299 79.724998
0.198063 -42.771 80.135201
0.416722 -41.0243 79.653999
0.75152302 -40.334499 79.504402
-0.223423 -42.9342 79.8395
-3.78701 -44.601002 80.980202
-3.1287501 -44.860298 80.155403
-4.2828202 -44.264599 81.083
-3.70701 -37.873901 82.1576
-4.2697001 -39.809601 81.553299
-4.20543 -41.925098 81.802101
-4.2014298 -39.383099 81.379204
-4.1554699 -42.178902 81.327904
-1.9069 -44.924301 80.852097
-1.2525001 -44.4347 80.167801
-1.6924 -44.430199 80.581596
-0.84061801 -44.744701 79.543098
-0.073533997 -43.367199 80.098099
1.32673 -39.5354 80.050903
0.38726801 -42.4174 80.040802
0.61699498 -42.346401 80.037102
0.78061199 -41.774899 79.954201
0.73853397 -40.050499 79.730598
0.55443799 -40.909901 79.564697
0.68017501 -42.090599 79.2789
0.77186 -39.952702 79.435997
1.54855 -40.482101 80.055397
-2.98439 -44.7174 81.260002
-4.4992399 -44.042 80.927902
-3.91292 -38.863701 82.021004
-4.2309899 -40.4576 81.818802
-4.2823801 -41.520401 81.808296
-4.4211898 -41.378601 81.944199
-4.4019899 -40.7794 81.916
-4.7630901 -38.5089 81.796402
-3.95491 -39.148998 81.507103
-4.5389199 -42.714802 82.007599
-4.8681698 -41.024799 81.379097
-4.13517 -39.010101 81.293404
-4.4496799 -39.329899 82.325897
-2.62078 -44.810101 79.976501
-1.53763 -44.257401 80.151199
1.24674 -40.173901 79.877197
2.1210101 -38.337898 79.695602
-3.01297 -44.734798 80.125
-3.4734499 -43.885601 80.883904
-3.7681899 -38.663601 82.043098
-4.2540202 -39.117298 81.959396
-4.3801999 -37.0891 82.156403
-2.5778899 -45.1749 80.555397
-1.4865201 -45.287601 80.9534
-1.75595 -44.147499 80.202599
-0.85689199 -45.053501 80.780403
0.91528201 -41.033798 80.020203
1.01938 -40.806 80.003601
1.34429 -39.7621 79.974297
0.80325103 -40.824699 80.200401
-0.31610101 -43.559399 80.307899
0.26362601 -41.571899 80.157997
0.26905799 -41.477299 80.144997
0.217941 -42.275002 79.5513
0.76105201 -40.093201 79.938499
0.86125702 -42.2607 80.037697
1.1159101 -40.7043 79.538498
0.40850201 -42.934601 79.160301
0.72823399 -40.153 79.4198
-3.0250199 -45.173599 80.967796
-2.79019 -45.134102 80.635696
-3.3296599 -44.933498 81.6511
-3.25302 -43.860001 80.769302
-3.98312 -44.450901 81.4589
-3.86181 -42.834599 81.667
-3.84604 -40.782501 81.7136
-3.8273301 -40.690399 81.695602
-4.4323401 -41.381699 81.3116
-3.8510499 -39.207199 81.684303
-4.5625901 -41.218899 82.090797
-4.5530901 -39.615398 81.684303
-5.0302901 -41.8899 81.219002
-4.18046 -39.210098 81.277901
0.29306301 -42.297001 80.141403
0.047998998 -42.416 80.402298
1.5440201 -39.149601 79.9832
0.289287 -42.029701 79.662804
1.52048 -39.511501 79.297203
0.19478799 -43.016701 79.203201
-4.1132002 -41.4506 81.809196
-3.8143301 -41.674 81.864304
-4.0591202 -38.073299 82.104103
-4.3305502 -41.1423 81.411499
-4.6002698 -43.148998 80.855598
-4.8810101 -42.041698 81.124496
-2.4485199 -45.237499 81.071999
-2.1858001 -45.021999 81.042503
-2.1435699 -44.403801 80.777702
-0.41037399 -43.279301 79.302498
-3.1108899 -44.772598 81.079803
-2.5690501 -45.214298 81.117599
-2.70034 -44.923199 81.237297
-2.6982901 -44.297199 80.987602
-4.0925899 -43.237499 81.341202
-4.48241 -42.497101 80.843903
-2.3654001 -45.248199 81.216599
-0.69018 -45.0075 80.934601
-0.042693999 -43.312199 80.1017
1.57364 -39.882198 80.071701
1.22316 -40.259201 79.871101
-0.67146802 -43.436199 79.389397
-0.54898399 -44.118099 79.830399
0.988581 -40.5863 79.416496
0.278283 -41.240101 79.502998
0.64654601 -40.8703 79.4403
1.43091 -40.4524 79.207703
-2.5375199 -45.215199 81.2817
-3.9368899 -44.160702 82.1092
-4.0912299 -42.943901 81.683998
-4.26932 -39.204201 81.950104
-4.2964101 -42.739899 80.761497
-4.5044398 -39.531101 81.495796
-4.1683698 -40.385899 81.186203
-4.9020901 -39.235901 81.604897
-2.5566101 -44.548599 80.300903
1.34667 -39.526199 80.051399
1.1968 -39.950699 79.883904
1.37967 -39.479099 80.0466
0.46162 -42.337502 80.083603
0.83094102 -40.5956 79.955399
0.244027 -41.3139 79.7631
-0.101223 -42.5658 80.3955
0.33371401 -42.1399 79.871399
1.73141 -40.014198 80.042198
0.94708198 -42.028801 80.133003
-1.23962 -44.056801 79.761597
2.0359399 -38.230801 79.689102
0.19656301 -41.467499 79.498299
-2.7643499 -44.508701 80.379501
-4.1423998 -38.925098 81.9049
-4.2646399 -42.418201 81.6716
-3.9328799 -42.844898 81.7062
-4.2805099 -41.426601 81.878601
-4.0523 -39.6576 81.803802
-4.00176 -40.498402 81.3703
-3.7637899 -41.862301 81.781898
-4.2634602 -41.256802 81.611603
-4.48563 -40.985298 82.1894
-3.85795 -43.553902 80.752701
-4.2681899 -38.331902 81.490601
-4.2904201 -37.015598 82.083702
-4.1886702 -40.625198 81.158203
-2.0230899 -44.740501 80.833397
-0.52184099 -44.3186 80.1772
1.0907 -39.916 80.075897
0.80703998 -41.336399 79.937798
1.0662 -40.526199 79.935303
0.227236 -43.613899 80.245003
-1.0928 -43.972198 79.816704
-0.026998 -44.138901 80.337502
0.25069299 -44.040699 80.175003
0.079393998 -43.9664 79.2742
-3.0710299 -44.666199 81.146004
-2.9776001 -44.818001 81.329697
-3.9342 -38.950699 81.977997
-4.2060499 -39.5135 81.930901
-3.8970499 -43.433601 80.878197
-5.0644598 -42.978298 81.221298
-2.32516 -44.854801 80.978798
0.508766 -42.095699 80.036301
0.89185399 -40.090401 80.2033
0.80695403 -39.974602 80.057297
1.57244 -38.108101 79.736801
1.21588 -39.120098 79.907898
1.15974 -41.3256 79.262199
0.221352 -43.1707 80.105499
-3.82215 -44.552399 80.619301
-3.27665 -44.8293 81.555298
-2.5899601 -44.804001 81.079002
