# .PCD v.7 - Point Cloud Data file format
VERSION .7
FIELDS x y z
SIZE 4 4 4
TYPE F F F
COUNT 1 1 1
WIDTH 1762
HEIGHT 1
VIEWPOINT 0 0 0 1 0 0 0
POINTS 1762
DATA ascii
-33.086399 49.68 137.686
-33.3298 75.392799 141.638
-33.220798 50.319 141.929
-33.1408 48.813202 137.993
-33.372799 90.620697 140.8
-33.6325 87.441002 140.67799
-33.2673 46.397499 138.955
-33.280701 49.450298 142.26601
-33.276798 44.6544 139.621
-33.4151 47.0369 143.32001
-33.429501 45.3083 144.02699
-33.300701 45.533001 139.27
-33.454601 46.173401 143.658
-33.674702 77.570297 140.60201
-33.8867 79.452698 140.79401
-34.026501 82.699303 139.84801
-33.835499 84.771698 140.41701
23.369101 41.818001 117.4
20.7535 41.460499 115.885
20.634199 43.049599 115.458
17.155899 41.637299 113.972
16.9559 42.985298 113.736
16.825899 44.605202 113.531
16.5758 47.813499 113.324
16.4524 49.385899 113.196
12.6853 41.717701 112.472
12.6117 43.1049 112.38
12.4946 44.823399 112.461
12.3098 48.156898 112.579
12.2259 49.803699 112.606
12.163 51.316502 112.695
8.0301399 42.035999 111.755
7.99259 43.485001 111.837
7.9625902 44.937 111.994
7.8877401 48.7164 112.452
7.8538399 50.4608 112.592
7.9313798 52.012199 112.732
7.9735699 54.998001 112.98
3.6573601 42.428299 111.572
3.6459 43.940201 111.747
3.6142001 45.420502 111.985
4.4769001 55.6026 113.025
4.2211199 52.5695 112.808
3.6463799 49.277401 112.528
3.59201 51.2033 112.699
2.4681499 55.856201 112.946
2.7688 52.7435 112.791
2.2699101 57.430801 112.982
0 42.549999 111.698
0 44.164001 111.896
0 45.748699 112.156
0 49.904499 112.621
0 51.3419 112.763
0 53.014 112.854
1.30869 74.004204 105.752
0 55.915298 112.948
0 57.5411 112.963
1.65957 61.185299 111.461
1.5525301 63.837101 109.482
1.73078 61.783501 110.629
1.0112 61.224098 111.499
1.38989 61.386501 110.841
1.4133 61.938801 109.965
1.18311 61.508099 110.373
0.99852598 61.474899 110.815
0.99389303 66.973999 109.118
0.91586298 63.990898 109.047
0.86294901 62.030701 109.458
0.82320398 61.569 110.015
0 74.044296 105.903
0.57204801 61.487 111.407
0.68202001 61.562 110.779
0 67.103401 108.922
0 64.138298 108.843
0 62.1073 109.141
0 61.607498 109.704
0 61.857899 110.312
0 61.825199 111.025
0 60.983799 112.207
-2.2699101 57.4263 112.979
-0.57204801 61.486099 111.406
-2.4681499 55.8512 112.942
-2.7688 52.737701 112.788
-0.68202001 61.561001 110.778
-0.99389303 66.973 109.117
-3.59201 51.195599 112.694
-0.82320398 61.567902 110.014
-0.91586298 63.989799 109.046
-1.30869 74.004097 105.752
-3.6463799 49.269402 112.524
-0.86294901 62.029598 109.457
-3.6142001 45.412498 111.981
-3.6459 43.932098 111.743
-3.6573601 42.420101 111.568
-1.0112 61.2225 111.498
-0.99852598 61.4734 110.813
-1.18311 61.506401 110.372
-1.4133 61.936798 109.963
-1.5525301 63.835201 109.48
-1.38989 61.384399 110.84
-1.65957 61.182701 111.459
-1.73078 61.780998 110.626
-4.4769001 55.593399 113.019
-4.2211199 52.560501 112.803
-7.8538399 50.443501 112.582
-7.8877401 48.698898 112.442
-7.9313798 51.994999 112.722
-7.9625902 44.919102 111.986
-7.99259 43.466801 111.829
-8.0301399 42.017601 111.747
-7.9735699 54.981201 112.97
-12.163 51.289398 112.68
-12.2259 49.7761 112.591
-12.3098 48.128799 112.565
-12.4946 44.794102 112.448
-12.6117 43.0751 112.368
-12.6853 41.687302 112.46
-16.4524 49.347 113.177
-16.5758 47.773499 113.306
-16.825899 44.563202 113.514
-16.9559 42.9422 113.719
-17.155899 41.593102 113.956
-20.634199 42.992802 115.439
-20.7535 41.4025 115.867
-23.369101 41.759102 117.384
2.4667301 117.46 161.063
2.9110799 117.573 160.15199
2.97507 117.796 158.90401
2.6001899 117.964 158.002
1.85866 117.9 157.235
0 117.527 156.74699
0.94379503 117.683 156.799
1.79846 117.395 161.67999
0.97799301 117.394 162.019
-0.94379503 117.683 156.799
-1.85866 117.9 157.235
-2.6001899 117.964 158.002
-2.97507 117.796 158.90401
-2.9110799 117.573 160.15199
-2.4667301 117.46 161.063
-1.79846 117.395 161.67999
-0.97799402 117.394 162.019
0 117.407 162.12399
3.6554999 115.737 158.60899
3.4660101 115.583 160.203
2.8313 115.452 161.32401
2.04445 115.418 162.03
1.1588 115.442 162.39101
3.2450199 115.917 157.011
1.13053 115.791 155.627
2.29568 115.993 156.048
0 115.629 155.40401
-1.13053 115.791 155.627
-2.29568 115.993 156.048
-3.2450199 115.917 157.011
-3.4660101 115.583 160.203
-3.6554999 115.737 158.60899
-2.8313 115.454 161.323
-2.04445 115.423 162.03
-1.1588 115.445 162.39101
0 115.477 162.506
2.5870199 119.735 160.12199
2.23681 119.59 160.92999
1.65168 119.57 161.507
0 119.65 161.897
-0.898619 119.613 161.819
2.26004 120.175 158.32001
2.60502 120.006 159.173
1.62327 120.198 157.709
0.83186001 120.143 157.34599
0 120.104 157.207
-0.83186001 120.143 157.34599
-2.26004 120.175 158.32001
-1.62327 120.198 157.709
-2.60502 120.006 159.173
-2.5870199 119.735 160.12199
-2.23681 119.59 160.92999
-1.65168 119.57 161.507
0.898619 119.613 161.819
0.57943201 115.459 162.44099
-0.57943201 115.46 162.44099
-0.49676299 117.406 162.097
0.49676299 117.406 162.097
-4.4152098 113.864 160.745
-3.3566999 113.799 162.054
-2.3974299 113.867 162.714
-1.60715 113.926 162.97701
-0.74541903 113.994 163.05701
0 114.047 163.078
0.74541903 113.992 163.056
1.60715 113.922 162.976
2.3974299 113.863 162.71201
3.3566999 113.795 162.052
4.4152098 113.864 160.745
4.8394899 114.351 158.451
4.4154501 115.054 156.19299
3.04337 115.782 154.806
1.33795 115.748 154.16
0 115.617 153.937
-1.33795 115.748 154.16
-3.04337 115.782 154.806
-4.4154501 115.054 156.19299
-4.8394899 114.351 158.451
-1.03464 149.55099 136.395
-1.1765 149.28 136.11501
-1.1765 148.992 135.81599
-1.03464 148.72099 135.536
-0.76802802 148.50101 135.30701
-0.40882501 148.35699 135.158
0 148.30701 135.106
0.40882501 148.35699 135.158
0.76802802 148.50101 135.30701
1.03464 148.72099 135.536
1.1765 148.992 135.81599
1.1765 149.28 136.11501
1.03464 149.55099 136.395
0.76802802 149.772 136.62399
0.40882501 149.916 136.77299
0 149.966 136.825
-0.40882501 149.916 136.77299
-0.76802802 149.772 136.62399
-0.94844699 152.14799 133.81799
-1.07848 151.899 133.561
-1.07849 151.63499 133.28799
-0.94844699 151.38699 133.03101
-0.704054 151.185 132.821
-0.374787 151.05299 132.685
0 151.007 132.63699
0.374787 151.05299 132.685
0.704054 151.185 132.821
0.94844699 151.38699 133.03101
1.07849 151.63499 133.28799
1.07848 151.899 133.561
0.94844699 152.14799 133.81799
0.704054 152.35001 134.028
0.374787 152.48199 134.16499
0 152.528 134.21201
-0.374787 152.48199 134.16499
-0.704054 152.35001 134.028
-0.862257 154.744 131.242
-0.98047298 154.51801 131.008
-0.98047298 154.278 130.75999
-0.862257 154.05299 130.526
-0.640082 153.869 130.336
-0.340747 153.74899 130.211
0 153.707 130.168
0.340747 153.74899 130.211
0.640082 153.869 130.336
0.862257 154.05299 130.526
0.98047298 154.278 130.75999
0.98047298 154.51801 131.008
0.862257 154.744 131.242
0.640082 154.92799 131.43201
0.340747 155.048 131.55701
0 155.09 131.60001
-0.340747 155.048 131.55701
-0.640082 154.92799 131.43201
-0.862257 154.97701 131.017
-0.98047298 154.752 130.783
-0.98047298 154.51199 130.534
-0.862257 154.286 130.30099
-0.640082 154.10201 130.11
-0.340747 153.98199 129.98599
0 153.94099 129.942
0.340747 153.98199 129.98599
0.640082 154.10201 130.11
0.862257 154.286 130.30099
0.98047298 154.51199 130.534
0.98047298 154.752 130.783
0.862257 154.97701 131.017
0.640082 155.161 131.207
0.340747 155.28101 131.33099
0 155.323 131.37399
-0.340747 155.28101 131.33099
-0.640082 155.161 131.207
-0.77019101 155.282 130.649
-0.87577802 155.08 130.44
-0.87577802 154.866 130.218
-0.77019101 154.664 130.009
-0.57174599 154.5 129.839
-0.30438501 154.39301 129.728
0 154.371 129.675
0.30438501 154.39301 129.728
0.57174599 154.5 129.839
0.77019101 154.664 130.009
0.87577802 154.866 130.218
0.87577802 155.08 130.44
0.77019101 155.282 130.649
0.57174599 155.446 130.819
0.30438799 155.55299 130.92999
0 155.606 130.95399
-0.30438799 155.55299 130.92999
-0.57174599 155.446 130.819
-0.60714698 155.45399 130.17101
-0.60714698 155.14799 129.853
-0.32322201 154.91299 129.61
0 154.84599 129.541
0.32322201 154.91299 129.61
0.60714698 155.14799 129.853
0.60714698 155.45399 130.17101
0.32322201 155.69 130.41499
0 155.756 130.48399
-0.32322201 155.69 130.41499
0 155.564 130.063
0 155.25999 129.748
-2.3299201 96.557701 105.805
-2.2746401 94.119301 106.046
-2.97522 102.54 105.834
-2.3283501 91.985397 107.085
-2.56954 89.446602 108.565
-2.5695601 107.241 108.877
-3.03866 86.860001 109.187
-3.1645501 118.76 130.994
-3.41184 117.774 126.527
-3.5740199 116.743 123.15
-3.80112 115.659 120.425
-4.1573501 114.655 117.923
-4.4079199 113.461 115.359
-4.3087101 111.877 112.579
-3.6677201 109.946 110.325
-4.3793998 93.712196 104.13
-4.6629 96.065201 102.857
-5.1965899 99.251503 102.332
-5.9755101 102.003 102.194
-4.3548102 91.183403 106.01
-4.4810901 112.672 113.807
-5.8292398 109.374 107.155
-4.48627 106.18 105.857
-4.5423398 87.655899 107.696
-5.3947802 119.439 130.886
-7.3323302 105.711 102.791
-4.6006298 83.865898 110.006
-5.2408299 83.981499 109.445
-5.6054502 118.724 126.566
-5.7736402 117.75 122.823
-6.006 116.618 119.574
-6.6349902 111.918 109.538
-6.6985402 115.817 116.822
-6.7817798 114.215 113.434
-6.8428602 112.958 110.957
-7.6964102 94.210503 101.422
-8.3419304 99.123299 98.907097
-7.9815202 90.7593 103.534
-8.1966896 108.656 104.448
-8.0732498 83.7099 107.343
-8.9577999 102.538 99.118301
-7.7867398 119.889 131.146
-7.7961302 119.296 126.882
-7.7472501 118.464 123.147
-8.3814697 111.989 107.78
-10.5071 105.943 99.768097
-7.45116 117.218 119.559
-8.4902897 113.081 109.277
-8.5946503 114.791 112.26
-8.7745895 116.612 115.833
-9.3078499 117.951 119.634
-9.9164801 109.629 104.075
-10.9436 74.463303 112.984
-10.9703 73.110901 114.065
-9.8333302 118.981 123.525
-8.8251104 95.408997 99.291199
-8.91998 100.253 97.999702
-9.5109501 92.816002 100.953
-10.0132 120.011 131.55
-10.6392 76.728203 111.127
-10.965 79.262299 108.768
-9.7722797 119.647 127.364
-10.4072 88.529602 102.502
-9.5232296 112.634 107.714
-11.6026 82.376701 106.024
-9.6507998 102.866 97.967697
-12.7251 86.202797 102.485
-9.8515902 114.951 111.388
-10.2066 116.922 115.268
-11.2737 105.559 98.383202
-10.8013 118.2 119.463
-10.7431 115.307 111.136
-10.4711 113.044 107.42
-10.3139 110.043 104.017
-11.4629 119.127 123.775
-10.1923 93.961502 98.985199
-11.2189 90.480003 100.256
-9.5798798 96.789703 97.714401
-11.2038 107.216 100.132
-11.1526 117.215 115.136
-11.9034 119.843 131.994
-11.0526 119.699 127.739
-12.4029 119.476 127.861
-11.9439 111.858 104.355
-12.1801 114.243 107.58
-12.3477 109.253 100.838
-11.7943 118.37 119.433
-12.0945 106.926 98.68
-12.5111 116.181 111.168
-13.2831 88.223602 100.474
-13.0079 117.763 115.216
-14.1473 78.7341 107.188
-13.9467 75.619102 110.073
-14.3895 73.142502 111.96
-12.5056 119.141 123.748
-12.7782 108.358 99.210701
-12.4509 106.995 97.955803
-11.6764 105.734 97.580704
-10.495 103.2 96.9692
-14.6127 81.639503 104.633
-13.7738 118.678 119.544
-14.5238 71.626404 113.246
-13.4071 119.394 132.27499
-13.3992 119.357 127.949
-15.6156 84.527397 102.219
-14.3518 114.041 105.093
-14.5088 115.498 108.03
-14.0613 112.144 102.158
-13.1209 108.324 98.502502
-14.5653 119.223 123.913
-14.8755 116.879 111.455
-14.0881 110.654 100.337
-13.5106 107.352 96.314102
-13.9726 108.687 96.673103
-12.3186 106.476 96.1511
-15.3744 117.954 115.49
-14.3488 110.239 99.329201
-14.3394 119.15 132.339
-15.7855 86.329102 100.463
-15.3584 119.178 128.23
-14.4827 109.944 98.193298
-14.6161 109.698 97.055496
-16.163 118.489 119.721
-16.0667 118.756 132.51601
-16.1119 114.679 105.718
-15.6012 113.128 102.677
-15.8562 113.071 102.559
-16.986099 118.711 124.118
-15.5748 111.308 98.726898
-15.6406 111.828 100.055
-16.5397 116.035 108.78
-15.5088 110.846 97.398903
-17.617599 71.723198 111.59
-16.92 74.674698 109.491
-16.9072 78.617996 106.066
-17.1441 81.168198 103.911
-17.0632 116.932 112.152
-17.562599 82.727097 102.761
-18.092899 69.7752 113.094
-17.701599 118.33 128.41701
-17.432301 117.584 115.857
-16.7703 112.13 98.898697
-16.820299 112.546 100.207
-16.7199 111.769 97.591003
-18.1975 117.788 119.949
-16.808201 113.656 102.759
-16.9685 115.047 106.114
-17.9196 84.801697 100.254
-17.853701 83.195 101.997
-18.3407 117.603 132.714
-17.3218 114.41 104.424
-19.031 117.704 124.318
-17.5632 115.994 108.943
-18.2593 114.779 106.295
-18.118601 112.576 99.2034
-18.1301 112.882 100.484
-18.107 112.32 97.924004
-17.6381 113.837 102.938
-18.4161 113.784 103.2
-19.1297 113.577 103.519
-19.6796 113.326 103.785
-19.1674 78.131401 105.475
-19.2903 80.637604 103.658
-19.258699 73.784401 109.194
-19.073099 116.401 112.877
-19.305401 115.621 109.596
-19.2717 116.869 116.385
-19.401899 81.661598 103.024
-19.694599 117.039 128.48
-20.051001 70.842102 111.962
-19.8762 116.826 120.257
-19.3417 112.811 100.832
-19.608601 82.297897 102.058
-19.7705 114.461 106.766
-19.648399 83.4338 100.348
-19.3323 112.577 99.547401
-19.323 112.394 98.2659
-17.535101 112.237 95.801399
-16.374701 111.408 95.593597
-18.5702 112.574 96.054001
-20.365999 115.992 132.82899
-20.373501 69.2033 113.711
-20.617399 113.063 104.047
-20.327299 112.532 101.158
-20.599001 116.483 124.539
-20.984301 112.24 101.252
-21.077801 115.753 116.899
-21.069 115.378 113.758
-21.2498 114.722 110.357
-20.3064 112.35 99.839401
-20.285299 112.22 98.5243
-19.4223 112.619 96.250702
-21.1115 115.739 128.638
-21.4671 79.913101 103.755
-21.438999 80.943703 103.063
-21.508801 77.671097 105.384
-21.5273 73.360497 109.143
-21.565901 113.804 107.281
-21.3325 115.724 120.484
-21.5522 81.511597 102.1
-21.5711 82.197098 100.796
-21.446699 111.988 101.277
-21.599899 70.687103 112.549
-21.9869 112.565 104.416
-21.837 114.427 132.98
-21.879801 115.172 124.755
-20.9744 112.116 99.935204
-20.964399 112.045 98.622902
-19.984501 112.596 96.315598
-21.7878 69.016899 113.893
-22.6474 111.326 101.07
-21.352699 112.006 99.859001
-21.258301 112.088 98.446198
-20.6103 112.694 96.382103
-21.9214 114.856 128.66701
-21.676001 111.973 99.630302
-21.9049 112.044 97.989502
-21.8514 112.587 96.513802
-22.632 114.391 117.387
-22.8619 113.93 114.551
-23.224199 113.13 110.59
-22.375299 114.732 120.706
-23.4526 112.607 108.472
-22.968901 111.426 99.490196
-23.695801 81.589302 102.209
-23.671801 81.119797 103.154
-23.7836 80.111702 103.998
-24.035999 77.845299 105.833
-23.2901 111.607 97.915703
-23.7847 81.950996 101.208
-24.0278 111.381 104.9
-24.2616 73.333702 109.857
-23.6017 112.045 96.436798
-23.4354 70.883797 112.939
-24.5348 110.275 101.526
-23.3353 69.371201 114.023
-23.062599 113.639 124.921
-23.559799 113.22 120.92
-22.884899 113.576 128.767
-22.896799 113.148 133.03999
-24.9041 110.19 99.602203
-23.9704 112.81 117.779
-24.2897 112.343 115.087
-25.2729 110.234 97.687798
-24.6362 111.709 111.173
-23.6129 112.16 132.97701
-23.7022 112.461 128.96201
-24.053699 112.387 125.186
-24.680401 111.911 121.071
-25.876499 109.897 105.723
-25.883101 82.880203 102.427
-25.8799 82.409302 103.449
-26.0123 81.6661 104.259
-26.0697 83.344398 101.394
-23.8939 82.570702 100.179
-21.644501 83.491898 99.256302
-25.1849 111.466 118.049
-26.421101 79.635498 106.016
-24.869301 71.096603 113.87
-24.7113 69.874298 114.912
-25.687401 72.846802 113.217
-23.795601 111.905 132.981
-24.044701 112.072 129.058
-26.5415 108.922 102.458
-24.5532 111.904 125.268
-26.9772 76.653801 109.675
-25.6087 110.95 115.484
-24.2665 111.305 133.089
-24.7073 111.349 129.26401
-25.2918 111.358 121.12
-25.639999 110.851 125.449
-26.224701 110.13 111.772
-26.944901 108.466 99.870102
-27.6915 75.472702 112.993
-25.0889 110.934 129.44501
-24.6952 110.987 133.21201
-25.674601 110.425 129.589
-26.5266 109.384 106.339
-26.967899 108.187 97.430901
-26.8088 109.943 121.247
-26.243601 109.289 133.94901
-25.852301 110.873 118.157
-26.342899 110.083 125.613
-27.0275 109.22 129.76601
-26.4487 70.558197 118.113
-26.733101 71.423599 117.699
-27.301399 72.924202 117.209
-26.3148 110.318 115.71
-26.990299 109.461 125.735
-27.593399 109.248 118.448
-26.999701 109.408 112.104
-27.525 108.103 103.191
-27.949301 84.650002 104.123
-28.0135 85.188904 103.11
-28.2321 85.872299 102.074
-27.8102 108.8 121.449
-28.177099 84.257797 105.016
-28.625601 75.348198 116.809
-28.2932 108.25 125.93
-28.1252 108.572 116.103
-28.4398 82.501404 106.385
-26.0721 84.011902 100.527
-28.554899 86.557701 101.005
-23.861099 84.013298 99.082298
-26.2306 85.219597 99.140701
-28.507799 87.817299 99.596001
-23.9305 85.121597 97.554298
-27.035299 108.896 106.942
-27.9991 108.095 109.319
-28.152201 106.844 134.27499
-28.7377 107.531 112.545
-29.022699 80.241798 109.482
-28.346701 107.054 100.433
-28.128599 107.58 104.215
-28.4918 108.051 121.63
-28.944099 106.862 129.8
-28.671 105.901 97.208801
-27.634501 71.176498 121.295
-27.928699 72.066299 120.921
-28.7668 107.858 118.739
-28.998199 106.655 105.899
-29.5014 79.3228 112.651
-28.487301 73.441902 120.455
-29.635599 106.82 121.91
-29.954399 106.068 126.131
-29.1691 106.172 101.637
-29.422701 75.607399 119.955
-29.383301 106.979 116.513
-30.0781 78.828201 116.313
-28.438801 71.670303 124.032
-29.816601 87.556801 104.717
-29.652599 86.726997 105.57
-29.4398 85.978104 106.051
-29.4652 107.025 118.924
-29.928101 88.554199 103.597
-28.7591 72.6063 123.676
-29.875799 105.658 109.335
-29.902599 105.14 103.342
-29.635599 85.658699 106.408
-29.912399 84.616302 107.273
-30.023001 89.489098 102.512
-30.249701 105.149 113.058
-29.813999 104.326 99.568703
-29.296801 73.908096 123.245
-30.004299 103.979 134.293
-30.017099 90.603203 100.813
-28.5965 88.967102 98.095703
-29.9578 91.793999 99.1241
-26.307199 86.389801 97.748901
-30.2938 83.645798 109.158
-30.7939 103.899 129.884
-30.9974 104.795 122.285
-29.076599 72.144302 126.61
-30.494801 105.726 119.192
-30.0576 75.929199 122.604
-30.555901 78.8368 119.296
-29.421499 73.038902 126.347
-29.9771 106.167 116.671
-30.787001 103.489 106.517
-29.954201 74.319397 125.889
-30.5446 103.226 101.285
-30.7192 83.076797 112.116
-31.5187 103.372 126.705
-29.410299 72.400597 128.007
-29.757601 73.250504 127.776
-30.7875 87.633797 108.288
-30.6814 87.248703 108.428
-31.120199 88.427399 107.992
-30.6514 86.514702 108.623
-30.622801 76.168297 125.132
-30.8428 73.289398 133.119
-30.8978 104.583 116.927
-31.217899 82.612503 115.738
-30.9979 78.8731 121.813
-30.671 85.3069 108.921
-31.448 89.752502 107.417
-30.230301 102.299 98.339996
-30.993 101.354 99.869003
-29.731501 103.021 97.353401
-30.3785 74.482399 127.254
-31.363001 74.479897 133.077
-31.377899 91.799301 106.431
-31.660601 103.619 119.491
-31.1539 101.786 104.334
-31.003201 94.119499 102.601
-31.2176 95.643097 100.321
-29.9189 92.978104 97.743202
-30.6394 96.996399 98.219002
-31.2307 102.486 109.257
-31.161501 93.045799 104.912
-30.1789 100.19 97.465698
-30.8407 99.233101 98.730202
-32.040798 75.872002 132.66499
-31.246201 102.908 113.768
-32.119801 102.381 123.082
-31.032499 76.224503 126.476
-31.549601 82.524498 118.621
-31.424101 78.870399 124.133
-31.5275 101.481 111.698
-31.2733 85.309601 111.818
-31.5488 100.29 134.718
-32.0117 101.107 130.075
-31.4515 99.868103 102.321
-31.4161 97.770203 101.121
-30.3985 97.679901 97.439201
-31.8741 102.478 117.141
-32.6194 77.529701 131.99699
-31.4221 86.834602 111.618
-31.4965 87.906303 111.427
-31.6409 88.509598 111.299
-31.874201 82.578102 120.94
-31.837299 73.464798 136.867
-31.4102 100.67 107.237
-31.7882 85.252098 115.322
-32.033401 89.667702 111.017
-31.777901 78.747597 125.423
-31.327101 96.351196 103.934
-31.461599 95.5812 106.22
-31.918301 101.004 113.969
-32.624199 100.628 127.116
-31.5175 98.590103 105.456
-31.630501 95.194901 107.33
-31.922199 94.417 108.73
-32.3009 91.350998 110.454
-32.528801 101.149 119.806
-32.243999 82.583099 123.046
-32.4128 74.870598 136.847
-31.622 99.916901 110.013
-31.694599 97.847801 108.094
-33.1334 79.554497 131.258
-32.228699 85.501404 118.243
-32.115002 87.224701 115.214
-32.092201 93.551903 109.448
-31.951599 97.580704 109.638
-32.3619 88.791397 115.165
-32.583698 89.738998 115.175
-32.016102 99.309799 111.979
-32.269402 96.530197 111.411
-32.6171 82.543098 124.336
-32.953999 91.487999 114.892
-33.077599 76.3619 136.532
-32.541199 85.865196 120.432
-32.9123 100.143 123.619
-32.5821 100.068 117.393
-32.6087 96.903198 134.41701
-32.6022 99.187401 130.134
-32.633701 87.719299 118.2
-32.571201 95.266998 112.349
-32.474499 98.508003 114.318
-33.5882 82.4366 130.205
-32.873901 86.257896 122.333
-32.962502 93.055603 113.627
-32.978001 89.541603 118.435
-33.112701 99.193001 120.08
-32.852699 96.452003 114.711
-33.568802 78.1633 136.005
-33.0215 88.307701 120.577
-33.190102 86.425201 123.383
-33.257599 90.955399 118.615
-33.0639 98.124901 117.689
-33.1912 93.868698 115.136
-33.440498 92.810997 118.289
-33.331001 88.949898 122.75
-33.319302 90.262802 120.983
-33.894199 85.486298 129.633
-33.325699 98.104103 126.932
-33.498402 97.891602 123.938
-33.1618 96.826897 129.968
-33.2048 93.509598 134.334
-33.4254 95.390404 117.948
-33.875702 79.589203 135.631
-33.600601 89.204597 123.95
-33.605301 96.743301 120.484
-33.537201 92.011398 121.205
-33.5909 91.3769 123.773
-33.658501 94.137299 120.913
-34.0345 87.5588 129.41901
-34.147301 81.984497 135.048
-33.594002 94.479401 129.77
-33.683998 95.762497 126.867
-33.732101 90.254898 134.11
-33.671101 93.391899 124.446
-33.819698 91.494698 124.719
-33.720501 95.596802 124.114
-33.729698 93.603798 125.911
-34.0602 90.420097 129.27
-33.762001 92.722298 129.54201
-34.204899 84.481102 134.754
-34.2019 87.219498 134.315
-9.8179998 100.957 97.080803
-10.7296 101.439 95.978897
-10.3821 98.216904 96.394699
-10.9061 95.356201 97.016403
-11.3365 103.587 95.958397
-12.0503 92.510696 97.931999
-11.4821 99.739601 94.464401
-11.8266 97.1866 94.723
-11.8077 102.591 94.241203
-12.2509 104.383 94.289597
-12.9113 94.5457 95.1194
-13.2104 107.433 94.601196
-13.8364 90.049896 98.460403
-14.3895 92.203102 95.512299
-14.4 108.672 94.715401
-15.9327 88.041801 98.568604
-14.8735 109.474 95.028099
-16.217501 90.356796 95.691902
-15.4356 110.398 95.2285
-17.966999 86.587997 98.339798
-17.9771 88.964798 95.537598
-19.7435 85.658096 97.907402
-19.9652 87.707901 95.5495
-20.1796 88.318604 94.431602
-21.690001 85.112602 97.899803
-21.777 85.685997 97.179901
-22.071199 86.772301 94.894501
-24.135401 86.763298 94.919502
-25.318701 110.605 96.293404
-26.619101 87.929298 95.1446
-26.864599 108.457 96.245796
-28.6945 90.5298 95.514801
-28.384199 106.161 96.115997
-29.681499 94.481102 95.794701
-29.177099 103.863 96.170799
-29.688299 101.113 96.223099
-29.929399 98.860199 96.133202
-12.306 101.087 92.456703
-12.2551 98.690002 92.384201
-12.5618 103.605 92.428001
-13.0192 105.712 92.609497
-13.4636 96.391098 92.6548
-13.9861 108.403 93.103996
-13.128 102.612 90.4645
-12.6435 100.31 90.077003
-13.4469 104.971 90.57
-13.9909 107.197 90.827301
-13.2428 97.997597 89.928703
-14.861 94.250099 92.826401
-14.8935 109.742 91.350601
-13.916 104.153 88.463501
-13.148 102.031 87.857903
-14.3638 106.415 88.670502
-15.4143 109.926 93.2491
-14.9237 108.663 88.976501
-13.4568 99.769302 87.454102
-14.2897 95.907204 89.847198
-15.7093 111.216 89.449402
-16.2001 111.253 91.468597
-15.1204 107.71 86.679497
-14.6436 105.652 86.373199
-13.6964 103.897 85.584297
-13.8065 101.893 84.879204
-15.6202 109.941 86.921898
-15.6597 110.494 93.496902
-14.4931 97.230904 87.402702
-16.504999 92.2033 92.930496
-15.3386 107.591 83.931297
-15.846 109.554 84.229599
-14.26 106.059 83.086098
-16.862101 112.72 89.442101
-16.2621 112.564 87.1754
-14.238 104.225 82.212997
-15.7855 119.602 65.343102
-16.091299 120.863 66.376297
-16.2621 118.425 64.330704
-14.6396 99.985703 84.385101
-16.296301 111.761 84.3713
-16.3412 122.263 67.349503
-15.2139 94.750999 89.571999
-16.1651 120.22 67.4841
-16.330099 121.633 68.400002
-16.0765 118.983 66.491898
-15.9234 119.529 68.357002
-16.1304 120.949 69.2314
-16.0464 118.342 69.460999
-16.314899 119.791 70.192001
-16.125 117.018 68.707497
-16.053301 118.259 67.4356
-16.479099 117.85 65.515999
-16.576099 117.148 66.529602
-16.6579 115.801 68.021698
-15.6349 116.379 71.484299
-15.7221 114.895 70.713898
-16.4396 117.939 71.918701
-16.517599 112.007 81.145203
-15.9171 110.097 80.947998
-14.7967 108.585 80.223297
-16.374701 111.743 91.847702
-16.1751 111.357 93.833702
-14.7866 106.894 79.288902
-15.0497 102.472 81.584198
-16.8507 114.312 84.542801
-16.442499 122.671 70.083397
-16.7381 123.348 69.287399
-16.548201 121.623 70.9291
-16.5249 124.024 68.347099
-16.511499 113.683 70.042099
-16.865101 119.908 72.529099
-17.2873 114.161 87.013397
-17.351 117.451 63.4673
-16.8519 113.889 81.2743
-17.5133 116.899 64.670403
-15.0087 111.333 77.137604
-15.809 113.055 77.787399
-16.853399 114.741 77.904404
-15.1286 109.672 76.235397
-15.4753 112.384 73.307404
-15.3273 113.988 74.157204
-16.004299 115.725 74.746101
-17.0341 125.391 69.2239
-17.176901 124.884 70.241997
-16.876801 124.464 71.1371
-16.9674 123.591 71.936798
-15.4996 105.355 78.470901
-17.553499 116.259 65.744598
-17.608299 114.924 67.344597
-16.981501 117.497 75.3293
-17.265499 116.249 81.4244
-15.6231 96.261597 86.260597
-15.7065 98.565102 83.789703
-16.069201 94.148804 88.443001
-17.209 122.322 73.193298
-17.0263 113.079 89.750099
-17.7987 115.848 84.226196
-16.915899 112.206 94.035004
-16.754101 112.458 92.082298
-17.1635 116.078 77.905701
-17.537201 112.796 69.418503
-16.2864 111.128 72.553802
-15.9102 108.326 75.405296
-17.438801 120.609 75.141098
-17.0863 92.178703 90.897697
-17.440001 118.569 77.999397
-17.5033 125.89 71.8396
-17.6063 126.173 70.909203
-17.579599 125.379 72.804398
-16.322399 100.593 81.294601
-17.7495 126.541 69.905098
-17.7939 124.323 74.001503
-18.059099 117.798 81.074501
-17.6922 112.792 94.134804
-17.1343 112.991 92.122902
-17.2026 113.567 89.954102
-17.433201 114.521 87.330399
-18.541 90.494904 93.040703
-18.669901 116.848 62.895901
-17.3501 110.198 71.878098
-18.301001 122.524 75.605003
-18.040001 121.806 75.350197
-16.7325 104.174 77.776299
-18.794399 116.323 64.177399
-18.073 119.829 77.790703
-17.0529 107.315 74.652496
-17.4347 113.437 92.301201
-17.378599 114.056 90.159698
-18.315599 113.076 94.232903
-17.562201 115.116 87.824799
-18.8016 115.672 65.288902
-18.105499 127.315 72.387604
-18.025801 127.714 71.426102
-18.213301 126.791 73.378502
-18.773199 114.335 66.851303
-17.9266 116.188 84.575104
-18.7258 112.201 68.903
-18.466999 125.766 74.589996
-18.156 128.084 70.4403
-18.075399 115.037 90.5457
-17.5562 113.53 92.283997
-18.222 114.004 92.427597
-18.142599 116.517 87.8862
-18.0273 116.759 85.132401
-16.615101 97.769096 83.345299
-16.6859 95.397102 85.649696
-16.9557 93.827301 87.363701
-18.677401 113.255 94.235901
-18.490101 118.12 85.132301
-18.2251 123.199 75.870796
-18.667801 124.36 76.377998
-19.167101 113.391 94.319901
-17.697001 92.028297 89.690598
-18.621 109.602 71.285202
-18.1938 118.143 81.420998
-18.8242 128.774 71.807297
-18.9111 129.144 70.820801
-18.9995 128.30099 72.7705
-18.1194 96.862602 82.754097
-17.972099 94.049896 85.836899
-18.3479 120.479 78.0728
-19.131701 127.615 73.728203
-18.289801 118.701 82.005798
-18.8764 90.812798 92.002899
-19.327299 126.484 74.941498
-18.671499 120.048 82.014603
-18.5522 91.655701 88.581497
-18.4354 121.042 78.629501
-18.728901 122.275 78.840897
-18.4862 106.722 73.930496
-18.0788 100.13 79.985397
-19.124901 115.934 90.576599
-19.311199 114.574 92.609001
-19.320601 117.455 88.165001
-19.537201 119.064 85.383102
-18.308201 103.602 76.861702
-19.246099 90.500999 90.387299
-19.540501 124.972 76.717598
-19.992399 116.576 62.6008
-20.139 113.663 94.486702
-20.071699 116.051 63.9007
-19.6411 120.958 82.332703
-19.643499 123.016 79.2789
-20.0826 115.343 65.051399
-20.0471 114 66.5858
-20.024799 111.877 68.548103
-20.1565 128.651 72.921501
-20.135401 129.207 72.045601
-20.1485 129.59599 71.043602
-20.0266 109.318 70.792801
-20.2052 127.805 73.829498
-20.563601 89.108902 92.135498
-20.322399 126.635 75.0457
-20.081301 90.655502 88.778397
-20.1569 93.1082 85.234001
-20.2054 96.118202 82.067299
-20.098301 106.491 73.212997
-20.499001 125.086 76.818901
-20.4209 114.817 92.709999
-20.4533 116.242 90.6464
-20.5665 117.781 88.254501
-20.206499 103.482 75.898598
-20.1555 99.739304 79.0382
-20.662001 119.423 85.4683
-20.634701 123.219 79.439903
-20.6868 121.255 82.451401
-21.3321 116.602 62.556999
-21.373699 116.013 63.8391
-21.370899 115.284 65.051399
-21.345501 113.923 66.571701
-21.343201 111.81 68.401497
-21.4028 129.30099 70.908096
-21.611799 128.939 71.888496
-21.498899 128.37601 72.788399
-21.4237 109.317 70.463997
-21.3431 127.508 73.701599
-21.296301 126.303 74.952103
-21.414301 124.788 76.738197
-21.731199 106.616 72.548103
-21.9205 113.222 95.138901
-21.9704 114.668 92.6689
-22.6131 90.366997 88.355202
-22.380501 88.373398 91.837196
-21.5788 122.974 79.419502
-22.7479 92.8386 84.904099
-22.561199 104.13 74.542603
-21.7957 116.056 90.578201
-21.784 117.525 88.1698
-21.6513 120.997 82.3993
-22.7097 95.840897 81.628998
-21.733801 119.189 85.402901
-22.6766 99.723198 78.244499
-22.080799 128.453 70.5159
-22.713301 116.923 62.764198
-22.703899 116.298 64.0429
-22.116501 123.892 76.523399
-22.051001 125.373 74.657898
-22.1565 126.647 73.376801
-22.34 127.503 72.431602
-22.676701 115.557 65.352203
-22.336399 128.075 71.529602
-22.6084 114.054 66.859299
-22.5264 111.94 68.489304
-22.344101 122.151 79.256897
-22.616301 109.483 70.382896
-22.7488 127.174 69.818802
-22.469999 120.235 82.262802
-22.8354 106.769 72.330803
-22.681 118.414 85.259804
-22.9144 116.742 87.996498
-23.124201 115.395 90.449303
-22.802099 126.701 70.880096
-23.5275 114.021 92.541
-22.664101 125.175 72.785896
-22.585199 124.073 74.099297
-22.6493 122.733 76.093803
-22.808901 126.111 71.8144
-22.9182 121.164 79.020798
-23.7479 112.614 95.057899
-24.622299 88.345398 91.914597
-25.0683 90.755699 88.477203
-23.1553 119.37 82.079903
-23.9396 125.662 68.819603
-25.3225 93.301399 85.031898
-25.326799 96.333702 81.729301
-25.2283 100.255 78.209999
-24.951599 104.718 74.376801
-24.1612 107.181 72.287399
-23.4282 117.436 85.100502
-23.2187 122.636 73.440598
-23.323799 123.473 71.959297
-23.185499 121.645 75.616096
-24.132799 117.676 63.264099
-24.0688 117.023 64.580704
-23.499399 124.269 70.835197
-24.0177 116.057 66.229797
-23.7391 114.09 67.590103
-23.4925 112.161 68.748299
-23.695299 124.976 69.867104
-23.471201 120.406 78.763
-23.6658 109.806 70.449097
-23.899 115.688 87.889702
-23.8643 118.583 81.909203
-24.387899 114.287 90.355698
-24.210899 116.483 85.030502
-24.0502 121.53 73.190399
-24.146 122.267 71.385201
-24.0539 120.641 75.520203
-24.4657 123 70.110397
-25.1134 112.859 92.5187
-24.3489 119.582 78.549797
-24.691401 123.624 68.9496
-24.801001 114.467 87.895302
-25.0779 124.17 67.804199
-24.7994 117.58 81.746002
-25.4032 111.223 95.027
-24.034599 112.454 68.900398
-24.3939 110.252 70.536499
-24.4627 114.572 67.953697
-24.490801 112.937 69.165298
-24.870501 107.741 72.341103
-25.4027 115.261 84.9459
-25.430201 118.878 64.025002
-25.274099 118.197 65.329597
-25.0996 117.236 66.9468
-25.178301 115.38 68.333099
-25.370399 112.835 90.324699
-24.912201 110.927 70.723099
-25.588699 109.09 72.455498
-26.631001 105.318 75.369598
-27.2537 101.537 78.949501
-26.958099 89.640198 92.3601
-24.8316 119.551 75.300301
-24.642099 120.736 73.002701
-24.740601 121.646 71.187897
-25.2202 113.812 69.532799
-24.7787 113.302 69.324303
-26.0362 112.986 87.885002
-24.9608 122.413 69.811699
-27.366899 92.163498 88.9524
-27.545 97.832901 82.414902
-25.457399 117.946 78.253098
-25.190599 111.345 70.9058
-27.6084 94.816498 85.620003
-25.1222 123.096 68.608597
-26.2966 111.243 92.606102
-25.651501 111.902 71.179703
-26.0767 115.815 81.491997
-26.5585 111.171 90.309799
-26.357401 110.119 73.025597
-25.5329 114.127 69.690903
-26.000299 112.212 71.375504
-25.0646 119.954 72.703598
-25.130501 121.071 70.927002
-25.365299 121.785 69.462799
-26.932699 113.461 84.6465
-25.966499 114.655 69.933197
-25.511 116.353 68.5858
-25.3367 118.431 75.038696
-25.472401 122.547 68.221703
-25.679399 123.36 67.037804
-26.602501 112.648 71.778297
-27.532301 106.824 76.248398
-25.7827 118.902 67.4953
-25.9741 119.654 66.198196
-25.7806 117.917 68.972298
-26.2262 120.381 64.961403
-26.761499 109.135 95.109398
-26.1474 116.472 77.991302
-27.2061 110.586 74.017197
-26.3708 115.255 70.123497
-27.154499 113.282 72.198402
-25.2054 119.346 72.439598
-25.304399 120.682 70.705597
-27.5254 111.126 87.640297
-27.4652 109.087 92.691101
-26.060699 122.73 66.532402
-25.7966 121.932 67.7313
-25.705999 121.177 68.9944
-26.5597 116.469 70.7547
-25.5151 120.254 70.378601
-25.5166 117.629 74.847099
-28.577499 103.721 79.944298
-25.3962 118.864 72.249496
-27.4023 114.422 73.013901
-27.745001 111.062 74.617897
-26.3008 121.856 65.932899
-26.047001 121.055 67.1493
-25.915899 120.293 68.4748
-25.830601 117.145 74.663101
-28.2411 108.712 76.7556
-25.7241 119.756 70.0578
-26.978701 114.196 81.1577
-25.685499 118.426 71.985703
-25.7938 119.119 69.701897
-28.107201 109.162 90.180397
-26.5993 116.727 74.473602
-29.014099 100.481 83.551003
-25.9561 117.698 71.521896
-28.116301 112.053 75.624802
-26.3806 115.611 77.750099
-28.8983 92.264801 92.938103
-29.2257 97.428802 86.593399
-27.1117 115.738 73.876404
-29.0672 94.805801 89.749901
-28.179399 106.822 95.110397
-28.094101 111.746 83.801598
-26.923901 115.177 77.516899
-28.4165 107.116 92.415199
-27.437401 114.645 77.270599
-27.963699 113.42 76.654198
-29.2791 106.725 80.738701
-27.2197 113.422 80.788696
-28.816401 109.498 78.295998
-28.719801 108.953 87.128799
-27.727501 112.742 80.020699
-29.021 106.607 89.858498
-28.9245 104.81 95.063599
-28.566099 110.975 79.701202
-29.7915 103.586 84.744797
-29.8619 100.75 87.890198
-28.7484 109.697 83.566002
-29.717699 98.394096 90.887299
-29.702801 96.094902 93.660698
-29.271999 104.293 92.337097
-29.1625 108.335 83.027199
-29.281401 106.747 85.962601
-29.4701 102.06 94.904099
-29.537001 103.905 89.228897
-29.630199 101.671 92.005203
-29.680799 99.853401 94.573799
-15.7163 122.256 63.357399
-15.5266 121.002 62.219299
-15.3308 120.223 63.932098
-15.5334 121.55 65.031403
-16.0203 119.018 62.839199
-15.9074 119.805 61.077599
-16.178301 123.602 64.443199
-15.976 122.976 66.069199
-15.8823 122.927 61.480999
-15.6376 121.767 60.350498
-15.8789 120.642 59.191601
-16.4023 124.158 62.572601
-16.4359 124.664 67.108299
-16.763599 125.107 65.525497
-16.7922 124.611 60.601501
-16.1742 123.436 59.505199
-15.8783 122.44 58.354401
-16.9736 118.88 60.174999
-17.178499 118.087 61.966801
-16.0166 121.413 57.250702
-17.0571 125.472 63.685398
-16.750099 119.74 58.292301
-17.485701 125.858 61.695499
-16.9799 125.947 68.007401
-17.321501 126.257 66.446098
-16.887199 120.569 56.444599
-16.5187 123.096 56.371799
-16.8339 124.054 57.4524
-16.812099 122.163 55.478401
-17.3048 125.105 58.473801
-17.688101 126.537 64.591698
-17.4781 121.392 54.914902
-17.889299 126.306 59.536999
-17.9995 126.938 62.416
-17.2104 123.734 54.478401
-17.455299 122.795 53.769402
-17.1576 124.708 55.348598
-17.9282 126.961 68.7314
-18.0616 127.278 67.201698
-17.5205 124.372 52.418999
-17.747 123.401 51.840401
-17.580099 125.328 53.1166
-17.5037 125.707 56.276798
-17.677099 126.283 53.9109
-18.273001 118.293 59.6273
-18.5567 117.456 61.384499
-18.051399 122.001 53.355499
-17.666599 125.185 49.9184
-17.699499 126.099 50.539001
-17.907499 124.255 49.3993
-18.174299 119.129 57.7267
-17.9118 127.095 51.2794
-17.7363 128.377 37.0298
-17.7701 127.523 39.674099
-17.704 128.683 40.135502
-17.7262 129.73 37.234699
-17.868 129.79401 40.655998
-17.840401 130.507 37.372101
-17.873699 128.358 44.4361
-17.737 127.303 43.663502
-17.798401 126.359 43.090302
-18.189899 127.628 65.206001
-18.290501 127.344 60.157299
-18.1045 126.325 39.355099
-18.219 125.273 42.616299
-17.984301 127.123 36.9347
-18.160801 120.005 55.980499
-17.695299 126.165 47.0117
-17.880301 125.28 46.489899
-17.7533 127.121 47.6702
-17.9142 126.784 57.167099
-18.034599 127.257 54.737
-18.313999 122.569 51.491299
-18.3412 124.287 46.070702
-18.1908 130.571 41.195301
-18.2006 129.215 45.096901
-18.1798 131.633 37.594799
-18.0049 128.07001 48.3727
-18.2458 127.967 52.0317
-18.461 123.432 49.0592
-18.504 120.748 54.4856
-18.468399 127.962 62.959801
-18.392401 128.90401 48.864899
-18.524599 129.955 45.441799
-18.5609 131.11501 41.743599
-18.562901 132.177 38.192299
-18.436001 127.765 57.7528
-18.5305 128.399 69.3424
-18.5734 128.239 55.209702
-18.978001 124.655 42.482899
-18.841 125.587 39.329201
-18.693501 126.258 37.062099
-18.720699 128.879 52.414799
-19.1311 123.679 45.912899
-18.8591 121.399 53.0522
-18.683901 128.64101 67.809402
-18.735001 128.276 60.608898
-18.8328 129.69099 49.2659
-18.7579 128.80299 65.731598
-18.922899 130.629 45.819599
-19.174801 122.023 51.266102
-18.966 131.65601 42.239399
-18.9834 132.789 38.784901
-19.2796 122.867 48.858799
-19.2474 129.403 69.698196
-18.9923 128.933 63.392101
-18.9291 128.619 58.124401
-19.075899 129.054 55.484901
-19.1917 129.638 52.618599
-19.7286 118.957 57.570801
-19.817499 118.091 59.421398
-19.907101 117.127 61.083199
-19.2274 129.103 60.946999
-19.365101 129.606 68.148697
-19.623301 119.799 55.795502
-19.273199 130.37199 49.4646
-19.3309 131.22501 46.059799
-19.3549 132.14799 42.591301
-19.3564 133.341 39.238098
-19.797199 125.117 39.3811
-19.917999 124.293 42.4118
-19.6744 125.708 37.213902
-19.4167 129.34399 58.372898
-19.549101 129.716 55.651699
-19.826599 120.507 54.377899
-19.441299 129.69299 66.055496
-20.010201 123.334 45.816502
-19.6366 130.25 52.7286
-19.6084 129.687 63.680199
-19.011101 134.086 35.5378
-19.397301 134.504 36.3209
-19.625401 133.80299 39.294601
-19.703501 132.73 42.699501
-20.013399 121.152 52.978901
-19.7155 131.739 46.178001
-19.6896 130.937 49.559502
-20.106001 122.478 48.838299
-19.7799 129.758 61.1931
-20.183201 121.809 51.216499
-20.203899 129.856 69.827599
-19.9856 134.496 38.955898
-19.8183 135.51199 35.288799
-20.0651 133.35001 42.6171
-19.9224 129.916 58.566898
-20.0159 130.229 55.7967
-20.093 132.186 46.227901
-20.0683 130.724 52.8367
-20.0919 131.386 49.6422
-20.2547 130.06599 68.260902
-20.4508 133.89799 42.4743
-20.394199 135.14799 38.5839
-20.294001 136.28799 34.586102
-20.250601 130.105 66.148697
-20.4832 132.672 46.236
-20.3078 130.089 63.786598
-20.387899 130.164 61.324001
-20.458401 130.299 58.705898
-20.502199 131.714 49.745998
-20.509399 131.05299 52.965599
-20.497999 130.578 55.932999
-20.5485 125.504 37.396599
-20.672701 124.919 39.464001
-20.7631 124.055 42.409599
-20.859301 134.30901 42.315701
-20.827299 135.66901 38.224098
-20.784901 136.828 34.055901
-20.895901 123.146 45.7901
-20.8957 132.98399 46.259499
-21.2276 118.984 57.551701
-21.2561 118.093 59.396999
-21.268999 117.102 61.0424
-21.1231 119.848 55.7896
-21.030899 122.33 48.8074
-21.1838 120.556 54.4007
-21.2138 121.231 53.0238
-20.9363 131.896 49.879398
-21.1453 121.64 51.3508
-20.9769 131.21001 53.1092
-21.125401 129.509 69.675301
-21.0086 130.726 56.0397
-21.0854 129.72099 68.095596
-21.025 130.44501 58.756001
-21.0277 130.263 61.298302
-21.030399 130.08099 63.6875
-21.046101 129.923 65.976501
-21.284201 134.45599 42.1189
-21.275 135.966 37.8465
-21.272499 137.071 33.6353
-21.3286 132.998 46.279202
-21.3948 131.858 49.997101
-21.472 131.11501 53.208698
-21.7031 134.19 41.8106
-21.7264 135.97 37.365799
-21.7421 136.84599 33.279999
-21.763 132.554 46.2733
-21.743601 125.249 39.470501
-21.8743 124.414 42.440701
-21.587999 125.781 37.434502
-21.546 130.59 56.050701
-21.8606 131.526 50.064499
-22.0345 123.537 45.845699
-21.6141 130.30299 58.653801
-21.6807 130.048 61.0676
-22.194799 122.769 48.862598
-21.743799 129.755 63.3969
-21.979401 130.685 53.212002
-21.7304 129.30099 65.516502
-22.3307 122.229 51.4534
-21.5254 128.946 67.615402
-21.674101 128.666 69.247803
-22.3885 121.559 53.1343
-22.494801 120.921 54.4328
-22.6154 120.175 55.842602
-22.6751 119.251 57.639099
-22.0926 130.09399 55.920601
-22.1264 131.76801 45.790199
-22.017099 133.39 41.324299
-22.059401 135.084 37.020901
-22.704201 118.326 59.532299
-22.7059 117.582 61.280102
-22.207399 129.908 58.3997
-22.4 130.96201 45.16
-22.284901 132.44701 40.7281
-22.4063 133.94901 36.667999
-22.3353 129.61099 60.6222
-22.4685 129.097 62.7285
-22.2717 130.871 49.610699
-22.539801 128.405 64.776497
-22.379601 127.941 66.855301
-22.5259 127.524 68.515602
-22.6336 130.04201 49.121498
-22.4394 129.92 52.685398
-22.6381 126.435 37.187099
-22.7875 125.868 39.3657
-22.9296 124.984 42.484501
-23.0686 124.127 45.973999
-22.868 128.976 52.1063
-22.5928 129.22701 55.307499
-23.035101 131.679 40.322102
-23.157 132.674 36.624001
-23.183399 130.22501 44.605499
-23.2124 123.466 49.0653
-22.7929 129.09599 57.672699
-22.989201 128.847 59.801102
-23.2423 128.31599 61.810501
-23.5502 127.504 63.786201
-23.335501 122.909 51.6036
-23.1471 128.32401 54.559101
-23.364599 129.375 48.5378
-23.518299 122.266 53.262699
-23.4009 128.007 56.750198
-23.8722 126.857 65.808601
-23.8321 121.64 54.594398
-23.564699 127.811 58.8181
-24.0259 126.301 67.521599
-23.569799 128.39101 51.615398
-24.149599 120.898 56.087299
-23.560499 126.707 39.259998
-23.722099 125.849 42.689098
-23.420099 127.319 36.858501
-24.211 119.993 57.991299
-23.821199 127.316 60.839401
-23.8468 125.08 46.306198
-23.8123 128.608 43.801701
-23.685499 129.836 39.738701
-23.6357 130.558 36.5896
-24.132999 119.196 60.008499
-23.702999 127.686 53.985699
-24.141001 118.385 61.7785
-23.973801 124.426 49.414902
-23.8974 127.778 47.613098
-23.998899 127.394 56.2244
-23.9111 127.226 43.1726
-23.7808 128.237 39.4561
-23.68 128.836 36.6908
-24.344 126.54 62.7859
-24.010099 123.862 51.970501
-23.996799 126.423 46.900501
-24.2854 123.286 53.6628
-23.980499 126.977 50.791401
-24.257999 127.121 58.122501
-24.085699 125.723 50.065201
-24.8981 125.675 64.672501
-24.826799 122.715 55.064701
-24.087 126.426 53.079102
-24.6423 126.701 60.0369
-24.276199 126.601 55.716999
-24.235201 125.039 52.319
-25.4193 122.017 56.661499
-24.6189 126.541 57.650002
-25.461901 121.253 58.743099
-25.209801 124.947 66.405197
-25.0972 125.98 62.042
-24.535101 124.54 54.395901
-25.0709 126.235 59.537399
-24.3069 126.181 55.466999
-25.3379 120.419 60.750999
-24.928499 125.861 57.163898
-25.084 124.116 55.9478
-25.4391 119.61 62.538502
-25.301201 125.557 59.043301
-25.8409 123.604 57.6651
-25.508801 125.534 61.561699
-25.665701 125.061 63.962399
-25.7631 124.857 61.087799
-26.0072 122.919 59.782101
-26.0418 121.961 61.7384
-26.009899 124.518 63.486
-25.976 124.232 65.697601
-26.254499 121.148 63.507198
-26.070999 123.565 62.816299
-26.229099 123.586 65.152298
-26.378799 122.678 64.526199
-16.0105 130.686 25.417101
-16.0224 130.383 26.5042
-15.7426 132.116 25.5802
-15.7638 132.474 24.5054
-16.1036 134.161 22.979401
-16.065901 134.302 24.006201
-16.128901 131.74899 26.758301
-16.4902 134.24699 25.462
-16.266899 130.14999 27.613001
-15.9064 132.466 23.509399
-16.1243 130.951 24.430099
-16.277 134.077 22.0476
-16.579399 133.85899 21.228399
-16.141001 132.245 22.4084
-16.2813 130.817 23.236
-16.895901 128.873 26.1691
-16.924999 128.655 27.249599
-16.990101 128.59801 28.3477
-16.910601 129.162 25.054899
-16.9895 135.901 22.058001
-17.2577 136.11501 23.001801
-16.995399 135.752 21.225599
-16.804899 129.851 28.9063
-16.7855 131.371 28.2351
-17.256701 133.94701 27.2069
-17.1658 135.53999 20.551901
-16.880301 129.243 24.0376
-16.8627 133.403 20.605801
-16.436899 131.944 21.5951
-16.6189 130.517 22.570801
-17.3202 128.46001 29.4713
-17.4324 135.272 19.946501
-17.1672 129.145 23.595501
-17.8904 136.27901 24.8783
-17.6425 134.58501 19.6378
-17.362 130.80901 29.909201
-17.3696 129.339 30.347
-17.6304 132.731 29.3032
-17.689699 128.15401 30.6119
-18.133499 127.402 26.835199
-18.0938 127.661 25.728901
-18.1863 127.252 28.004
-17.899099 127.403 28.905399
-18.0329 127.758 24.7866
-18.1262 127.963 24.134701
-18.3489 137.151 20.896
-18.4753 137.403 21.730101
-18.396 136.895 20.2544
-18.047899 127.367 30.079
-18.535299 136.62399 19.741301
-18.358101 135.56799 28.2332
-17.888599 134.17799 28.739201
-18.795401 136.411 19.257799
-18.8221 137.724 23.385401
-18.0107 127.496 30.8435
-17.5347 129.955 31.9086
-17.699499 128.681 32.111698
-17.695601 131.64999 31.7661
-18.317699 127.427 32.3699
-18.6525 135.439 19.211901
-17.6173 129.12399 34.3843
-17.843 127.897 34.491299
-17.7164 130.795 34.533901
-18.024599 133.14999 31.520399
-18.078899 132.17101 34.487801
-18.5261 126.902 34.752399
-19.155399 136.657 28.066299
-18.5009 134.532 31.529699
-18.876101 126.718 30.259399
-18.627199 126.822 29.155399
-19.5511 127.244 24.564501
-19.531601 126.994 25.296301
-19.4951 126.824 26.1754
-18.529301 133.27299 34.865101
-18.320999 127.171 31.0137
-19.1446 126.669 31.3291
-19.513 126.621 27.2771
-19.571899 126.566 28.378
-19.740801 126.453 29.4172
-19.459101 138.33 20.2451
-19.6626 138.664 21.059099
-19.6278 138.03101 19.6551
-19.1229 135.446 32.430599
-19.8016 137.741 19.230101
-19.3839 126.635 32.931599
-19.5235 126.255 35.022301
-19.8349 138.505 22.7687
-19.9433 137.41901 18.9708
-19.754601 136.351 18.9319
-19.872101 126.443 30.451401
-19.9501 137.745 26.6654
-20.0734 126.543 31.5235
-19.559799 136.38499 31.364
-20.1422 137.144 30.3939
-20.2386 126.435 33.1492
-19.989901 138.599 20.165899
-20.2516 138.97701 20.973101
-20.136499 138.218 19.5879
-20.8706 126.897 25.3363
-20.891199 126.701 26.2754
-20.902901 126.485 27.445299
-20.8148 127.142 24.621401
-20.940201 126.521 28.4956
-20.569401 137.795 19.0583
-21.0079 126.563 29.5236
-20.386499 126.094 35.178799
-20.5275 138.77901 22.5772
-20.9039 136.593 19.027
-21.0175 137.46201 19.0884
-21.0532 126.64 30.526501
-20.6292 138.23199 26.123899
-20.158001 138.836 19.940901
-20.2883 138.395 19.437599
-20.3827 139.245 20.6635
-21.0765 126.713 31.6866
-20.722 137.562 29.776501
-20.651699 138.019 18.965099
-20.505199 138.981 19.206499
-20.5448 138.68401 18.9543
-20.473101 139.27699 19.5672
-21.230801 126.617 33.233002
-20.635401 139.16299 21.732401
-20.768801 138.439 18.8218
-20.6835 139.50301 19.952101
-20.687401 139.252 19.3808
-20.7138 138.994 19.0781
-20.754601 139.43201 19.664101
-20.7311 138.70799 18.8713
-20.832399 138.498 18.7757
-21.336599 138.8 22.565701
-21.271601 139.18201 21.723801
-21.291401 138.43401 25.9025
-21.4072 126.315 35.2733
-21.3855 137.826 19.069401
-21.285 138.045 18.9699
-21.226801 138.468 18.822599
-21.2645 139.54401 19.9298
-21.1819 139.464 19.6483
-21.2349 139.293 19.3715
-21.2922 139.032 19.0751
-21.267599 138.743 18.8692
-21.1742 138.528 18.773399
-22.093901 127.718 24.402599
-21.280001 137.737 29.418501
-22.2623 127.569 25.0357
-21.997801 135.91499 19.137199
-22.0191 137.095 19.1602
-22.2491 127.38 26.019199
-22.240999 127.166 27.143299
-22.2519 127.205 28.2087
-22.276899 137.319 19.476601
-22.248699 127.261 29.223301
-22.2206 127.339 30.2635
-21.438 138.717 18.9559
-21.4088 139.31599 19.555401
-22.219101 127.423 31.4571
-21.599199 138.44701 19.455
-21.483999 139.01801 19.203899
-22.321899 127.27 33.0527
-21.7733 138.20399 19.6632
-21.585699 139.243 20.694799
-21.8097 137.52499 29.1619
-21.9328 138.274 25.7855
-22.0249 138.52499 22.7861
-21.7309 138.948 21.054501
-22.4958 137.64101 19.9531
-22.3664 138.46001 21.328199
-21.685101 138.853 19.966299
-22.478201 126.926 35.0886
-21.872601 138.591 20.236601
-22.5639 138.005 20.5646
-22.832399 134.724 19.611099
-22.1278 136.015 33.0028
-22.259501 136.877 28.962099
-22.9753 135.767 19.5338
-22.6304 137.757 25.679701
-22.9118 137.69901 23.525801
-23.3011 136.04201 20.055599
-23.3596 128.883 24.064699
-23.394699 137.187 22.3039
-22.511 134.633 32.931499
-22.5641 135.43401 29.5112
-23.4804 128.752 24.6036
-23.238199 136.243 26.5298
-23.5366 136.42599 20.651199
-23.4018 128.597 25.5418
-23.367701 128.395 26.598499
-23.346701 128.40601 27.629299
-23.280701 128.431 28.6612
-23.174801 128.51801 29.726299
-23.1122 128.60001 30.8881
-23.6199 136.784 21.4135
-23.1824 128.34 32.541302
-23.299101 127.87 34.608398
-23.5445 133.394 20.7556
-23.307699 133.16 33.276299
-23.4076 133.814 30.4098
-23.6141 134.211 28.1985
-23.6476 136.231 24.993999
-23.808001 134.25999 20.766199
-24.1071 134.71201 21.1831
-24.143499 135.922 23.691299
-23.9662 130.05901 23.6443
-23.909201 132.353 21.7761
-24.342199 135.093 21.771601
-23.632601 129.94099 30.1688
