# .PCD v.7 - Point Cloud Data file format
VERSION .7
FIELDS x y z
SIZE 4 4 4
TYPE F F F
COUNT 1 1 1
WIDTH 1659
HEIGHT 1
VIEWPOINT 0 0 0 1 0 0 0
POINTS 1659
DATA ascii
-4.09903 -72.494301 176.037
-3.6298399 -95.623299 148.57899
-3.67892 -87.208801 144.30499
-3.62218 -93.555 139.74001
-3.6737101 -93.590103 140.162
-3.7232699 -91.4188 139.51601
-4.0296402 -89.329498 140.80299
-3.5840199 -99.796799 142.5
-3.8863001 -100.277 142.33501
-3.80826 -100.667 142.202
-4.0246201 -86.444504 146.76801
-3.58582 -102.534 147.882
-3.57215 -96.667099 137.50999
-4.2067099 -90.160896 151.81
-3.56112 -99.300797 142.823
-3.53332 -97.524101 137.95399
-4.9450698 -84.7705 151.925
-3.6359301 -92.019798 138.41901
-3.8008599 -91.814598 138.242
-3.7616501 -90.945602 138.065
-4.0075698 -92.948097 142.992
-3.4685199 -92.201302 137.28799
-3.96596 -88.677399 141.772
-4.9400301 -81.865501 156.989
-3.6215301 -93.274803 139.052
-3.5120001 -99.590698 140.40401
-3.53794 -95.323997 148.78799
-3.55779 -98.384697 166.019
-3.52811 -90.252899 138.34399
-3.47542 -100.865 142.10201
-3.4770401 -99.591698 142.625
-3.7061901 -86.723297 145.62601
-3.46556 -99.655098 141.64101
-3.4009399 -91.975403 137.32899
-4.9977698 -83.793701 154.03999
-3.44561 -98.204399 138.491
-3.51244 -93.529602 139.254
-3.7704201 -88.935501 141.03101
-3.7872601 -90.232697 153.938
-3.4850399 -98.737503 162.629
-3.8525801 -93.269302 141.964
-3.5617599 -68.277199 166.317
-3.7109699 -70.093498 164.064
-4.0882702 -71.135399 162.58501
-3.5761001 -92.361504 193.784
-3.6138 -89.603302 140.092
-3.3919201 -99.440697 140.14301
-3.4802799 -97.816704 174.179
-3.6129701 -64.2173 201.61301
-4.3917999 -90.194504 150.257
-4.26368 -90.544403 149.379
-4.88762 -77.204697 163.403
-4.3961401 -74.227997 168.289
-3.9965899 -70.3442 172.573
-4.9565802 -80.043404 158.80299
-3.7041299 -88.542603 141.534
-3.4637201 -88.559998 141.243
-3.4200101 -93.691803 139.908
-3.3630199 -100.379 141.38699
-3.5208499 -100.065 141.698
-3.3752 -102.345 148.77
-4.1698499 -90.866997 148.64
-4.0960898 -91.232201 147.923
-3.2843499 -91.886398 137.481
-3.38622 -100.085 156.468
-4.5191002 -83.160698 154.226
-3.9879601 -81.766502 155.90199
-3.8894701 -82.832703 153.884
-3.7611699 -93.501404 141.173
-4.13552 -90.627197 150.51601
-3.44344 -96.772903 181.989
-4.06422 -91.705002 146.909
-3.3217499 -99.217598 139.868
-3.3192599 -99.909302 141.498
-3.65326 -93.636902 140.595
-3.51877 -93.697304 140.19299
-3.6685901 -88.045502 142.379
-3.99543 -92.221703 145.66299
-3.32269 -87.336403 139.582
-3.4303701 -86.538902 140.242
-3.4386799 -85.967499 140.967
-3.3236799 -100.947 153.612
-3.3274801 -85.6381 141.793
-3.2302599 -92.032402 137.791
-3.2876401 -98.711502 139.146
-4.5445299 -85.587196 149.52
-4.8477001 -85.329697 150.5
-3.9076099 -92.7575 144.30099
-3.28565 -99.913101 140.76601
-3.3422201 -93.658203 139.412
-3.41734 -92.082901 138.595
-3.4105799 -89.217102 140.342
-3.06637 -89.115402 140.20399
-4.5550299 -85.057098 150.549
-3.2378299 -92.535301 138.14
-3.2672501 -98.982498 139.519
-4.3073502 -85.843201 148.625
-3.4595101 -87.064598 144.25
-3.3789799 -71.540901 162.47701
-3.2702701 -102.009 150.319
-3.2723899 -88.515099 141.15601
-4.5444298 -84.343803 152.05299
-3.3067901 -98.387802 170.50301
-6.63412 -82.903099 167.418
-7.1286101 -79.905701 172.395
-4.2575002 -75.060204 174.416
-3.2113299 -101.609 142.937
-3.4518299 -90.248596 139.263
-4.0911002 -86.044601 147.716
-3.79389 -86.252998 146.726
-3.7836599 -93.2267 143.039
-3.2308099 -85.6483 142.89301
-3.2799101 -85.943497 144.039
-3.18978 -100.146 140.95399
-3.7463601 -90.884003 152.209
-4.0492201 -83.933197 152.088
-3.52582 -83.6166 151.89999
-3.3445499 -82.589203 153.73
-2.9021001 -83.334602 151.731
-3.2026401 -88.045998 139.047
-2.84986 -88.985001 140.217
-4.04636 -90.939499 149.507
-3.3968 -66.953598 202.448
-3.20384 -85.967003 145.097
-3.2016001 -84.214996 150.36
-3.4273601 -87.7304 142.694
-3.9951799 -91.212196 148.755
-3.9590099 -91.611397 148.02699
-3.9040101 -92.056503 147.05
-3.3001101 -93.125198 138.44299
-3.2072001 -93.484901 138.76199
-3.3199 -90.313599 156.41499
-4.1206799 -88.845497 158.60899
-3.45907 -86.532799 145.543
-3.8018701 -92.644402 145.728
-3.11624 -88.381104 141.24699
-3.2445199 -94.9646 188.299
-4.1378899 -95.319199 186.617
-4.2378702 -85.367203 149.51401
-3.1305699 -93.768898 139.58299
-3.7024 -93.178398 144.30499
-3.61532 -93.522003 141.994
-3.13764 -93.687897 138.992
-3.09323 -88.631302 138.56
-3.98597 -85.638603 148.666
-3.0692999 -99.884903 140.42799
-3.22967 -91.143097 195.355
-3.0839701 -89.478104 138.189
-3.7360699 -85.824699 147.761
-3.41663 -85.9813 146.771
-3.0952499 -99.084198 162.60699
-3.0279 -100.487 141.175
-2.9337001 -81.015503 156.08299
-2.44031 -82.176804 153.722
-3.66012 -79.082001 158.991
-4.1431899 -84.748703 150.54201
-3.81848 -91.300301 150.702
-3.21964 -69.514198 203.255
-3.1855199 -91.689697 138.80701
-3.0290301 -85.728897 146.116
-3.0977001 -86.272102 145.48
-3.50878 -93.721298 141.183
-3.56376 -93.6036 142.92
-3.2095599 -86.886597 144.16701
-3.12976 -91.115402 137.451
-2.99336 -90.367104 137.84399
-3.1937699 -63.906502 202.442
-3.0531499 -92.072304 137.51199
-3.23366 -89.728302 139.56799
-2.85377 -89.536598 139.533
-2.6178501 -89.388 139.56799
-2.92853 -100.165 140.646
-3.64096 -84.439201 150.50999
-3.0218501 -93.772499 139.14101
-2.91066 -99.769302 140.18201
-2.9626601 -84.103699 147.854
-3.06903 -90.017998 196.642
-3.40464 -93.831398 140.597
-2.99137 -97.547302 177.131
-3.59547 -92.667801 147.17599
-3.7135701 -92.226501 148.218
-3.53967 -93.221603 145.843
-3.11415 -72.225899 203.407
-3.7639699 -91.774597 148.994
-3.78847 -91.5355 149.582
-3.22875 -87.582199 142.69901
-3.64938 -76.640198 163.039
-3.4031701 -73.795197 167.82899
-3.14942 -69.940804 172.87
-3.1149199 -66.7155 203.117
-3.3247499 -93.867996 141.884
-3.27596 -93.870796 140.201
-3.80828 -85.095703 149.509
-3.5806 -85.346901 148.838
-3.26565 -85.555 147.896
-2.8758299 -85.584297 147.071
-3.0218599 -88.265602 197.869
-3.0135801 -91.257599 154.39301
-2.8938301 -99.7351 159.32401
-2.9741499 -88.255798 141.258
-3.0594499 -80.393898 201.89
-3.0606 -77.7258 202.64799
-3.0434501 -75.013702 203.246
-2.8907199 -82.052696 150.173
-2.95419 -70.054901 164.42101
-2.8726101 -86.627502 144.12
-3.44963 -93.7724 144.32201
-3.01319 -82.369797 201.138
-2.84794 -94.447403 136.97
-2.8548999 -93.745697 136.92799
-2.8092599 -92.963501 136.866
-3.03528 -90.437897 138.68401
-2.8117099 -95.089996 136.99001
-2.9007101 -92.269798 137.711
-2.7904799 -99.633003 139.98
-2.9776599 -86.257202 199.06799
-2.9707699 -84.243401 200.297
-2.6001599 -85.9851 145.397
-3.12235 -93.873596 139.944
-2.7497101 -95.790604 137.03
-2.2402201 -83.046997 151.644
-2.7121699 -92.401604 136.89799
-2.7297299 -101.101 141.828
-3.28633 -94.206703 142.76401
-2.82622 -93.871902 139.349
-3.2622499 -84.754997 149.438
-2.87889 -85.265701 147.92599
-2.8408501 -94.549301 189.584
-2.7309101 -101.353 153.603
-2.7327099 -100.58 156.42999
-2.65341 -92.168098 136.944
-3.20226 -94.0112 141.086
-3.0098701 -87.429497 142.619
-2.65113 -96.801399 137.145
-2.6498201 -100.036 140.354
-3.02314 -91.906601 152.552
-2.6359301 -97.646599 137.578
-2.70489 -79.857697 152.54201
-2.69543 -98.998497 165.94501
-2.5841401 -92.072403 137.114
-2.87112 -66.846901 167.901
-3.092 -93.198997 148.575
-3.28983 -92.5755 149.59399
-2.9716101 -93.692703 147.409
-2.62327 -102.292 150.354
-3.11765 -92.355904 150.963
-2.78883 -89.983902 138.75
-2.52336 -89.760803 139.022
-2.5836401 -98.3181 138.131
-2.59319 -98.9272 138.963
-2.54668 -92.124397 137.39799
-2.69908 -92.325699 137.914
-3.1111701 -94.073196 140.51401
-2.86046 -94.195801 145.989
-2.6382401 -78.398903 154.17599
-2.8907599 -93.908897 139.724
-2.5186701 -92.5504 137.78
-2.6958899 -88.7565 140.33299
-2.8310499 -88.165604 141.158
-2.6517601 -74.606697 159.255
-3.0264599 -94.0774 140.145
-2.6111901 -102.972 146.66901
-2.5425401 -102.808 145.155
-2.5508299 -102.887 147.76199
-2.4396901 -86.296501 144.21899
-2.36236 -89.639603 139.10201
-2.7054901 -87.176498 142.55901
-2.5892301 -93.1884 138.20599
-2.9770501 -94.438904 141.761
-2.77846 -94.705101 144.414
-2.67539 -93.613098 138.582
-2.7037201 -93.798599 138.86301
-2.6022401 -68.252098 166.35001
-2.46012 -100.446 140.80499
-2.9003201 -94.044098 139.992
-2.6241601 -91.850197 138.228
-2.6396699 -90.572098 138.437
-2.4298799 -99.409203 139.605
-2.5468299 -85.438202 140.54601
-2.46104 -85.185402 141.37199
-2.53686 -85.983101 139.815
-2.5200701 -75.879898 157.47301
-2.43785 -86.838203 139.16299
-2.6508601 -95.144203 142.80099
-2.4590199 -93.956001 139.138
-2.56499 -87.967697 141.076
-2.36531 -102.723 148.765
-2.78743 -94.473 140.98801
-2.3424599 -87.6437 138.632
-2.3547001 -85.220596 142.424
-2.3596499 -85.5028 143.457
-2.6196599 -93.987801 139.56599
-2.3956599 -77.225403 155.64301
-2.36098 -99.784698 162.44901
-2.3023 -99.927101 140.14101
-2.3038299 -102.437 143.70399
-2.3740101 -98.525597 170.588
-2.2790599 -88.380997 138.155
-2.65343 -94.075302 139.849
-2.2177899 -89.945099 138.636
-2.13644 -89.816399 138.74899
-2.30288 -90.181099 138.377
-2.2620001 -89.386299 137.73399
-2.26601 -90.413399 137.461
-2.33477 -91.192703 137.022
-2.3793001 -94.057701 191.138
-2.27334 -85.618797 144.504
-2.73365 -94.440498 140.427
-2.2910199 -86.8489 142.55901
-2.79528 -94.196297 140.069
-2.2556 -92.188004 137.08299
-2.43437 -89.255302 139.571
-2.40639 -88.685501 140.104
-2.2788401 -95.166496 141.633
-2.2286401 -87.664398 140.97701
-2.1317599 -85.483398 145.73599
-2.11362 -100.603 158.99899
-2.4263501 -94.127602 139.76601
-2.2487299 -94.062401 139.437
-2.1287 -92.4002 137.31599
-2.11005 -99.362503 165.83
-2.0596199 -102.49 150.37801
-2.0827999 -83.874496 147.619
-2.0257101 -101.864 142.48599
-2.22908 -89.172997 139.438
-2.1816101 -89.543701 139.08701
-2.02952 -81.737198 150.097
-2.1066201 -88.5429 139.90401
-1.95757 -101.272 156.30299
-2.1649301 -93.785698 138.556
-1.99387 -94.047798 138.95599
-1.94244 -93.295998 138.089
-1.98327 -97.989899 174.302
-1.96166 -92.464699 137.563
-2.1292801 -90.761597 138.133
-2.04368 -90.254501 138.31
-1.94758 -89.972298 138.51401
-1.8944 -93.842499 136.81799
-1.85603 -94.526398 136.86501
-1.89693 -93.075798 136.744
-1.85421 -92.682297 137.659
-1.84706 -92.532402 136.77901
-1.92032 -79.503799 152.55701
-2.07038 -78.154503 154.25101
-1.93774 -89.734299 138.739
-2.0095 -94.141899 139.7
-1.9543101 -89.001602 139.29601
-1.81095 -101.182 141.438
-1.86391 -100.134 162.33701
-1.80626 -92.296097 136.83
-1.7939399 -92.238503 137.269
-1.79448 -95.142601 136.881
-1.80127 -101.942 153.608
-2.35531 -94.306602 139.942
-1.76693 -92.1978 137.01199
-1.92463 -89.4664 138.95399
-1.90553 -91.814301 137.84599
-1.84835 -94.173897 139.351
-1.71424 -95.814598 136.908
-1.64117 -88.3256 139.67799
-2.0836999 -95.070801 140.838
-1.6374201 -100.381 140.478
-2.0636699 -94.660599 140.272
-1.6103801 -96.747398 136.989
-1.65201 -100.914 158.89101
-1.72664 -101.428 156.25
-1.60227 -99.729897 139.791
-1.59565 -99.2229 139.237
-1.58503 -97.558998 137.334
-1.56186 -98.157204 137.862
-1.61573 -89.315903 138.884
-1.54416 -98.698799 138.56599
-1.58268 -88.925598 139.11099
-1.68622 -94.267502 139.683
-1.75556 -90.458199 138.093
-1.68483 -90.991997 137.957
-1.64081 -90.132004 138.328
-1.50113 -85.017799 141.259
-1.54896 -85.242203 140.438
-1.5324 -85.774902 139.696
-1.5210201 -89.951897 138.453
-1.4603699 -86.6539 139.028
-1.50816 -89.6334 138.68401
-1.35737 -94.264801 139.31599
-1.4735399 -94.182899 138.838
-1.49543 -93.930199 138.379
-1.39987 -87.531403 138.47701
-1.41493 -85.040604 142.263
-1.4569499 -90.221901 138.23
-1.51196 -90.550697 137.992
-1.38126 -91.209396 136.85699
-1.3715301 -92.194702 136.961
-1.38609 -90.492302 137.265
-1.364 -88.357903 137.97701
-1.35887 -89.439499 137.521
-1.59118 -94.3964 139.855
-1.34761 -85.242203 143.189
-1.25183 -94.374802 139.70399
-1.36878 -98.605598 170.612
-1.3049901 -92.398201 137.226
-1.2294101 -93.472198 138.033
-1.2911299 -85.358398 144.17
-1.2459199 -85.269798 145.55701
-1.22407 -92.465202 137.49899
-1.23675 -83.654297 147.548
-1.22322 -99.601196 165.578
-1.20017 -81.478401 150.132
-1.04888 -93.938301 138.32401
-0.95545298 -94.1959 138.771
-1.1364599 -91.869698 137.715
-1.24261 -91.194397 137.8
-1.22411 -90.663002 137.87199
-1.20022 -90.296303 138.10201
-1.11384 -90.037903 138.28999
-0.95963001 -89.743401 138.45799
-0.82189602 -94.264 139.245
-1.10699 -79.177597 152.689
-1.09194 -77.820503 154.55701
-1.0855 -76.614304 156.231
-1.06662 -75.350601 158.05499
-1.02948 -89.437202 138.631
-0.91391999 -100.414 162.12
-0.953583 -90.7155 137.82201
-0.88108999 -91.158302 137.76401
-0.93059403 -90.362297 138.00999
-0.73440701 -90.148499 138.19501
-0.64968002 -89.9813 138.356
-0.74480098 -90.734497 137.787
-0.70783502 -90.381699 137.967
-0.42492101 -90.416901 137.966
-0.44203901 -90.7705 137.78799
-9.5267296 -93.604897 176.002
-9.2480402 -93.408699 175.784
-9.1582804 -93.3498 176.017
-9.4395304 -93.505302 176.20599
-9.7795 -93.799599 176.20599
-9.5798702 -93.8255 176.244
-9.7171602 -93.637001 176.42101
-10.1744 -94.030098 176.53999
-10.006 -94.112396 176.59801
-10.0451 -93.801903 176.638
-9.8596601 -94.149002 176.66901
-10.5214 -94.120796 176.771
-10.3394 -94.227097 176.89
-10.4371 -93.892502 176.84
-10.2101 -94.267899 177.01199
-11.0581 -94.085098 177.12801
-10.9264 -94.172798 177.254
-10.9692 -93.828499 177.19299
-10.7822 -94.230301 177.409
-11.5947 -93.886299 177.442
-11.4785 -93.953003 177.57899
-11.4762 -93.6903 177.468
-11.3645 -93.9972 177.73199
-11.9888 -93.514801 177.73399
-11.9501 -93.599297 177.91
-11.812 -93.3564 177.70799
-11.8396 -93.645302 178.08099
-12.3439 -92.979103 178.04201
-12.3164 -93.061096 178.254
-12.1599 -92.855904 177.961
-12.2388 -93.1222 178.44901
-12.579 -92.497704 178.27699
-12.6013 -92.5112 178.47701
-12.365 -92.423798 178.132
-12.5771 -92.5121 178.67
-12.6621 -91.920403 178.464
-12.6901 -91.904198 178.646
-12.5127 -91.894302 178.289
-12.6736 -91.903297 178.82401
-12.6123 -91.016403 178.634
-12.6563 -91.085098 178.772
-12.4742 -91.068298 178.509
-12.6472 -91.127602 178.91299
-12.5253 -90.531898 178.69701
-12.5791 -90.547203 178.828
-12.3743 -90.519897 178.627
-12.5839 -90.584801 178.938
-12.3605 -89.8536 178.729
-12.0731 -89.908302 178.739
-8.9234505 -93.334297 176.062
-9.1367998 -93.489304 176.304
-9.41366 -93.642601 176.58701
-9.7457399 -93.775902 176.882
-10.138 -93.831596 177.166
-10.6041 -93.767899 177.49001
-11.0434 -93.594597 177.798
-11.4136 -93.274002 178.063
-11.7303 -92.821701 178.30299
-11.953 -92.315201 178.498
-12.0798 -91.745796 178.659
-12.1011 -91.094704 178.797
-12.0521 -90.520798 178.88
-11.939 -89.986702 178.912
-1.1185 -83.570999 149.427
-0.98108202 -85.098503 146.936
-0.90914798 -85.824501 144.508
-0.86608499 -86.230904 142.528
-2.2174399 -85.154404 147.349
-2.4760201 -83.994499 149.953
-0.001885 -79.098503 158.67999
0.017764 -81.934402 153.67999
0.033395998 -83.597702 149.407
0.043609999 -85.0961 146.82001
0.058754001 -86.116402 142.38699
0.081072003 -90.579697 137.326
0.085853003 -92.544197 136.743
0.086999997 -93.155403 136.673
0.083205 -91.218903 136.948
0.088072002 -93.921501 136.70399
0.079054996 -89.592796 137.493
0.085299 -92.301903 136.80299
0.084582001 -92.2071 136.99001
0.088945001 -94.593399 136.75301
0.084500998 -92.151802 136.989
0.084097996 -92.364998 137.226
0.075939998 -88.505402 137.96899
0.089785002 -95.213097 136.787
0.083855003 -92.343002 137.295
0.080236003 -90.808601 137.71201
0.080936998 -91.305 137.73
0.083025999 -92.407303 137.597
0.081941999 -92.021202 137.759
0.078534 -90.2687 137.99899
0.079140998 -90.411003 137.87199
0.072916999 -87.628998 138.52
0.090704001 -95.911499 136.834
0.078065 -90.1632 138.10001
0.077239998 -89.908699 138.242
0.084096 -92.794098 137.44
0.069642998 -86.7174 139.134
0.084123001 -93.469398 137.767
0.091507003 -96.676804 136.953
0.083899997 -94.114197 138.16
0.075425997 -89.260101 138.51199
0.076420002 -89.609497 138.36099
0.082740001 -94.461998 138.711
0.081124999 -94.522301 139.26801
0.080252998 -94.595299 139.589
0.080115996 -94.723099 139.69701
0.066123001 -85.818802 139.836
0.091629997 -97.417503 137.28101
0.075041004 -89.117599 138.56599
0.079836003 -95.033302 139.94299
0.090737 -97.990501 137.85699
0.062996 -85.271202 140.584
0.071249001 -88.107002 139.30099
0.089350998 -98.468002 138.54601
0.060176 -85.038498 141.388
0.088243 -98.9431 139.144
0.063112997 -86.548103 141.17999
0.057257 -85.045097 142.343
0.087380998 -99.470901 139.687
0.054878999 -85.209801 143.201
0.052170001 -85.808701 144.382
0.086372003 -100.2 140.379
0.052113999 -85.291801 144.144
0.085047998 -101.092 141.254
0.067846999 -96.253998 144.46001
0.083251998 -101.843 142.213
0.047736 -85.0802 145.466
0.061533 -95.804703 146.297
0.080518998 -102.43 143.397
0.056586001 -95.377701 147.698
0.038770001 -83.384697 147.548
0.076594003 -102.828 144.875
0.051658999 -94.904404 149.07001
0.071975999 -103 146.467
0.027159 -81.170998 150.23599
0.047295999 -94.4674 150.276
0.068157002 -102.962 147.694
0.01506 -78.893402 153.05
0.042718999 -94.040398 151.55701
0.0072010001 -77.565903 154.95399
0.037029002 -93.507202 153.14799
0.064448997 -102.813 148.82899
0.040555 -101.641 156.041
0.059154999 -102.604 150.452
0.048753999 -102.105 153.597
0.029479999 -92.724701 155.22099
0.00023400001 -76.392601 156.64301
0.022129999 -91.817001 157.168
-0.0059099998 -75.383102 158.146
-0.014607 -73.966698 160.27901
-0.02802 -71.493797 163.425
0.0097319996 -80.957497 155.814
-0.036194999 -69.787003 165.243
0.011337 -90.204498 159.88699
-0.042597 -68.306702 166.59599
-0.047359001 -67.116501 167.55701
0.031427 -101.129 158.76401
-0.0024649999 -88.169899 163.37801
-0.017844001 -76.427597 162.558
-0.023751 -85.536102 169.01199
-0.038511001 -73.274597 167.73199
-0.059944998 -68.998703 172.599
0.020172 -100.389 162.06799
-0.0713 -68.199501 175.905
-0.040764 -82.702599 173.15401
-0.061787002 -75.441101 176.40199
-0.075346 -69.525902 177.88499
-0.071567997 -72.1791 177.97099
0.008622 -99.6343 165.46001
-0.0086319996 -98.574097 170.561
-0.021181 -97.903702 174.32201
-0.030833 -97.639 177.338
-0.038876999 -97.391899 179.84
-0.049231 -96.747101 182.896
-0.057440002 -96.156097 185.28
-0.064198002 -95.663597 187.24001
-0.068965003 -95.314301 188.62199
-0.073325001 -94.952003 189.864
-0.078515999 -94.527199 191.34599
-0.082846001 -94.034203 192.513
-0.088013999 -93.198097 193.784
-0.096235 -91.694397 195.718
-0.103136 -90.016502 197.13499
-0.10959 -88.108704 198.29201
-0.116593 -86.1325 199.59399
-0.123653 -84.040802 200.85699
-0.129289 -82.151299 201.756
-0.13488699 -80.138901 202.582
-0.141581 -77.509598 203.459
-0.147624 -74.722603 204.045
-0.152676 -71.841301 204.25999
-0.16301499 -63.573898 203.524
-0.156431 -69.410103 204.27699
-0.16025899 -66.544403 204.101
0.072509997 -96.484901 143.054
0.077243 -96.247704 141.392
0.078844003 -95.715401 140.606
0.025862999 -82.849701 151.493
2.5406201 -83.9869 149.968
2.3015399 -85.147499 147.36301
0.98306 -86.228104 142.533
1.01274 -85.821602 144.51401
1.06758 -85.095398 146.942
1.18507 -83.567398 149.43401
11.8441 -89.9505 178.985
11.959 -90.4842 178.953
12.0103 -91.057999 178.871
11.9917 -91.709099 178.733
11.8677 -92.2789 178.571
11.6478 -92.786003 178.375
11.3339 -93.239304 178.132
10.9663 -93.561096 177.86501
10.5294 -93.735703 177.55499
10.0656 -93.800903 177.228
9.67488 -93.7463 176.94099
9.3442001 -93.613998 176.645
9.0686197 -93.461502 176.36
8.8562803 -93.307198 176.116
11.979 -89.871696 178.813
12.2663 -89.816002 178.80499
12.4906 -90.5466 179.015
12.2827 -90.482399 178.702
12.4864 -90.509003 178.90401
12.4334 -90.493896 178.77299
12.5557 -91.089203 178.99001
12.385 -91.030403 178.58501
12.5655 -91.0467 178.849
12.5222 -90.978104 178.711
12.585 -91.864799 178.90199
12.4274 -91.8563 178.366
12.6026 -91.8657 178.72301
12.5758 -91.881897 178.541
12.4914 -92.4739 178.74699
12.2823 -92.386299 178.20799
12.5168 -92.4729 178.554
12.4957 -92.459503 178.354
12.1563 -93.084999 178.52299
12.0796 -92.819 178.035
12.2349 -93.023697 178.32899
12.2634 -92.941597 178.118
11.761 -93.609299 178.153
11.7347 -93.320503 177.78
11.8724 -93.563004 177.983
11.9119 -93.478401 177.808
11.2891 -93.962601 177.802
11.4015 -93.655502 177.53799
11.4039 -93.918198 177.649
11.5207 -93.851097 177.513
10.7095 -94.197502 177.47501
10.8965 -93.795197 177.25999
10.8544 -94.139603 177.321
10.9867 -94.051498 177.196
10.1399 -94.2369 177.07401
10.3668 -93.860802 176.90401
10.2699 -94.195702 176.953
10.4523 -94.088799 176.836
9.7912397 -94.119003 176.729
9.9758301 -93.7714 176.69901
9.93787 -94.082001 176.659
10.1064 -93.999199 176.60201
9.6486902 -93.607498 176.481
9.5130701 -93.796402 176.30299
9.7128496 -93.769897 176.265
9.3719902 -93.4767 176.26401
9.0914297 -93.321999 176.073
9.1827898 -93.380699 175.841
9.4607401 -93.575996 176.061
0.60191703 -90.768898 137.79201
0.58262998 -90.415398 137.96899
0.86542499 -90.379303 137.972
0.90457201 -90.732002 137.79201
0.80366701 -89.979103 138.36099
0.88989002 -90.146004 138.2
1.08786 -90.3592 138.01601
1.04228 -91.155403 137.77
1.11308 -90.712402 137.828
0.953996 -100.411 162.12601
1.18011 -89.4338 138.63699
1.05523 -75.347397 158.062
1.08915 -76.611 156.237
1.10953 -77.817101 154.564
1.14016 -79.174202 152.696
0.98348498 -94.2612 139.25
1.11226 -89.740196 138.465
1.2684 -90.034203 138.297
1.35672 -90.292397 138.11
1.3831199 -90.658997 137.88
1.40369 -91.1903 137.808
1.30012 -91.865997 137.72301
1.11974 -94.192802 138.77699
1.2151099 -93.934898 138.33099
1.25603 -81.474602 150.13901
1.23961 -99.597397 165.58501
1.31508 -83.650497 147.556
1.39087 -92.461197 137.507
1.34138 -85.2658 145.565
1.39537 -85.354301 144.17799
1.396 -93.468201 138.041
1.47326 -92.393997 137.235
1.3512599 -98.601402 170.62
1.41093 -94.370697 139.71201
1.45751 -85.2379 143.198
1.74941 -94.391296 139.86501
1.51631 -89.435097 137.53
1.51535 -88.3535 137.98599
1.54831 -90.487801 137.274
1.54079 -92.190201 136.97
1.54817 -91.204903 136.866
1.6698999 -90.545799 138.002
1.61242 -90.217201 138.24001
1.5298899 -85.036102 142.272
1.54563 -87.526901 138.48599
1.66129 -93.9254 138.388
1.63736 -94.1782 138.84801
1.51851 -94.260399 139.325
1.65906 -89.628601 138.69299
1.60008 -86.6492 139.037
1.67431 -89.946999 138.463
1.6653301 -85.769997 139.70599
1.67572 -85.237297 140.448
1.62217 -85.013 141.269
1.7954 -90.126701 138.339
1.84431 -90.986603 137.968
1.91258 -90.452599 138.105
1.8451101 -94.2621 139.694
1.7288001 -88.920502 139.121
1.7234 -98.693802 138.576
1.76443 -89.310799 138.895
1.74377 -98.1521 137.87199
1.76836 -97.553902 137.345
1.77238 -99.217697 139.248
1.77714 -99.7248 139.802
1.8057801 -101.422 156.261
1.71339 -100.908 158.90199
1.79335 -96.742302 136.99899
2.22014 -94.654099 140.285
1.81007 -100.376 140.48801
2.2379501 -95.064201 140.851
1.78198 -88.320297 139.689
1.89486 -95.809097 136.91901
2.00898 -94.167999 139.36301
2.0682001 -91.808296 137.858
2.07335 -89.460297 138.966
1.9358799 -92.192101 137.02299
2.5127201 -94.299202 139.957
1.89817 -101.936 153.62
1.97322 -95.136902 136.892
1.96144 -92.232803 137.28101
1.97663 -92.290298 136.842
1.90178 -100.128 162.34801
1.98015 -101.176 141.44901
2.09952 -88.995499 139.30901
2.1678901 -94.135498 139.713
2.0885999 -89.728104 138.75101
2.0908401 -78.148102 154.26401
1.9552799 -79.497902 152.569
2.01847 -92.526497 136.791
2.0206699 -92.676399 137.67101
2.07021 -93.069801 136.756
2.03299 -94.5205 136.877
2.0695601 -93.836502 136.83
2.1005399 -89.966103 138.526
2.19875 -90.248001 138.323
2.2869699 -90.754898 138.147
2.1280501 -92.458504 137.576
1.94124 -97.983902 174.314
2.10813 -93.289803 138.101
2.1565399 -94.041496 138.96899
2.3292501 -93.778801 138.57001
2.0359001 -101.266 156.31599
2.2467 -88.536301 139.918
2.08636 -81.730904 150.10899
2.32974 -89.536797 139.101
2.37393 -89.166 139.452
2.1905601 -101.857 142.49899
2.16135 -83.867996 147.632
2.1779799 -102.484 150.39101
2.12415 -99.356102 165.843
2.2964001 -92.393501 137.33
2.4084899 -94.055298 139.451
2.58429 -94.120003 139.78101
2.1733799 -100.596 159.01199
2.2267599 -85.476799 145.74899
2.3594601 -87.657402 140.991
2.42851 -95.159302 141.647
2.54568 -88.677902 140.119
2.57866 -89.247704 139.58701
2.4240799 -92.180901 137.097
2.95156 -94.187599 140.08701
2.4096601 -86.841797 142.573
2.8884799 -94.4319 140.44501
2.3763001 -85.611702 144.519
2.22206 -94.050697 191.15199
2.5005901 -91.185303 137.037
2.42676 -90.406303 137.47501
2.4179499 -89.379204 137.748
2.45731 -90.173798 138.392
2.2874801 -89.809601 138.763
2.36992 -89.938103 138.64999
2.8106999 -94.066902 139.866
2.4293599 -88.373802 138.17
2.35638 -98.518303 170.603
2.46294 -102.43 143.71899
2.47562 -99.9198 140.15601
2.39709 -99.777496 162.463
2.4047401 -77.218102 155.658
2.7783899 -93.979599 139.582
2.4686799 -85.495399 143.472
2.4691899 -85.213303 142.439
2.4875901 -87.636398 138.647
2.93892 -94.464302 141.006
2.4942701 -102.715 148.78
2.69612 -87.959702 141.092
2.62028 -93.948303 139.15401
2.7932799 -95.135902 142.81799
2.57727 -86.830597 139.17799
2.5138299 -75.872299 157.48801
2.6696801 -85.975197 139.83099
2.5818801 -85.177696 141.388
2.6735101 -85.430298 140.562
2.6048999 -99.401497 139.62
2.79491 -90.563797 138.45399
2.78457 -91.841904 138.245
3.0566101 -94.035004 140.00999
2.63094 -100.439 140.82001
2.5183201 -68.244301 166.366
2.86619 -93.790199 138.88
2.83902 -93.604698 138.599
2.9096601 -94.696404 144.431
3.1236899 -94.429604 141.78
2.75386 -93.180298 138.22301
2.82511 -87.168098 142.576
2.51069 -89.632202 139.117
2.5464599 -86.288902 144.23399
2.68643 -102.879 147.77901
2.6938901 -102.8 145.17101
2.7537501 -102.964 146.686
3.18191 -94.067902 140.164
2.6307099 -74.598602 159.272
2.96227 -88.156799 141.17599
2.8339801 -88.7481 140.35001
2.68397 -92.542503 137.79601
3.04827 -93.899803 139.743
2.6598899 -78.3908 154.192
2.9804399 -94.186897 146.007
3.2643399 -94.063499 140.534
2.86288 -92.317299 137.931
2.7130201 -92.116302 137.41499
2.7706699 -98.918999 138.979
2.76437 -98.309998 138.147
2.67255 -89.752899 139.03799
2.9403601 -89.975197 138.767
3.20152 -92.346298 150.98199
2.7411699 -102.284 150.37
3.0813501 -93.683502 147.427
3.38276 -92.5653 149.614
3.1930799 -93.1894 148.59399
2.7734001 -66.838303 167.91901
2.75207 -92.064201 137.131
2.7077 -98.990303 165.96201
2.7409999 -79.849403 152.55901
2.8180001 -97.638298 137.595
3.0959001 -91.897301 152.571
2.82216 -100.028 140.371
2.8332801 -96.793098 137.162
3.12989 -87.420197 142.638
3.3517301 -94.001198 141.106
2.82267 -92.159698 136.961
2.80813 -100.572 156.44701
2.82603 -101.344 153.62
2.6946199 -94.540901 189.601
2.95978 -85.256798 147.944
3.33231 -84.744904 149.45799
2.98592 -93.862999 139.367
3.42611 -94.196503 142.785
2.89627 -101.092 141.845
2.8824201 -92.393097 136.91499
2.2915699 -83.0401 151.657
2.9294801 -95.781898 137.047
3.27841 -93.863899 139.964
2.69875 -85.976997 145.41299
2.7274499 -84.234703 200.315
2.7480099 -86.248497 199.086
2.96387 -99.624199 139.998
3.0655799 -92.260696 137.729
2.9895899 -95.0812 137.008
3.1886001 -90.428398 138.703
2.98142 -92.954697 136.884
3.0290699 -93.736702 136.946
3.0239799 -94.438499 136.98801
2.7590001 -82.361 201.15601
3.5785301 -93.761703 144.34399
2.9809799 -86.618599 144.138
2.8875899 -70.045998 164.439
2.94804 -82.0438 150.19099
2.7539101 -75.004898 203.26401
2.783 -77.716904 202.666
2.7946301 -80.385002 201.908
3.1050401 -88.246498 141.276
2.94893 -99.726196 159.342
3.07307 -91.248398 154.411
2.8056901 -88.256699 197.88699
2.96293 -85.575401 147.089
3.34759 -85.544998 147.916
3.6561301 -85.335899 148.86
3.8789301 -85.084 149.533
3.4304299 -93.860603 140.22099
3.46889 -93.857597 141.905
2.80089 -66.706497 203.13499
3.0306699 -69.931396 172.88901
3.32707 -73.784897 167.849
3.6113 -76.629097 163.062
3.3487401 -87.572197 142.71899
3.8783 -91.523804 149.605
3.85813 -91.763 149.017
2.81513 -72.216797 203.425
3.6575601 -93.210701 145.86501
3.81387 -92.214996 148.241
3.7035 -92.6567 147.198
2.93063 -97.5383 177.149
3.55656 -93.820801 140.618
2.86571 -90.009003 196.66
3.0404501 -84.094597 147.873
3.08323 -99.760201 140.201
3.1825199 -93.763 139.16
3.70346 -84.428001 150.533
3.0994599 -100.156 140.664
2.7625501 -89.379799 139.58501
2.99913 -89.527702 139.55099
3.37939 -89.718201 139.588
3.2186301 -92.062798 137.53101
2.87532 -63.897202 202.46001
3.1516099 -90.357697 137.86301
3.2927001 -91.105598 137.47
3.3184299 -86.876602 144.187
3.7007301 -93.592499 142.942
3.65676 -93.710403 141.205
3.19665 -86.262497 145.49899
3.1224301 -85.719498 146.13499
3.3418901 -91.679802 138.827
2.91329 -69.504799 203.274
3.9007199 -91.288597 150.726
4.20643 -84.736 150.56799
3.65431 -79.070801 159.013
2.4762599 -82.169296 153.737
2.9516301 -81.006599 156.101
3.1965699 -100.477 141.194
3.1282401 -99.074699 162.627
3.5067699 -85.970802 146.793
3.8196599 -85.813202 147.784
3.2374001 -89.468498 138.20799
3.0376699 -91.133598 195.37399
3.24071 -99.875298 140.44701
4.0634298 -85.626404 148.69099
3.2417901 -88.621597 138.58
3.29897 -93.678101 139.01199
3.75773 -93.510803 142.01601
3.8295801 -93.166901 144.328
3.2885301 -93.759102 139.60201
4.3092999 -85.354103 149.53999
4.0121698 -95.306801 186.642
3.10743 -94.954903 188.319
3.24756 -88.371399 141.267
3.9187 -92.632599 145.752
3.5584099 -86.522102 145.565
4.1469598 -88.832901 158.634
3.36411 -90.303398 156.436
3.3693199 -93.4748 138.783
3.4630899 -93.114899 138.463
4.0109401 -92.044502 147.07401
4.0585999 -91.599197 148.052
4.0890899 -91.199898 148.78
3.5478301 -87.719803 142.715
3.26436 -84.205101 150.38
3.3042099 -85.9571 145.117
3.0876 -66.943703 202.467
4.13482 -90.927101 149.532
2.9893401 -88.976097 140.235
3.3464301 -88.036003 139.067
2.9537799 -83.325699 151.74899
3.38169 -82.579002 153.75101
3.5773001 -83.605698 151.922
4.1005001 -83.920799 152.11301
3.81809 -90.872498 152.23199
3.3587501 -100.136 140.974
3.3866899 -85.933403 144.05901
3.3437099 -85.638298 142.91299
3.9187601 -93.214996 143.062
3.8851199 -86.241302 146.75
4.1756201 -86.031998 147.741
3.6010001 -90.237801 139.285
3.3726001 -101.599 142.957
4.1448398 -75.047401 174.442
7.0430498 -79.884102 172.438
6.5882201 -82.882896 167.45799
3.2892399 -98.377701 170.52299
4.5971699 -84.329803 152.08099
3.40469 -88.504898 141.17599
3.3875 -101.999 150.34
3.32882 -71.530701 162.49699
3.5683999 -87.053902 144.272
4.3856902 -85.829903 148.651
3.4414799 -98.972298 139.539
3.4008701 -92.5252 138.16
4.6191602 -85.043098 150.578
3.2063301 -89.105797 140.224
3.5499899 -89.206497 140.364
3.5762 -92.072197 138.616
3.50087 -93.647797 139.433
3.45507 -99.902901 140.787
4.0335302 -92.745399 144.325
4.9129601 -85.314903 150.52901
4.61658 -85.573196 149.548
3.46333 -98.701202 139.16701
3.3938999 -92.022301 137.812
3.4470899 -85.6278 141.814
3.41748 -100.937 153.633
3.5643599 -85.956802 140.989
3.5622399 -86.528297 140.263
3.46104 -87.326103 139.603
4.1113701 -92.209297 145.688
3.79194 -88.034103 142.40199
3.67276 -93.686401 140.215
3.80459 -93.625504 140.618
3.48418 -99.898903 141.519
3.49456 -99.207199 139.888
4.1709399 -91.692497 146.93401
3.3505399 -96.762604 182.00999
4.2168298 -90.614502 150.54201
3.90853 -93.4897 141.19701
3.9263899 -82.820801 153.908
4.0092602 -81.754303 155.927
4.5549102 -83.146896 154.254
3.4598899 -100.075 156.489
3.44945 -91.876099 137.502
4.1951499 -91.219498 147.94901
4.2634001 -90.854202 148.666
3.50295 -102.334 148.791
3.68501 -100.054 141.72
3.53005 -100.368 141.408
3.5757201 -93.681099 139.92999
3.5956099 -88.549301 141.265
3.8341801 -88.531097 141.55701
4.9548202 -80.028297 158.834
3.8808601 -70.332199 172.597
4.3185101 -74.214699 168.31599
4.849 -77.189796 163.433
4.3517199 -90.531303 149.40601
4.4733901 -90.181 150.284
3.30053 -64.206802 201.63499
3.4384401 -97.806198 174.2
3.56372 -99.430099 140.164
3.7559199 -89.592003 140.11501
3.39744 -92.350899 193.80499
4.03619 -71.123001 162.60899
3.6466601 -70.082298 164.08701
3.4781001 -68.266403 166.338
3.99439 -93.257401 141.989
3.51683 -98.726898 162.651
3.8464 -90.2211 153.961
3.9047401 -88.923798 141.05499
3.67167 -93.5187 139.276
3.62376 -98.193604 138.513
5.0366302 -83.778397 154.071
3.56724 -91.964699 137.35001
3.6288199 -99.644302 141.66299
3.8055999 -86.7118 145.649
3.6340699 -99.580902 142.646
3.63954 -100.854 142.12399
3.68293 -90.241898 138.366
3.5677099 -98.373901 166.041
3.6441801 -95.313103 148.81
3.6826501 -99.579803 140.42599
3.78122 -93.263496 139.075
4.9549398 -81.850403 157.02
4.0949502 -88.6651 141.79601
3.6357601 -92.190498 137.31
4.1420999 -92.935699 143.017
3.92029 -90.933899 138.089
3.96106 -91.802803 138.26601
3.79568 -92.0084 138.44099
4.9998798 -84.755302 151.95599
3.7126901 -97.5131 137.976
3.7160499 -99.289703 142.845
4.2786798 -90.148003 151.836
3.7516301 -96.655899 137.533
3.7195899 -102.523 147.905
4.1161699 -86.432098 146.793
3.9711599 -100.655 142.226
4.0471902 -100.265 142.35899
3.74245 -99.785599 142.52299
4.1665602 -89.317001 140.828
3.87445 -91.407303 139.539
3.8275499 -93.578697 140.185
3.7785101 -93.543701 139.76199
3.78791 -87.197403 144.328
3.7382801 -95.612099 148.60201
3.9686201 -72.482002 176.062
4.12609 -70.2407 174.62801
4.25986 -71.161903 175.842
7.17627 -77.346298 171.60201
7.18186 -80.569 166.543
5.0229802 -74.956596 169.595
5.9424801 -75.708801 170.597
5.8095198 -78.000603 164.39999
6.9021902 -78.998001 165.423
5.9844198 -80.760201 159.64301
5.8972902 -82.442497 158.02
5.42979 -83.058296 156.27
3.7613001 -96.408501 147.571
3.6101401 -93.001198 192.547
4.2013302 -89.379097 155.868
4.9432001 -88.177002 158.036
5.3768201 -86.148598 161.394
4.3912501 -86.203201 147.761
4.2551298 -92.428802 144.248
3.84201 -92.683197 138.72099
4.0022998 -93.4776 140.576
4.1196599 -93.325203 141.12
3.7878301 -92.7575 137.278
3.80972 -101.952 144.022
3.83869 -95.642403 137.38499
3.83726 -99.6371 140.77499
4.29038 -88.094101 142.92599
3.81603 -96.435204 147.55
4.0357199 -90.056297 139.90401
4.3334298 -91.874496 145.612
4.21136 -93.082298 141.83099
3.8893001 -93.556503 137.299
3.9075899 -94.264 137.323
3.8880701 -94.924301 137.339
4.3676701 -89.080299 141.89
3.8527801 -95.534599 149.09599
3.7653601 -66.929901 168.063
3.8768301 -97.660896 145.991
4.0595899 -87.397102 144.31
3.9702401 -93.397797 139.63499
3.89309 -102.604 146.994
3.7594199 -75.248299 202.59
3.6755099 -72.562698 202.743
3.8755 -100.567 153.597
3.9208701 -89.229202 139.12601
3.89241 -95.569 149.07201
4.5907798 -85.996399 148.65601
3.92172 -102.098 144.51401
4.0169401 -102.405 145.645
3.88152 -91.888496 138.36301
3.9765699 -98.760201 144.427
3.9296601 -99.362503 143.828
4.0159998 -93.460701 140.10699
4.8040299 -85.7593 149.552
3.96205 -99.452904 141.72099
3.9410801 -101.543 150.29201
5.3910499 -84.392502 153.813
4.1182799 -93.145302 139.492
4.21065 -92.621902 139.29401
3.97157 -97.605797 146.011
5.0633798 -85.491402 150.524
5.2511802 -85.219902 151.591
3.9755499 -96.207397 148.106
4.3762202 -89.488297 153.455
3.95419 -80.9161 152.761
3.88219 -97.121902 179.039
3.7786701 -70.013603 202.411
4.39642 -91.376297 146.85001
4.44175 -90.961899 147.748
4.5056601 -90.578499 148.545
4.65838 -88.546204 143.08
4.1900601 -93.348503 140.51199
4.3014302 -93.1838 141.01401
3.98908 -98.922997 159.39999
4.6028299 -90.261803 149.287
4.69947 -89.946503 150.12199
4.3549299 -92.716301 142.793
3.99158 -91.699303 138.09599
4.05691 -99.1539 142.963
4.0032902 -79.483902 154.201
4.6544199 -89.6735 151.216
7.0094199 -83.210999 161.95399
4.0370102 -82.790901 150.563
3.9026699 -93.464699 191.22
4.0075798 -86.852798 145.717
4.1694899 -91.755699 139.342
4.08498 -96.354301 148.01199
4.0777001 -84.481796 148.591
4.06214 -99.577599 156.46001
4.0541401 -78.238197 155.57401
4.0219998 -98.020599 170.23801
4.4014301 -92.942101 141.51601
4.0994201 -85.861 146.948
4.10572 -102.024 148.726
4.1996698 -93.320801 140.02699
4.1479001 -99.784401 143.63699
4.13062 -95.773903 149.604
4.16363 -101.226 143.215
4.52597 -100.441 143.401
4.4849701 -100.938 143.311
4.1695299 -88.887001 139.763
4.15834 -97.561401 146.556
4.1574202 -95.762604 149.604
4.1955099 -98.441498 139.755
4.4390802 -87.637802 144.423
4.3483601 -93.082298 139.91
4.2055101 -98.165802 139.418
4.4892302 -89.896599 140.821
5.78301 -83.905602 155.86099
6.2294202 -83.276299 157.993
6.9398999 -81.971497 160.68401
4.4993901 -92.147301 144.02699
4.8545899 -91.657204 194.088
4.0221 -90.9161 195.31599
4.17698 -100.222 153.57001
3.98177 -67.340202 201.84399
4.2125401 -98.612602 144.489
4.25214 -87.018898 145.74001
4.1708999 -91.795303 137.97
4.2439399 -98.703697 140.041
4.2225099 -86.244904 146.011
4.5271401 -92.499603 142.308
4.1027398 -96.305901 183.44501
4.2420502 -88.513603 197.422
4.0587201 -90.001999 196.20799
4.1798902 -97.896797 165.974
4.4950399 -92.7817 141.532
4.35673 -93.207703 140.45599
4.4366698 -93.019997 141.035
4.3522902 -91.1539 140.341
4.6726499 -91.050903 146.812
4.6033802 -91.547501 145.521
4.6974401 -88.670998 155.185
4.2913198 -97.803398 138.93401
4.2878699 -86.566399 146.851
4.44559 -92.613701 139.73
4.28825 -102.184 147.966
4.3235898 -91.841202 139.22
4.4807601 -92.964302 140.299
4.3219199 -99.019203 140.325
4.28932 -100.921 150.291
4.2788701 -92.042801 137.929
4.3203902 -98.6091 145.43201
4.3495498 -90.022903 139.27299
4.3559999 -97.177696 138.506
4.32897 -86.405701 145.105
5.6257 -84.988403 153.416
4.3354301 -97.443497 146.582
4.2841601 -76.919296 157.00999
4.7952099 -88.083199 144.533
4.5819302 -90.654503 139.05499
4.6062102 -91.482803 139.18201
4.4156399 -91.686798 139.26199
4.5479798 -92.7649 140.791
4.3526902 -96.5289 148.53999
4.5930099 -92.515701 141.39301
4.3846002 -88.451797 140.495
4.3933001 -99.228996 140.595
4.1624799 -77.7995 201.825
4.80545 -89.008797 152.853
4.6570201 -92.147903 142.306
4.5302701 -92.469597 140.00101
4.54914 -86.328003 147.798
4.7346902 -91.787201 143.508
4.7142 -90.727303 147.535
4.4881601 -86.7099 146.883
4.44801 -99.321999 140.939
4.42489 -99.190598 142.894
4.4410901 -99.313103 141.72
4.43994 -96.3078 138.16499
4.3839202 -99.201202 156.408
4.41998 -96.508797 148.539
4.4442601 -99.081596 145.049
4.6107502 -89.770103 141.899
4.3331199 -65.649696 170.06
4.2200098 -64.558601 200.97301
4.3346701 -97.187698 176.936
4.2533302 -85.986397 198.873
4.5068898 -84.752296 149.049
4.4270701 -83.481102 150.94299
4.4074898 -98.113197 162.61501
4.46593 -102.223 147.375
5.2038202 -87.604202 157.028
4.4809899 -101.407 144.19099
4.4578099 -96.211403 150.05099
4.4779801 -91.545898 139.013
4.4584498 -99.692001 153.577
4.6118002 -92.287498 140.48599
4.48487 -86.498901 144.272
4.2898698 -84.312698 199.755
4.3048701 -80.6548 201.075
4.2981901 -82.539902 200.44501
4.4755802 -96.2304 149.99699
4.4858198 -101.442 148.827
4.5720901 -87.267403 145.776
4.55867 -91.738998 139.767
4.9127402 -90.028603 149.134
4.8085399 -90.343102 148.403
4.4928699 -92.611298 137.89799
4.90376 -91.112297 145.468
4.5183201 -87.783501 141.29201
4.6259198 -87.183403 142.18201
4.5675502 -86.708 143.145
4.7478399 -86.1306 148.659
5.8220401 -86.1474 158.79601
6.63662 -84.648804 159.436
4.49125 -81.765999 153.048
4.9126601 -86.249199 148.658
4.7244401 -86.448898 147.827
4.5703101 -95.359596 137.993
4.5001202 -98.460197 159.319
4.3949299 -94.144897 189.381
4.9489899 -85.940903 149.49899
4.8242402 -91.637802 142.16701
4.6644702 -92.108002 141.06599
4.9587498 -90.587898 147.052
4.5817699 -101.486 144.66499
4.5725899 -97.666 147.002
4.3639202 -75.449303 201.991
4.69665 -90.929703 141.07001
4.6216302 -94.656197 137.948
4.6398902 -93.991302 137.936
4.6134701 -93.322502 137.912
4.5337601 -75.432999 158.44901
4.3941798 -72.892303 201.92
4.6389999 -98.897202 143.998
4.6371999 -101.652 145.161
4.9597502 -89.2621 143.035
5.1190801 -88.221298 154.304
4.6395702 -98.293404 145.502
4.6599798 -89.842697 139.868
4.6322198 -100.425 150.312
5.20786 -85.742798 150.47099
4.84547 -98.390198 156.32001
4.6159701 -98.861099 156.36099
4.58395 -72.658401 160.82899
4.7193298 -91.632698 140.328
5.9569302 -84.745796 155.207
6.6914001 -84.088303 158.86501
6.2968602 -84.444199 157.086
4.9038901 -87.668503 145.83701
4.6634698 -101.656 148.142
4.67203 -98.637001 146.187
4.6333098 -80.5411 154.444
4.6518302 -83.7799 151.095
5.1195302 -90.102898 148.283
4.7284799 -91.471298 139.627
4.8501501 -100.834 144.34599
4.70542 -99.484001 144.856
5.0827198 -100.129 144.627
5.0657902 -86.125801 149.30499
4.4872298 -70.500504 201.55299
4.7232099 -101.825 145.905
4.70786 -102.094 146.51199
4.68963 -84.920502 149.26601
4.6272001 -97.648804 169.817
4.69455 -96.598801 150.62801
4.97156 -91.477097 139.711
4.7037501 -91.622002 138.94901
4.7126398 -97.538803 147.158
5.1543298 -89.849503 149.065
5.0831299 -89.655701 149.778
4.7291298 -96.976799 148.92799
4.7512398 -99.094398 145.81599
4.7756701 -97.945 140.38499
4.8849702 -97.140701 150.53799
4.7452698 -96.783401 150.25101
4.9229498 -97.105598 150.54601
4.7501702 -96.863998 149.08701
5.1925502 -88.664703 152.336
5.10462 -89.204399 151.015
4.7905302 -97.596298 140.175
4.6731 -97.431099 174.033
4.7954998 -91.378403 140.414
4.7365398 -86.938698 146.908
4.7910199 -100.901 148.946
4.7701898 -82.083801 153.189
6.4281502 -85.142303 157.94901
5.51723 -87.302902 155.85699
6.0369401 -86.195702 157.158
4.8405499 -97.232101 139.95399
4.8336301 -96.696098 139.455
4.9003901 -90.672401 142.006
4.7989202 -99.178299 153.51199
4.8515601 -91.480499 140.955
5.4661999 -85.606499 151.627
5.7530098 -85.542397 153.04201
4.8562899 -89.621803 140.439
4.79879 -79.328598 155.755
5.3017001 -86.014999 150.23801
4.6317902 -67.780998 200.99899
4.8756199 -98.212601 140.66
4.8592801 -101.531 146.328
4.86099 -91.867599 138.948
4.8885498 -91.377197 140.13901
4.8477502 -86.056099 148.16499
4.8859401 -99.191704 142.911
4.8042402 -72.1287 161.23199
5.0597801 -88.768204 144.657
4.9010401 -99.152702 142.08
4.85742 -97.982903 159.19299
4.9065099 -101.444 146.119
4.9238801 -86.640404 147.866
4.91434 -98.188797 147.41901
4.9186001 -101.826 147.543
4.90978 -97.623497 149.27901
5.0125599 -98.958199 147.601
4.92167 -98.2295 149.28799
4.9185801 -97.599503 149.132
4.9681501 -98.089798 149.217
4.8115902 -96.660896 180.69299
4.94699 -99.4533 145.558
4.9766502 -101.138 145.59801
4.9759402 -100.933 145.138
5.1880999 -100.161 145.108
4.9430299 -100.827 144.69501
4.9684901 -95.840599 139.19901
5.00137 -87.302902 146.924
5.1118398 -86.9655 147.819
5.0088902 -99.682503 146.86
4.96595 -99.040604 146.66299
4.9907498 -100.714 146.48199
5.0514698 -100.728 146.28
5.20649 -100.26 145.64799
5.1730499 -100.462 146.04601
4.95574 -99.4608 146.327
5.0676799 -99.726501 146.105
5.1005802 -100.148 146.33299
5.0327501 -99.988503 146.524
4.9902301 -91.193298 142.03999
5.3000102 -90.360497 145.513
5.0678701 -91.069801 143.368
4.7827601 -87.896599 197.80701
4.98068 -98.685501 144.901
5.2288198 -86.817101 148.425
5.0981002 -86.394997 148.812
5.0020399 -98.5896 140.91701
5.0560098 -98.8685 141.15401
5.0329599 -99.038002 141.43401
4.8421402 -94.572197 188.024
5.0795598 -90.242599 143.304
5.0308299 -91.3256 140.32899
5.00914 -90.4207 140.05901
5.2028599 -91.1399 140.24001
5.0047998 -98.313202 146.209
5.0009398 -97.975197 147.571
5.0111499 -101.752 146.937
5.0093999 -99.314796 147.808
5.1213899 -98.614899 147.78101
5.0901599 -99.195 147.83501
5.0622201 -100.412 146.823
5.0472999 -101.287 146.67799
4.9547701 -97.345802 165.804
5.0263 -101.201 148.25999
5.0494599 -91.427803 139.96899
4.8133702 -65.000603 200.12199
5.0485301 -89.270203 141.237
5.04811 -98.978798 143.754
5.0701499 -91.224297 140.80099
5.0716801 -91.150902 141.14799
5.53756 -96.882797 165.492
5.00699 -97.626297 162.46899
5.1134801 -98.695999 153.55099
5.0542102 -99.751701 150.47099
5.18295 -88.280899 145.91499
5.5425901 -85.9729 151.388
5.50846 -89.222 149.597
5.1061602 -92.376602 138.94099
5.0532799 -98.043404 156.295
5.32867 -86.375397 149.772
5.5453 -86.426102 150.873
5.46205 -88.368202 152.14101
5.4955001 -88.806396 150.66701
4.99857 -65.821999 171.53799
5.14258 -94.956703 139.019
5.04073 -70.542999 162.772
5.4208298 -89.953201 146.91901
5.5443001 -89.623802 148.524
5.51192 -89.487999 148.95599
5.1442699 -91.647102 139.851
5.12427 -100.157 149.224
5.02701 -96.853996 178.433
5.1536398 -86.408997 147.45
5.1862202 -96.073303 140.97501
5.1891098 -96.708504 141.326
5.1271701 -97.522102 159.08299
5.4135799 -96.900497 159.04601
5.1953902 -97.060699 141.49001
5.2653198 -87.8479 146.933
5.2137599 -92.968399 138.96001
5.23629 -93.6147 138.972
5.2139001 -94.279602 138.978
5.56849 -76.645699 158.339
5.13943 -78.011597 157.149
5.3099499 -87.313301 147.948
5.3923302 -86.901901 149.097
5.5419402 -86.873299 150.274
5.15697 -81.058701 154.586
5.0471702 -75.628403 201.116
4.9984198 -73.128304 201.084
5.2290702 -97.416702 141.625
5.27215 -89.593002 144.961
5.2467999 -88.795998 142.23199
5.2410698 -101.407 147.69501
5.2526398 -98.672501 146.674
5.29041 -91.1063 141.052
5.4496398 -90.937798 140.937
5.25805 -90.294502 140.722
5.2683501 -90.873398 142.159
5.0457702 -70.909302 200.754
5.2869 -91.2565 140.746
5.1947598 -97.140404 169.192
5.3373799 -99.284103 146.905
5.3186302 -101.394 147.134
5.2832398 -100.094 146.939
5.2946501 -101.035 146.808
5.28016 -100.55 148.392
5.2996702 -90.8685 141.96201
5.2969398 -98.697701 145.601
6.2595201 -85.507599 155.964
5.9960599 -85.587898 154.308
5.8059101 -85.9505 152.715
5.3319802 -98.849701 144.412
5.3414402 -97.742401 141.77499
5.11168 -68.193199 200.19099
5.3484998 -95.2351 140.56
5.3383899 -99.490601 149.075
5.3715701 -99.014603 150.485
5.4100599 -92.135399 139.84801
5.4749699 -89.07 146.104
5.4214201 -95.522697 184.939
5.2501898 -95.027802 186.36301
5.4193501 -99.019402 142.632
5.4081502 -86.828499 146.798
5.4348001 -91.444504 140.74699
5.2087202 -65.386902 199.30099
5.4290099 -88.293404 143.41701
5.5529499 -88.680801 146.858
5.6553001 -88.294296 147.44
5.5834899 -87.576202 149.07899
5.4562702 -90.467003 143.442
5.4485798 -98.055801 153.60201
5.4338799 -97.463997 156.258
5.47506 -100.8 147.799
5.4565902 -85.584503 149.867
5.5033898 -90.819298 142.03
5.66748 -90.639099 141.873
5.48808 -90.0224 141.63
5.5090899 -94.542503 140.168
5.4702902 -84.366402 151.321
5.54598 -93.954903 139.948
5.5198598 -92.702499 139.85001
5.5428901 -93.332703 139.85001
5.30299 -78.453796 200.632
5.5243702 -90.883797 141.931
5.3409901 -91.797203 194.479
5.5189199 -98.967003 146.11099
5.52321 -90.474998 143.291
5.5229702 -87.813499 144.742
5.5425901 -96.429497 142.952
5.552 -96.809502 142.989
5.5541501 -95.576202 142.608
5.5932698 -98.756203 142.284
5.5630398 -98.117897 141.94099
5.6448998 -98.476303 142.10001
5.3504801 -75.8293 200.78
5.5612302 -100.792 146.74001
5.62043 -101.007 147.14301
5.36057 -73.287697 200.67101
5.5747099 -98.5084 148.58099
5.59408 -97.164902 143.026
5.5650601 -86.296204 149.063
5.3904901 -88.067497 153.19099
6.07058 -86.2537 155.62399
5.7737999 -87.107201 154.617
6.0148201 -86.210503 154.311
5.7910399 -86.743202 151.802
5.74575 -87.091003 153.12199
5.66295 -87.914299 152.201
5.6026001 -98.869598 145.048
5.6062002 -96.399101 143.91701
5.6068301 -96.810699 143.964
5.55195 -91.749702 193.63499
5.4626698 -91.912399 192.91299
5.4374399 -92.574699 191.157
5.4850702 -66.062103 173.13
5.5223398 -68.332703 165.32401
5.5665202 -80.1054 155.961
5.6205902 -89.955803 144.834
5.41432 -71.187401 200.364
5.6326299 -99.457397 146.39999
5.5812001 -96.8452 162.246
5.9974198 -96.095596 162.09399
5.4286399 -68.394096 199.826
5.5366302 -96.854103 176.78
5.6452999 -99.868301 148.14301
5.6519299 -100.171 146.545
5.6626301 -97.217697 143.99699
5.6603999 -96.860001 144.895
5.6640201 -95.328102 143.687
5.5299702 -96.295197 181.849
5.65657 -87.418602 146.177
5.6797199 -91.840797 140.75999
5.67414 -96.370201 144.903
5.6865702 -98.862297 143.43201
5.46457 -65.671204 198.937
5.6904602 -91.056602 141.957
5.69731 -97.488297 143.073
5.7030101 -94.739098 142.12
5.7102499 -90.401497 143.276
5.7035499 -89.629204 142.73599
5.8805299 -90.210999 143.07401
5.6028199 -97.039101 173.687
5.7195401 -98.870499 143.903
5.71805 -97.297501 144.81599
5.8157902 -97.526001 145.84399
5.7835798 -97.821098 146.73801
5.6026001 -96.561203 179.645
5.6473799 -96.776497 168.478
5.7789602 -89.524498 146.101
5.7921801 -89.239799 146.75999
5.7386699 -97.078102 145.97501
5.74542 -97.237801 146.925
5.7353501 -97.484398 148.52
5.73139 -86.676598 148.72501
5.76262 -90.447502 143.299
5.76373 -95.134003 144.821
5.5757999 -84.004898 199.239
