# .PCD v.7 - Point Cloud Data file format
VERSION .7
FIELDS x y z
SIZE 4 4 4
TYPE F F F
COUNT 1 1 1
WIDTH 1694
HEIGHT 1
VIEWPOINT 0 0 0 1 0 0 0
POINTS 1694
DATA ascii
-16.6681 -22.2516 60.7803
-18.123199 -8.6142197 59.187801
-17.9895 -8.7523403 57.0396
-16.657499 -22.3717 61.809399
-18.5984 -8.9596596 89.937401
-18.011 -8.5905504 58.254002
-17.993299 -8.6628103 57.616299
-16.663799 -22.516899 63.183899
-16.623199 -22.952299 65.427597
-18.6266 -9.2441597 89.1623
-18.2775 -9.4766102 75.925697
-18.744801 -9.5264397 64.264801
-18.8153 -9.33741 62.763901
-18.551901 -9.7560301 65.988403
-17.062901 -26.723801 83.114601
-17.121099 -26.1273 80.031898
-17.110201 -27.550699 85.732002
-17.224899 -28.2195 87.9505
-18.7089 -9.1388597 61.4823
-18.667101 -9.4803896 88.112198
-17.3901 -28.7493 89.9758
-17.2957 -25.381701 76.656998
-18.677999 -9.9960899 68.477501
-17.615801 -20.4487 55.134602
-18.436001 -9.6918297 79.815598
-17.6022 -29.2775 92.014099
-17.701401 -20.822599 56.039101
-18.665899 -9.6749401 86.6138
-17.6341 -21.0959 56.950901
-17.637699 -21.302401 57.858398
-19.551001 -10.835 64.265602
-19.5937 -10.594 62.9174
-19.5137 -10.3436 61.730202
-18.677299 -9.9440804 55.731899
-17.640301 -21.467501 58.6745
-18.5737 -9.7355499 83.579903
-17.4028 -24.511999 72.878098
-18.8654 -9.9705496 56.903301
-19.392099 -11.1181 65.855499
-17.6437 -21.626801 59.372898
-19.297899 -10.0581 60.682499
-19.1222 -9.8960695 59.726398
-17.627701 -21.807301 60.109699
-19.0455 -10.3981 71.940804
-17.5884 -21.980301 60.990799
-18.8825 -9.9092503 57.7155
-17.5329 -22.0522 61.974998
-17.549 -22.177601 63.358101
-18.8887 -9.8793297 58.976101
-17.615601 -22.6182 65.812897
-18.8652 -9.9143896 58.365002
-17.7122 -23.544399 69.826698
-19.454399 -11.3348 68.129097
-19.569099 -10.9161 56.172699
-18.3517 -20.0728 55.573898
-19.401699 -10.8055 75.959503
-19.776899 -11.0971 57.442001
-18.4709 -20.395399 56.535301
-18.471201 -20.688801 57.395699
-18.507 -20.913 58.262798
-18.5005 -21.092899 59.041901
-18.488199 -21.2456 59.717201
-18.2838 -21.5553 62.2258
-18.3218 -21.646099 63.576698
-18.366301 -21.5189 61.291698
-19.8015 -11.7534 71.769798
-18.443199 -21.3979 60.440201
-18.4685 -21.9548 65.998703
-19.764999 -11.0665 58.2756
-19.7645 -11.1266 58.948799
-19.7663 -11.1931 59.5756
-19.8794 -11.2812 60.188499
-19.995701 -11.4921 60.9888
-18.732599 -22.5606 69.666199
-19.2064 -19.7269 56.0172
-20.124201 -11.8415 62.003899
-20.1542 -12.1226 63.076401
-19.3556 -20.021299 56.999199
-20.8974 -12.9306 57.0639
-20.8806 -12.9452 58.134701
-19.6598 -11.0772 80.048897
-19.344601 -20.2859 57.858101
-20.124399 -12.3357 64.244301
-18.9974 -20.9888 62.517799
-19.0109 -20.993601 63.878399
-19.120501 -20.996901 61.599098
-19.3757 -20.4881 58.699799
-19.1474 -21.122101 66.368202
-19.336901 -23.182899 73.783997
-18.348301 -24.1229 73.407097
-20.276899 -10.4173 91.243301
-19.2318 -20.9091 60.767502
-18.7656 -24.9394 77.817703
-19.3041 -20.626499 59.433899
-19.287399 -20.7665 60.069
-20.2176 -19.0748 56.5256
-19.522699 -21.4797 70.277901
-19.998899 -12.7474 65.93
-20.3255 -10.7015 90.364304
-20.8148 -12.939 58.939098
-18.5788 -25.733601 80.620903
-18.697201 -26.284401 83.588799
-20.7535 -12.9848 59.5984
-20.5515 -11.1098 89.1828
-20.311501 -19.3417 57.569901
-19.8643 -12.6971 67.766197
-20.680901 -13.0751 60.192299
-20.742201 -13.1899 60.701599
-19.639601 -20.286301 62.830002
-19.618999 -20.184401 64.202301
-19.678101 -20.1001 66.781502
-19.968599 -11.1587 83.848099
-18.948601 -27.0655 86.2192
-20.415701 -11.2736 87.4263
-19.8095 -20.326099 61.909698
-21.2782 -15.2509 57.286701
-20.8202 -13.4575 61.3652
-20.2481 -19.6005 58.4007
-19.1777 -27.685801 88.5466
-19.965099 -20.2374 61.096901
-20.141199 -20.140699 71.233299
-20.1507 -19.7948 59.1926
-20.275499 -22.0035 75.155197
-20.8001 -18.317301 56.981998
-20.8855 -13.7976 62.330101
-20.113701 -13.044 71.674103
-20.007 -20.080799 60.440102
-20.038401 -19.9606 59.882599
-20.1565 -12.2045 76.087303
-19.383301 -28.155899 90.789703
-20.203699 -19.433701 63.101299
-20.1441 -19.2304 64.404297
-20.072901 -18.9195 66.807297
-21.334999 -15.4735 58.346199
-20.3932 -19.494301 62.181702
-19.8241 -23.7988 77.667
-20.8351 -14.039 63.454102
-20.6129 -13.7767 64.325104
-21.179001 -17.4655 57.302101
-20.9009 -18.534901 58.048199
-20.4279 -14.0838 65.570297
-20.1127 -19.000299 69.735901
-20.551001 -19.3971 61.379799
-19.932199 -13.4358 67.434799
-20.2227 -14.4184 67.362801
-19.6556 -28.5119 93.2033
-20.838499 -20.5336 75.817497
-21.350401 -15.719 59.171799
-20.66 -18.312799 63.2878
-20.4883 -18.1285 64.389999
-20.341299 -17.869801 65.979401
-20.806 -18.754 58.874001
-20.821699 -18.3944 62.372299
-20.6283 -19.2138 60.761299
-20.6936 -18.921101 59.608898
-20.591299 -19.075001 60.257599
-21.3008 -15.8738 59.862
-21.2089 -16.064699 60.478401
-21.193199 -16.1735 60.944302
-21.172501 -17.5977 58.3367
-21.169399 -16.366899 61.553699
-20.144899 -13.9107 71.722298
-20.3983 -14.7309 71.8853
-20.1551 -17.471701 68.114197
-20.1028 -18.302601 68.927299
-20.992599 -18.393299 61.5513
-21.079201 -16.558201 62.442402
-20.9186 -16.5103 63.395599
-20.746201 -16.617901 64.396698
-20.510799 -16.6959 65.5812
-20.749599 -14.7262 64.397202
-20.521099 -15.1096 65.544701
-20.191099 -15.319 67.531403
-20.456499 -12.4747 80.209297
-20.128401 -16.5697 67.688004
-21.1238 -17.721701 59.155399
-20.999001 -18.1306 60.963799
-21.0488 -17.876801 59.878502
-20.969101 -17.961901 60.4813
-20.5723 -22.7043 78.183296
-20.461399 -15.5528 71.987801
-20.415199 -16.454399 72.118698
-20.5275 -17.2073 72.321404
-20.6513 -18.686001 73.4981
-20.8314 -19.509701 75.281898
-20.42 -13.5281 76.323196
-20.405701 -24.0944 81.169899
-19.5007 -25.136999 80.933197
-20.5516 -17.940599 72.682999
-20.8221 -12.6041 83.614304
-19.969101 -25.459101 84.027298
-20.413 -14.5374 76.671303
-20.663799 -15.3611 77.014
-21.277201 -12.8328 86.599098
-21.649401 -12.2034 92.647301
-20.4139 -26.059799 86.766296
-20.7337 -13.6948 80.3162
-21.6359 -12.3789 91.681
-21.409 -20.8111 79.552101
-20.9557 -21.889099 78.650803
-20.7771 -16.0208 77.101601
-21.783199 -12.6228 90.549004
-20.7771 -14.5806 80.584503
-20.9877 -15.1603 80.963699
-20.856001 -16.6215 77.287804
-21.08 -22.959299 81.581802
-21.0312 -17.1752 77.441299
-20.7449 -26.5753 89.240402
-21.064501 -13.807 83.270203
-21.291 -11.9959 89.157997
-21.9035 -13.5638 88.857201
-21.0732 -17.754999 77.658501
-21.0674 -18.3106 77.967796
-21.159201 -18.8419 78.395401
-20.975401 -24.325199 84.461304
-21.3111 -19.2925 78.590797
-21.4154 -20.066401 78.924797
-21.151699 -15.6554 81.346298
-21.0345 -14.6032 83.088997
-21.4519 -21.929199 82.025703
-21.192499 -15.0139 83.282402
-21.2647 -16.160801 81.683098
-21.438999 -13.9925 85.584702
-20.987499 -26.953899 91.6707
-21.713699 -21.0093 82.481903
-21.482201 -16.711201 82.037003
-21.385099 -15.4081 83.882004
-21.2829 -14.7294 84.592003
-21.449301 -24.7181 87.314697
-21.5774 -23.0616 84.895103
-21.5527 -17.2435 82.307198
-21.537001 -17.701401 82.496597
-21.6262 -18.163401 82.587402
-21.4972 -15.7256 84.297501
-21.5979 -15.1147 85.817902
-21.288601 -27.0728 94.340599
-21.848101 -14.4139 87.503098
-21.750299 -18.7577 82.5933
-22.365 -13.9452 90.583
-21.868401 -19.556 82.551102
-21.848301 -20.368299 82.617203
-21.7841 -16.1112 85.1147
-21.8708 -21.9506 85.313499
-22.022301 -20.972099 85.692497
-22.481501 -13.8862 93.646301
-21.990801 -15.5424 87.399803
-22.4219 -14.063 92.726402
-21.9109 -16.589199 85.7174
-21.820999 -25.143299 89.921097
-22.1182 -14.7997 88.832603
-22.038401 -23.349199 87.827202
-22.466801 -14.1911 91.723099
-21.9065 -16.932699 85.9114
-22.0564 -17.368299 86.252899
-22.2012 -20.0777 85.916298
-22.201799 -18.120399 86.2276
-22.1264 -16.1985 88.266602
-22.352699 -15.4502 90.311501
-22.2943 -22.218399 88.267502
-22.270901 -19.0786 86.071602
-22.4888 -21.1845 88.675301
-22.381399 -16.520901 89.7575
-22.0942 -25.464899 92.450798
-22.660801 -17.536301 89.691498
-22.402399 -23.7409 90.516998
-22.8946 -15.2885 94.343201
-22.718399 -20.0709 89.034897
-22.582001 -15.6251 92.135002
-22.7486 -15.4616 93.324402
-22.777399 -18.7551 89.389702
-22.701 -16.4189 92.238602
-22.622299 -22.627501 90.987297
-23.171801 -16.371901 94.850403
-23.0208 -17.314699 92.328201
-22.4004 -25.403299 95.189697
-22.9739 -16.4524 93.670799
-22.925301 -21.558701 91.404404
-23.464899 -17.456699 95.2985
-23.2631 -17.476601 93.924599
-22.7244 -24.048201 93.043297
-23.200701 -18.6581 92.233101
-23.1707 -20.233999 91.852898
-23.054399 -22.862301 93.458397
-23.3305 -21.694799 93.765999
-23.696899 -18.7745 95.694504
-23.472601 -18.8132 94.054199
-23.035101 -23.908001 95.692299
-23.386299 -22.7006 95.941803
-23.6387 -21.5333 96.023903
-23.500799 -20.325001 93.985901
-23.764601 -20.2143 95.952904
-12.4045 -11.4859 54.177502
-11.2658 -15.092 54.269798
-11.1687 -17.358101 54.334301
-11.6999 -18.6185 54.114799
-13.0348 -11.2958 52.386101
-11.7099 -14.6255 52.2001
-11.6018 -16.813499 52.009499
-12.0596 -18.2656 52.0877
-12.3962 -19.4006 53.938301
-13.4176 -10.0261 53.848999
-12.9384 -13.5831 49.330502
-13.8433 -11.5336 49.933899
-12.7501 -16.5923 49.0284
-12.679 -14.9475 49.146702
-13.1215 -17.7211 48.8675
-12.6906 -18.9944 51.990101
-13.957 -9.9776201 52.199699
-13.1734 -16.231701 45.498901
-13.2982 -14.7066 45.687
-13.4341 -17.3307 45.318501
-13.7818 -13.1503 45.8983
-13.3555 -18.2073 48.805901
-13.6837 -18.667601 48.8009
-13.3529 -15.9777 41.818298
-13.5776 -14.4475 41.994202
-14.1872 -12.9504 42.193199
-13.5679 -17.1408 41.690601
-14.4815 -8.9975901 53.813
-14.1537 -10.8713 50.016499
-14.6904 -9.9260998 50.188599
-13.1252 -19.889601 53.688599
-14.5224 -11.4167 46.629101
-13.7332 -18.0215 45.299
-13.3924 -19.494499 51.836899
-14.8869 -9.1456099 52.161598
-13.8916 -17.8888 41.738602
-14.9847 -11.4148 42.7668
-14.1545 -19.108999 48.7486
-14.8161 -10.6668 46.847
-14.0851 -18.507299 45.358299
-15.354 -9.23279 50.320599
-15.2225 -9.7947502 47.062401
-15.2822 -10.5908 42.881001
-14.5762 -18.9391 45.413898
-15.5137 -8.62957 53.855801
-15.5915 -9.8620701 42.988701
-14.2996 -18.420601 41.7924
-13.7246 -20.195101 53.554298
-14.2233 -19.8899 51.662998
-14.7673 -19.438499 48.705399
-15.7483 -9.2081804 47.172298
-15.9158 -8.8825598 52.168701
-14.9597 -18.8901 41.8354
-16.206699 -8.9383497 50.381901
-16.0245 -9.2670002 43.161301
-14.2666 -20.396099 53.429298
-15.0134 -19.1689 45.443802
-16.4625 -8.9682198 47.253899
-15.339 -20.0193 51.580898
-15.6039 -19.594601 48.6203
-15.2859 -20.473301 53.371601
-16.7875 -8.7119102 53.9198
-16.6751 -8.9939804 43.263802
-15.7404 -19.3141 45.481201
-15.7655 -19.086201 41.8535
-16.874599 -8.9809103 52.194302
-17.0163 -9.05863 50.523399
-17.2188 -9.1131201 47.289799
-17.393499 -9.1485701 43.234402
-16.556999 -19.5109 48.742802
-16.4776 -19.9265 51.670898
-16.4813 -20.3405 53.5271
-16.594 -19.2575 45.552101
-16.5807 -19.066099 41.934299
-17.7911 -9.2369204 54.045101
-17.762899 -9.4672699 52.302299
-17.7078 -9.5116796 50.693001
-17.7733 -9.5541096 47.364101
-17.934999 -9.6342096 43.170799
-17.3309 -19.0303 45.631802
-17.334101 -19.275101 49.035801
-17.322001 -18.866301 41.989601
-17.4165 -19.680201 51.9034
-17.4918 -20.080601 53.840599
-18.374901 -10.1391 52.5452
-18.1502 -10.1904 50.847
-18.097799 -10.2643 47.452099
-18.239599 -10.3394 43.2061
-18.4993 -9.9788504 54.306702
-17.8601 -18.7176 45.7463
-17.8563 -18.971201 49.2691
-17.8885 -18.542999 42.0914
-18.450701 -10.8707 50.938
-18.2999 -10.8762 47.527
-18.430799 -11.0089 43.245701
-18.8281 -10.7712 52.883202
-18.1444 -19.354799 52.159901
-18.290899 -19.742001 54.2285
-19.054701 -10.6357 54.6572
-18.291201 -18.344999 45.940102
-18.308399 -18.6154 49.493198
-18.336201 -18.1441 42.163399
-18.617701 -11.4417 47.606499
-18.7616 -11.595 43.160702
-18.8041 -11.4273 51.022598
-19.2507 -11.3281 53.093102
-18.833799 -18.9625 52.399399
-18.847099 -17.477301 42.4445
-18.8146 -17.733101 46.168499
-18.968399 -18.014799 49.673599
-19.530001 -11.1556 55.019901
-20.2293 -12.7203 53.2855
-19.4986 -12.5061 51.004799
-19.121599 -12.3648 47.623699
-19.1287 -19.3358 54.561199
-19.686501 -18.366899 52.550598
-19.1632 -12.2956 43.139198
-20.7402 -12.8228 55.435699
-19.2757 -16.801001 46.473202
-19.679501 -17.101999 50.006199
-19.3377 -16.4842 42.691399
-20.082001 -18.7197 54.747799
-21.1614 -14.4558 53.3283
-20.3452 -14.2007 50.857399
-19.609699 -14.0685 47.337399
-20.52 -17.4587 52.838799
-19.624599 -14.0428 43.111599
-21.4146 -14.8826 55.3867
-19.6259 -15.524 46.93
-19.614901 -15.4943 42.943199
-20.2658 -15.7257 50.443901
-20.9443 -17.8846 55.047901
-21.211399 -16.083 53.151402
-21.389601 -16.6712 55.303101
-12.9968 -14.8326 21.416401
-13.0094 -16.194201 21.7908
-12.8749 -15.8957 22.7216
-12.7822 -14.3507 22.3468
-12.748 -16.0207 24.017401
-12.6922 -14.3372 23.743401
-13.3155 -17.4256 24.314501
-13.3879 -17.410299 23.055201
-13.5007 -17.5469 22.0506
-12.7247 -15.8678 25.645599
-13.2778 -17.4589 26.0515
-12.7327 -14.1274 25.2017
-12.9029 -15.5829 26.931101
-12.9819 -13.8555 26.3916
-13.3336 -17.169901 27.3974
-13.3234 -13.6578 20.9319
-13.0627 -13.0877 21.6101
-13.0559 -12.5155 22.739599
-13.1174 -12.138 24.1068
-13.1966 -15.2721 20.508301
-13.1676 -16.6696 20.918699
-13.6366 -17.877199 21.1731
-13.3812 -11.8976 25.283899
-13.1898 -15.3619 28.1467
-13.6193 -13.5836 27.4671
-13.5267 -16.872601 28.6745
-13.5375 -14.1368 20.3913
-14.4754 -18.760401 22.3859
-14.4149 -18.6544 23.494699
-14.3805 -18.5928 24.8699
-14.3839 -18.632601 26.390699
-14.1453 -11.7876 26.3253
-13.459 -11.6947 21.6437
-13.529 -12.3671 20.901199
-13.5883 -11.0517 22.8834
-13.7424 -12.9317 20.405701
-13.9518 -10.6852 24.0441
-13.4456 -15.3694 29.571301
-13.6404 -16.764999 30.072599
-13.98 -13.6719 28.967699
-14.1049 -18.2358 27.7318
-14.5071 -18.867701 21.420799
-14.2954 -9.9677496 21.5497
-14.2046 -10.7401 20.559
-14.3429 -11.3951 20.076099
-14.6347 -9.5201702 22.7484
-14.5288 -11.9731 19.775101
-13.8758 -13.4551 20.0201
-14.229 -17.936899 29.054701
-14.7344 -10.5358 25.224501
-15.1192 -9.3032198 24.1661
-13.4986 -15.6386 31.8636
-13.7042 -16.8955 32.1469
-13.9699 -13.9814 31.4004
-14.7062 -12.064 28.132999
-14.5932 -12.663 19.506901
-14.1466 -17.581499 30.4457
-13.5241 -15.7581 34.841999
-13.738 -16.983101 34.9086
-13.8756 -14.1491 34.605598
-15.459 -10.0111 19.796801
-15.4897 -9.2661304 20.493999
-15.5347 -10.6071 19.374399
-15.6355 -8.7123804 21.6402
-13.7818 -14.2621 38.274899
-13.4882 -15.8286 38.231701
-13.6989 -17.034599 38.169601
-14.4897 -12.8508 38.447102
-15.6352 -11.1957 19.268101
-15.9218 -8.2839298 23.213699
-14.1309 -17.6908 32.3909
-15.2288 -10.7252 27.235399
-14.6376 -12.7694 34.457699
-14.7473 -12.6575 30.9233
-15.5616 -9.4273701 26.5112
-14.1096 -17.761299 35.090302
-15.58 -11.8747 19.1175
-14.9949 -18.630301 29.2516
-14.7752 -18.7687 27.926399
-14.0479 -17.7936 38.263901
-15.7588 -19.7439 22.810101
-15.7501 -19.518101 24.1005
-15.7666 -19.3326 25.450701
-16.1113 -8.39573 25.8083
-15.8244 -19.25 26.7936
-15.9709 -19.150801 28.1367
-15.7315 -19.6506 21.648001
-14.5036 -18.0504 30.643299
-15.1766 -18.5755 30.8339
-15.3047 -11.4867 38.763199
-14.5416 -18.169901 32.6022
-16.0881 -18.99 29.4893
-15.3994 -11.3021 30.327
-14.4637 -18.320601 38.419899
-14.5293 -18.2726 35.234501
-15.5514 -10.6315 38.801201
-15.4086 -11.5427 34.321301
-16.3911 -9.2512903 20.150101
-16.5047 -8.5197601 21.1304
-16.363001 -9.9272099 19.708599
-15.1685 -18.595501 32.7589
-15.7123 -9.9144297 29.821199
-16.724199 -7.8691702 22.771299
-16.128799 -8.8084402 29.2845
-16.470501 -10.463 19.365801
-15.087 -18.749001 38.5126
-15.1439 -18.6796 35.394199
-16.1847 -18.839001 31.004801
-16.8626 -7.7161102 25.3396
-16.6227 -10.9316 19.195299
-16.663401 -11.446 19.070801
-15.7983 -9.8556499 38.932598
-15.6792 -10.4418 34.1572
-15.9825 -9.2645597 33.9688
-15.9534 -18.799101 32.9076
-16.814899 -7.9015598 28.8137
-16.2742 -8.8751497 38.7817
-15.897 -18.851299 35.470001
-16.5641 -8.1758804 33.714199
-15.8493 -18.9331 38.573299
-16.8465 -9.3098602 20.1033
-17.0107 -8.52069 20.866899
-16.8216 -9.9512396 19.7318
-16.974899 -10.4496 19.413
-17.2787 -7.7589502 22.370501
-16.9587 -8.4677401 38.710701
-17.2006 -19.479601 25.5721
-17.146601 -19.692499 24.2377
-17.25 -19.3459 26.863899
-17.0945 -19.974501 22.937201
-17.273399 -7.9146299 33.6637
-17.003201 -19.8857 21.689699
-17.2976 -19.1276 28.1838
-17.614 -7.4370399 24.7269
-17.3356 -10.8857 19.2591
-17.3232 -18.8633 29.500999
-17.6752 -7.5908599 28.2311
-17.363001 -18.577999 31.0455
-17.386499 -11.477 19.1229
-16.507099 -18.7904 32.9664
-16.606701 -18.835199 35.5555
-17.148199 -9.3140097 19.865601
-17.1189 -9.9111404 19.5334
-17.299999 -8.5671196 20.4055
-17.249201 -10.3732 19.241699
-17.3748 -18.5446 32.974899
-17.567301 -7.8069801 21.566401
-16.6215 -18.922701 38.601101
-17.5387 -10.6735 19.100201
-17.3634 -9.2508297 19.2959
-17.334 -9.8121405 19.0109
-17.485399 -8.60639 19.6675
-17.8689 -7.3745399 22.902399
-17.428301 -10.2435 18.8013
-17.6394 -8.6841602 38.6353
-17.3915 -18.5958 35.654999
-17.699499 -7.9179301 20.4669
-17.9849 -8.1377602 33.799198
-17.6863 -9.2014704 18.683599
-17.6583 -9.7191896 18.4856
-17.7183 -8.6348495 19.0445
-17.646999 -10.5028 18.712299
-17.676001 -10.1275 18.367701
-17.8291 -8.10602 19.4797
-17.989401 -7.4878302 21.283899
-18.389099 -7.8954201 28.913601
-18.2852 -11.0283 19.348499
-18.116699 -10.7597 19.1532
-18.168301 -11.6233 19.209299
-18.276501 -7.4694099 24.790501
-18.3013 -7.4068499 22.944401
-17.7444 -10.3599 18.3456
-18.012501 -7.7271099 20.0394
-17.3715 -18.723301 38.672401
-17.913601 -8.67202 18.867001
-17.844801 -9.1988802 18.5951
-17.9695 -8.1918802 19.2439
-17.8116 -9.6967697 18.4195
-18.042 -7.89399 19.5893
-18.062401 -10.5647 18.743099
-18.8613 -7.7688999 25.4359
-18.3304 -7.53615 21.270599
-17.7936 -10.0887 18.326099
-18.2673 -7.7604699 20.0424
-17.802 -10.3005 18.315701
-18.0443 -10.4091 18.370501
-18.2171 -7.9163399 19.592699
-18.2705 -8.2334499 19.245199
-18.311701 -8.7258301 18.8699
-18.3311 -9.2610703 18.6021
-18.267799 -9.7597599 18.432899
-18.1551 -10.1454 18.3459
-18.0247 -10.3371 18.332899
-18.2964 -19.4723 21.650101
-18.133801 -9.4566298 38.827999
-18.4855 -19.4104 22.793699
-18.431999 -8.1951599 19.472799
-18.562 -17.870899 30.8592
-18.209499 -18.022301 33.024899
-18.1357 -18.1038 35.744301
-18.624001 -8.0694304 20.388201
-18.593 -18.221901 29.347
-18.599501 -19.246 24.0257
-18.6476 -18.6133 28.0306
-18.5137 -8.9547501 34.025902
-18.6483 -19.107201 25.350599
-18.7321 -7.9065499 21.631599
-18.671101 -18.9583 26.7449
-18.915701 -7.9088502 22.481701
-18.252199 -10.2159 18.397499
-18.5175 -8.7471504 19.0366
-18.435699 -10.3754 18.839899
-19.362101 -8.09795 22.8848
-18.6105 -10.5238 19.2952
-18.407301 -9.8189802 18.503
-18.795099 -8.7985201 19.6136
-18.874701 -10.6713 19.513
-17.962601 -18.373301 38.827801
-18.4821 -9.3046703 18.687201
-18.8958 -8.55758 29.320101
-18.709 -9.9639397 19.0198
-18.9028 -11.9586 19.2917
-19.072201 -11.382 19.429899
-18.816099 -9.4394598 19.2589
-19.378201 -10.87 19.540001
-18.995701 -8.7083702 20.445601
-18.961399 -10.0642 19.562799
-19.398001 -8.3108301 25.795401
-19.2547 -8.7290096 20.957701
-18.438499 -10.3556 38.871101
-19.074699 -9.4442396 19.879499
-19.241301 -10.1802 19.808599
-18.716299 -9.8355198 34.253502
-19.693899 -8.8571596 21.244801
-18.8447 -17.3948 32.958199
-18.900101 -17.2577 35.777199
-18.3382 -18.0308 38.898399
-18.9156 -17.240601 39.007401
-19.355301 -9.5217505 20.164301
-19.999001 -8.5524998 23.262199
-19.1106 -9.3787003 29.6779
-19.650801 -10.3206 19.856899
-18.4921 -10.9774 38.778702
-19.755899 -9.6193705 20.2661
-19.872499 -12.0044 19.647301
-19.6511 -12.8049 19.5658
-18.710501 -10.7019 34.3787
-19.656799 -9.08459 26.345699
-20.183201 -11.4291 19.7906
-20.4279 -9.2230101 21.6966
-18.6633 -11.3485 38.7262
-18.902201 -11.4127 34.530102
-19.1229 -10.1227 30.022301
-19.4879 -18.6451 21.6091
-18.901899 -11.6941 38.7178
-19.2563 -10.8035 30.3915
-19.674999 -17.0564 28.942699
-19.554399 -16.5189 30.354401
-19.5748 -16.155899 32.610901
-19.7064 -18.5138 22.630699
-19.6661 -9.6310196 26.7397
-20.4251 -10.7311 20.0359
-19.7829 -10.4006 27.187201
-19.092199 -11.7298 34.560299
-19.5917 -15.9077 35.683102
-19.8358 -17.6005 27.7696
-20.5518 -9.9160004 20.6057
-20.4736 -9.5965595 24.1112
-19.8818 -18.373899 23.693701
-19.5303 -15.8511 38.9939
-19.435101 -11.5404 30.716
-19.9375 -18.079 26.527901
-19.9491 -18.2663 24.929899
-19.9652 -11.5477 27.8524
-19.2777 -12.34 38.647499
-19.527599 -12.5592 34.562801
-20.674801 -10.6927 24.9074
-19.755199 -12.8744 31.179001
-20.2083 -14.0091 20.1252
-20.584 -13.26 20.371901
-20.131201 -13.3055 28.692101
-20.710899 -11.9366 25.9842
-20.9816 -12.6708 20.6192
-21.120001 -10.2249 22.760099
-19.6896 -14.1765 38.9603
-19.747601 -14.3473 35.236301
-19.8957 -14.6559 32.072899
-21.320499 -11.935 20.9484
-20.031 -14.994 29.665701
-21.4527 -11.016 21.659201
-20.619499 -13.9996 27.3347
-20.3573 -15.5892 28.327999
-20.214001 -17.644899 21.480101
-20.3731 -14.8774 20.5184
-20.7491 -16.2586 27.251801
-20.545601 -17.3379 22.366699
-20.8955 -14.3438 21.028
-21.419399 -11.4798 24.0434
-20.9491 -16.812099 26.0333
-20.421499 -15.6704 20.9524
-20.815599 -17.1329 23.2726
-20.9541 -17.096901 24.3836
-21.369699 -13.8169 21.492701
-20.5226 -16.6551 21.316601
-21.0215 -15.1589 21.6887
-21.4405 -12.6187 25.203899
-21.3001 -14.6444 26.521
-21.5392 -14.6564 22.3409
-20.9499 -16.215599 22.248301
-21.704901 -13.0952 22.08
-21.781099 -12.2686 23.0158
-21.326599 -15.8264 22.9972
-21.7428 -13.9825 23.267799
-21.566601 -15.2391 25.3363
-21.526501 -15.6563 24.101101
-21.8335 -13.3847 24.313
-13.2298 -19.5028 16.090401
-12.8567 -18.3591 15.7171
-12.3415 -18.9405 14.1953
-12.875 -20.116301 14.4998
-14.0133 -20.4503 16.407
-13.6781 -21.169001 14.6191
-12.2353 -20.941 12.9949
-12.9912 -21.8568 13.1879
-11.676 -19.8531 12.76
-16.055599 -11.4878 11.6121
-16.1308 -10.0546 9.6761799
-14.8411 -10.0261 10.065
-14.8516 -11.5478 11.8242
-14.7271 -9.5648098 8.5076504
-15.8333 -9.8760204 8.0857
-13.6908 -10.3177 10.3548
-13.9146 -11.7702 12.0339
-13.4077 -9.8207302 9.0052404
-12.4868 -11.4852 10.6163
-12.9616 -12.4835 12.2591
-12.0808 -11.3537 9.3899899
-11.6804 -12.8928 10.8236
-11.2702 -13.1015 9.5901699
-10.8329 -14.9066 9.8392897
-11.2357 -14.2787 11.0723
-12.0826 -13.9437 12.504
-11.7275 -16.0564 13.043
-11.0019 -15.74 11.4889
-10.999 -16.976299 11.8177
-10.6113 -16.4907 10.2905
-10.6036 -17.989599 10.625
-11.1679 -18.519199 12.3376
-11.9627 -17.689301 13.7062
-10.7655 -19.4317 10.9737
-11.2451 -20.6824 11.2452
-21.954 -18.581301 12.3291
-22.108299 -17.396 11.8996
-21.285299 -17.2805 13.5654
-22.111401 -16.0483 11.4205
-21.346399 -15.5032 12.8337
-22.5357 -18.364901 10.5435
-22.573799 -16.927999 10.1379
-22.305901 -19.799 10.9081
-17.623899 -11.68 11.6792
-17.7278 -10.3859 9.9401598
-16.5184 -10.1419 7.99754
-17.757401 -10.3213 8.1950598
-18.871401 -12.1051 11.8847
-19.1488 -10.7856 10.3431
-19.2554 -10.4462 8.7761497
-20.6766 -11.3464 9.3537903
-20.359501 -11.5922 10.7056
-19.8528 -12.7741 12.1857
-20.690599 -13.8825 12.5086
-21.3972 -13.4382 11.0166
-21.846001 -13.4045 9.7375898
-21.93 -14.8403 11.2107
-22.409901 -15.221 9.9174404
-20.7307 -11.3592 8.6153698
-21.976299 -13.718 9.0710697
-19.211599 -10.5603 7.88904
-17.6579 -10.7458 7.1798401
-16.485901 -10.6426 7.0225
-15.7741 -10.293 7.0953798
-14.7147 -9.6500902 7.6505699
-13.3238 -9.7509804 8.2608604
-11.9028 -11.542 8.7087002
-10.7883 -15.4209 9.1538401
-11.1683 -13.4722 8.9633303
-10.607 -18.6318 9.7471399
-10.6092 -17.065399 9.4677601
-11.313 -21.0786 10.1995
-10.8327 -19.9359 9.9731503
-12.7333 -22.7118 10.5677
-11.9485 -22.0019 10.3795
-11.9107 -21.740101 11.4517
-12.7027 -22.5179 11.6652
-14.583 -23.653299 10.8167
-13.6148 -23.2724 10.6904
-13.5957 -23.1206 11.8174
-14.5887 -23.5485 11.973
-16.6343 -24.006399 10.8343
-15.5935 -23.9219 10.8284
-15.6167 -23.8298 11.9959
-16.687099 -23.9272 12.0073
-18.7297 -23.622999 10.618
-17.6998 -23.9489 10.7178
-17.7682 -23.863701 11.8868
-18.799101 -23.528601 11.7749
-20.724001 -22.3729 10.293
-19.777901 -23.1357 10.4444
-19.8566 -22.973101 11.5878
-20.8557 -22.059601 11.4074
-22.179899 -20.309999 9.9190798
-21.5653 -21.4389 10.0999
-21.7087 -20.9867 11.1627
-22.5963 -17.4643 9.4514399
-22.5259 -18.9471 9.7002001
-22.488899 -15.6501 9.2870502
-21.417101 -19.922001 12.7554
-20.6709 -21.1194 13.1498
-19.709999 -22.2183 13.3828
-18.7027 -22.9067 13.5191
-17.818399 -23.2304 13.5976
-16.714399 -23.329399 13.7017
-15.6101 -23.246099 13.6225
-14.7261 -22.997601 13.5587
-13.7424 -22.4734 13.3617
-20.856501 -18.774099 14.2713
-20.296301 -20.087601 14.7566
-18.2479 -22.0758 15.1334
-16.711901 -22.2971 15.3206
-19.5313 -21.2216 15.051
-15.1356 -22.0798 15.0173
-20.414801 -15.5161 14.6618
-20.378599 -16.830099 15.4439
-20.355499 -18.101299 15.8728
-19.975901 -19.3985 16.3379
-20.091801 -14.342 14.1991
-19.2439 -20.4855 16.685801
-19.9123 -15.9626 18.257099
-19.9205 -16.633101 18.554501
-19.9942 -16.9209 17.0282
-20.0126 -16.344299 16.761
-19.794701 -15.2445 17.966999
-19.943501 -15.4961 16.3433
-20.053801 -17.847601 17.3571
-20.0105 -17.490999 18.8016
-19.753401 -18.947599 17.785299
-19.708099 -18.534 19.177601
-19.497801 -14.3603 17.691601
-19.670099 -14.5135 15.9721
-19.1017 -19.9522 18.159
-19.090799 -19.450199 19.501301
-19.381001 -13.4599 13.8257
-18.122499 -21.2281 16.851601
-18.0837 -20.0702 19.577999
-18.0625 -20.628099 18.3566
-18.684799 -13.537 17.388201
-18.816299 -13.5848 15.3994
-18.666401 -12.9464 13.6403
-16.742001 -21.4715 16.9118
-16.7658 -20.8671 18.415899
-16.82 -20.320601 19.551901
-17.5592 -12.5253 13.5576
-17.555901 -13.013 17.4174
-17.554399 -13.0853 15.5004
-15.2987 -21.222799 16.743799
-16.187901 -12.319 13.5575
-15.4347 -20.636999 18.291
-15.559 -20.1082 19.497801
-16.320299 -12.9033 17.202
-16.221201 -12.885 15.4414
-15.1485 -13.1552 17.2066
-14.913 -12.9787 15.3129
-15.0606 -12.3799 13.6348
-14.416 -19.512699 19.4245
-14.257 -19.9545 17.9846
-14.3315 -12.6105 13.7818
-14.2473 -13.7657 17.5439
-13.9816 -13.6589 15.8572
-13.5364 -13.234 14.12
-13.6907 -18.6479 19.1257
-13.5173 -19 17.6117
-13.8619 -14.5186 17.8452
-13.6272 -14.506 16.1849
-12.9396 -14.3683 14.4236
-13.4059 -17.7241 18.821301
-13.2109 -18.034901 17.291599
-13.3009 -16.823099 18.548401
-13.114 -17.046301 16.9771
-12.6512 -17.2918 15.3421
-13.6152 -15.1378 18.094601
-13.4341 -15.0925 16.396099
-13.3737 -15.9622 18.365499
-13.242 -16.0518 16.680799
-12.745 -15.9615 14.8875
-13.3137 -15.6317 19.502001
-13.314 -16.693199 19.7342
-13.6618 -14.7198 19.4044
-13.4046 -17.3596 19.9314
-13.7257 -18.2668 20.259199
-13.8769 -14.0545 19.2321
-14.5012 -19.114201 20.4326
-14.4297 -13.3679 18.83
-15.361 -12.6096 18.521
-15.6567 -19.7605 20.5058
-16.4874 -12.2008 18.561701
-16.9028 -19.9778 20.538
-17.304701 -12.1988 18.637699
-18.0683 -12.3807 18.719299
-18.7987 -12.7592 18.7162
-18.1586 -19.6607 20.5373
-19.500999 -13.6819 18.9795
-19.224501 -18.9991 20.503
-19.880699 -14.7317 19.2675
-19.898701 -18.1213 20.392
-20.008801 -15.4966 19.5345
-20.2029 -17.0895 20.068001
-20.052299 -16.194901 19.8379
-21.715401 -14.0043 8.7764196
-20.4284 -11.5239 8.2435799
-18.9695 -11.0015 7.4404302
-17.454201 -11.5152 6.6893501
-16.4893 -11.4913 6.5933299
-15.7689 -11.001 6.6838298
-14.8155 -10.1797 7.1648102
-13.5284 -10.0788 7.7757401
-12.0982 -11.9816 8.2810297
-11.4134 -13.8812 8.5376902
-10.9253 -15.806 8.7912598
-10.7439 -17.344801 9.0868301
-10.7361 -18.9053 9.3802996
-10.9814 -20.1061 9.5910702
-11.5003 -21.156601 9.8176003
-12.1123 -21.9769 9.9716797
-12.8901 -22.614599 10.1492
-13.7113 -23.156 10.2549
-14.6248 -23.501699 10.3849
-15.5837 -23.759199 10.3894
-16.5702 -23.822901 10.4239
-17.6243 -23.7857 10.3048
-18.625299 -23.445 10.2285
-19.688499 -23.0289 10.0505
-20.6087 -22.3444 9.9126396
-21.455299 -21.517599 9.71838
-22.067699 -20.4788 9.5537796
-22.395201 -19.128 9.3462696
-22.4207 -17.744801 9.1462402
-22.190001 -15.8871 8.9577503
-20.613001 -11.9417 7.2051001
-19.325199 -11.4645 6.6329598
-18.938499 -11.1281 7.2267098
-20.404699 -11.6008 8.0537004
-21.975599 -14.5832 7.5935102
-21.706699 -14.0611 8.5928001
-13.5287 -10.1829 7.5950198
-14.8101 -10.2998 6.9671001
-14.3094 -10.456 6.4179502
-13.1574 -10.5 6.8707099
-11.5869 -12.7856 7.2227898
-12.0798 -12.1077 8.0900402
-10.8848 -14.6736 7.40835
-10.3811 -16.588499 7.5895801
-10.8913 -15.9495 8.5961905
-11.3859 -14.0144 8.3452396
-10.7101 -17.488899 8.88587
-10.2117 -18.191999 7.7929502
-10.2205 -19.8197 7.9919901
-10.7036 -19.051901 9.1728697
-10.5099 -21.0238 8.1182499
-11.0738 -22.077 8.2589998
-11.4929 -21.2603 9.5819197
-10.9608 -20.231701 9.3701897
-12.1076 -22.0688 9.7256498
-11.7248 -22.9182 8.3507795
-12.5452 -23.573601 8.4631701
-12.8876 -22.695101 9.8931303
-14.6095 -23.5788 10.1202
-13.7025 -23.234699 9.9944201
-13.4055 -24.133801 8.52777
-14.3578 -24.498501 8.6173801
-16.5459 -23.8878 10.1641
-15.5637 -23.8325 10.1292
-15.3758 -24.741899 8.6202602
-16.4219 -24.787201 8.6495104
-18.6059 -23.5086 9.9869404
-17.602301 -23.8498 10.0539
-17.5569 -24.733801 8.5767002
-18.6399 -24.3792 8.5474005
-19.789301 -23.9604 8.4361
-20.7955 -23.273701 8.3639002
-20.6036 -22.4235 9.6894999
-19.677299 -23.1015 9.8194504
-21.7048 -22.401899 8.22925
-22.378599 -21.3179 8.1238899
-22.070801 -20.566601 9.3445597
-21.4548 -21.600901 9.5024204
-22.722601 -19.848301 7.9801302
-22.764 -18.3458 7.8436399
-22.4268 -17.8118 8.9529495
-22.400101 -19.205999 9.14534
-22.493099 -16.476101 7.7154102
-22.1882 -15.9488 8.7691298
-18.752899 -11.4896 6.3804498
-17.410101 -12.0181 5.85745
-16.5142 -11.9738 5.7842598
-15.6687 -11.425 5.8758101
-14.8271 -10.6813 6.2003102
-15.7589 -11.1763 6.4524698
-16.535299 -11.6608 6.4302702
-17.427401 -11.6662 6.52174
-22.7013 -16.405701 3.5678401
-22.634701 -16.471901 3.06476
-21.105499 -14.1181 3.2458799
-21.2029 -13.8505 3.73704
-20.750401 -13.7783 3.40903
-20.836599 -13.5527 3.91166
-19.585699 -13.1532 4.30018
-19.597401 -13.3595 4.2061901
-18.555901 -13.4985 4.3032298
-18.120001 -13.2326 4.50036
-16.289801 -13.5947 4.4032602
-16.307501 -13.269 4.5265198
-14.5989 -12.7102 4.51369
-14.2452 -13.0335 4.3230901
-13.5316 -12.8634 4.2677302
-13.5595 -12.528 4.3797102
-12.4178 -12.6577 3.5759101
-12.4321 -12.329 4.0289001
-11.8634 -13.0099 3.45067
-11.8821 -12.611 3.91465
-10.4137 -14.9325 3.39325
-10.3877 -14.837 3.8555501
-9.0961599 -18.750601 3.44244
-9.6412601 -16.780399 3.6508501
-9.6728401 -16.8521 3.17752
-9.1287899 -18.7952 2.9555399
-8.8039198 -22.6558 2.92995
-8.8597698 -20.692301 3.1873
-8.8715296 -20.7556 2.69434
-8.7877197 -22.738501 2.42751
-9.70086 -25.4144 2.5157001
-9.1159 -24.1106 2.71556
-9.0753498 -24.1945 2.20473
-9.63591 -25.499599 1.9965
-11.3492 -27.2325 2.2174001
-10.4417 -26.415501 2.35497
-10.3761 -26.501499 1.82837
-11.282 -27.3202 1.68309
-13.492 -28.411699 2.0162499
-12.3754 -27.9186 2.10394
-12.321 -28.024099 1.5626
-13.4523 -28.5306 1.4698499
-14.7341 -28.8724 1.40811
-16.0439 -29.0172 1.3743
-16.0632 -28.887899 1.92846
-14.7639 -28.747 1.95889
-18.7906 -28.545099 1.96728
-17.4529 -28.866699 1.92673
-17.4482 -28.9916 1.37203
-18.8008 -28.67 1.41034
-21.3125 -27.2782 2.1370001
-20.1238 -28.046801 2.03264
-20.132999 -28.173201 1.48017
-21.322399 -27.410601 1.58723
-23.0375 -24.6413 2.4489801
-22.3057 -26.072399 2.2832401
-22.3069 -26.204201 1.74546
-23.012501 -24.7645 1.91603
-23.630199 -20.632601 3.0283501
-23.5175 -22.670099 2.7489901
-23.461599 -22.7575 2.21683
-23.5604 -20.693199 2.5065501
-23.2876 -18.5319 3.2948699
-23.218599 -18.596001 2.78286
-22.339399 -16.652 2.7225399
-22.003599 -16.842501 2.6979201
-20.554501 -14.7988 2.9720399
-20.853701 -14.4469 2.89097
-20.289101 -14.5053 3.0095601
-20.510599 -14.1371 3.05793
-19.559601 -13.7133 4.06495
-19.467501 -14.1505 3.8675101
-18.7551 -14.2872 3.9881101
-18.759399 -13.8312 4.1405401
-16.340401 -14.4111 4.1124001
-16.311199 -13.9414 4.2748599
-14.2145 -13.4237 4.1926599
-14.2562 -13.9184 4.08319
-13.6195 -13.6924 4.0554299
-13.5802 -13.1913 4.1953602
-12.7182 -13.529 3.22294
-12.5745 -13.1307 3.26792
-12.2946 -13.9475 3.16506
-11.9673 -13.4351 3.1609199
-10.9264 -15.5747 3.0173099
-10.5807 -15.2341 3.0717001
-9.3631096 -18.908701 2.62464
-9.8744202 -17.059799 2.85197
-10.2913 -17.297899 2.8229101
-9.8575602 -19.0504 2.7167201
-9.0511198 -22.681999 2.09817
-9.1191702 -20.784901 2.36357
-9.6265402 -20.802 2.5229499
-9.5643902 -22.5518 2.2406001
-9.8691196 -25.336399 1.66895
-9.3237305 -24.084499 1.87628
-9.7802896 -23.854 1.98087
-10.2211 -25.054399 1.7149
-11.4428 -27.087601 1.35625
-10.5728 -26.304001 1.50091
-10.8897 -25.954399 1.5497
-11.6767 -26.7342 1.4037
-13.5277 -28.251101 1.14443
-12.4401 -27.765301 1.2375799
-12.6032 -27.4144 1.28438
-13.6289 -27.912399 1.19082
-16.019501 -28.718399 1.04949
-14.76 -28.5816 1.08355
-14.815 -28.186001 1.13852
-16.0149 -28.3363 1.10326
-18.660601 -28.389799 1.08436
-17.3661 -28.705 1.0455
-17.2992 -28.3193 1.1001101
-18.522301 -27.985001 1.14186
-21.0709 -27.190399 1.25773
-19.9373 -27.923901 1.1520801
-19.719 -27.516001 1.21022
-20.780399 -26.809799 1.31205
-22.7194 -24.646 1.5927401
-22.037001 -26.0348 1.42198
-21.7183 -25.744499 1.46392
-22.3542 -24.4219 1.63019
-23.2313 -20.7076 2.1718199
-23.1532 -22.7069 1.8913701
-22.791201 -22.5926 1.9084899
-22.8426 -20.692499 2.175
-22.9058 -18.693501 2.4448099
-22.556 -18.7792 2.4340601
-22.196301 -24.3431 2.1546099
-22.5734 -22.5991 2.46366
-22.669001 -20.755699 2.79601
-18.234699 -20.2428 3.3154399
-18.856199 -19.378401 3.3938701
-20.631201 -26.6311 1.7693
-21.5126 -25.6166 1.9372
-17.6828 -21.506701 3.18416
-18.441999 -27.8036 1.59356
-19.5567 -27.306801 1.66511
-17.303101 -22.5049 3.0564201
-16.0119 -28.100599 1.59542
-17.226299 -28.0446 1.5782
-16.0238 -24.060301 2.7295001
-13.7178 -27.721701 1.70226
-14.8544 -28.0135 1.63054
-14.395 -22.429701 3.1114299
-11.8496 -26.5818 1.94798
-12.7148 -27.240801 1.80829
-14.1564 -21.7719 3.20697
-10.4133 -24.995199 2.25594
-11.0255 -25.866501 2.0855801
-14.0181 -21.3543 3.25741
-9.8051205 -22.531 2.7384501
-9.9431601 -23.7831 2.49318
-13.8024 -20.3687 3.38041
-10.1495 -19.2486 3.3345001
-9.9233303 -20.8484 3.05217
-13.2116 -19.305201 3.5053999
-11.2246 -15.9819 3.8241301
-10.5618 -17.5674 3.59781
-12.6009 -17.372499 3.7428899
-12.3944 -14.3692 4.0946498
-12.5827 -14.7801 4.0180998
-12.6702 -14.2787 4.0423999
-12.9029 -14.5639 4.0518198
-13.6017 -14.1424 4.0148902
-13.4441 -14.8355 3.9136801
-14.2111 -14.4724 3.9674201
-14.003 -15.2361 3.7474699
-16.3395 -15.0843 3.8831401
-16.2694 -16.000299 3.57815
-18.7859 -14.942 3.8090501
-18.847601 -15.8111 3.5936
-19.553499 -14.6761 3.8310101
-19.5016 -15.5923 3.7590699
-20.180599 -15.0663 3.8211999
-19.939699 -15.424 3.7875199
-20.400101 -15.2724 3.80744
-20.216801 -15.6342 3.7455299
-21.811701 -17.0762 3.46225
-19.852501 -17.757999 3.5448301
-22.3951 -18.9464 3.1240301
-18.3092 -19.166 3.4671199
-19.252501 -17.756201 3.5908899
-17.335699 -21.097099 3.28636
-17.1003 -21.9116 3.1900799
-15.8222 -23.7302 2.8257301
-14.7093 -21.9904 3.2178299
-14.4942 -21.0145 3.34097
-16.7684 -21.4207 2.8188
-18.3461 -17.5352 3.3074
-15.7301 -22.956499 2.6454401
-16.160999 -17.222 3.3817301
-15.0444 -21.491899 2.8515899
-13.8887 -17.043699 3.4823501
-13.6882 -18.9758 3.57375
-13.066 -17.200701 3.7822101
-11.5342 -16.255699 3.80831
-10.9133 -17.6448 3.6114399
-10.4499 -19.2265 3.3612499
-10.1637 -20.776699 3.0846701
-10.1011 -22.3309 2.8013699
-10.172 -23.5333 2.5641201
-10.5767 -24.7803 2.3170199
-11.187 -25.615299 2.1568601
-11.9719 -26.2785 2.03192
-12.8382 -26.8778 1.90951
-13.7732 -27.369101 1.80011
-14.9382 -27.6714 1.72615
-15.9989 -27.795 1.68147
-17.2257 -27.7435 1.6621
-18.381399 -27.479401 1.6820101
-19.475599 -26.9384 1.7586499
-20.487101 -26.295601 1.84569
-21.316999 -25.262501 2.0225201
-21.922199 -24.042 2.2379501
-22.2421 -22.4223 2.5355
-22.298901 -20.608101 2.86429
-22.067301 -19.007099 3.1507599
-21.4182 -17.229601 3.46102
-15.9268 -20.803699 2.90326
-13.3946 -17.0553 3.6203799
-13.9329 -18.886801 3.3668101
-14.6277 -20.8489 3.0891299
-14.8141 -21.8036 2.9530101
-15.8152 -23.427 2.68852
-16.996799 -21.691601 2.91662
-17.2183 -20.8197 3.0315399
-17.9664 -19.1262 3.23685
-18.7952 -17.663601 3.3943901
-15.2976 -23.969 2.7599399
-15.5037 -23.710501 2.83302
-15.5672 -23.414499 2.6960001
-14.2566 -18.780001 3.2502201
-16.0588 -18.596001 3.2012999
-17.619499 -18.9564 3.1432199
-15.0022 -15.6952 3.64938
-14.9452 -17.0951 3.4303401
-15.1019 -18.662701 3.2239201
-16.913601 -18.7787 3.16399
-17.311399 -17.388399 3.3340001
-17.621599 -16.053801 3.5367501
-14.8594 -20.5846 2.9897799
-15.2614 -19.9601 3.0481501
-15.9889 -19.8228 3.0392799
-16.672701 -19.986601 3.0095601
-17.011499 -20.573601 2.9376299
-14.2241 -19.9011 3.4650099
-14.4319 -19.879499 3.2247701
-14.6526 -19.820101 3.1066
-17.2271 -19.851601 3.0375099
-17.4746 -19.915501 3.1468999
-17.7264 -19.9603 3.3966701
-16.9741 -23.132299 2.93997
-16.519501 -23.754 2.7987101
-16.8638 -22.7027 3.0593901
-16.2222 -23.408501 2.90659
-16.159401 -23.1434 2.7248499
-16.7229 -22.493799 2.80795
-15.2606 -22.2932 2.7295699
-15.0267 -22.568501 2.8378401
-15.3301 -23.128099 2.7462101
-14.9058 -23.621401 2.8484199
-14.6929 -23.062799 2.9881401
-15.2093 -23.3599 2.9269099
-14.9307 -22.7255 3.0861199
-16.4403 -22.2201 2.7102499
-15.8772 -21.531799 2.80001
-16.375 -20.954399 2.8754599
-16.143999 -21.6754 2.77477
-15.8303 -22.014999 2.7321501
-15.6005 -21.698 2.7857599
-15.4636 -20.9718 2.8959999
-17.6241 -15.103 3.83499
-17.5637 -14.4169 4.0411901
-17.4205 -13.9468 4.22013
-17.092699 -13.5907 4.3646898
-15.5397 -13.4357 4.3751998
-15.305 -13.7628 4.2488499
-15.2245 -14.225 4.1121402
-15.1529 -14.8431 3.9268501
-20.8027 -17.434999 3.4947701
-19.8559 -19.162399 3.3466499
-21.153299 -19.073601 3.24035
-21.261499 -20.2967 3.0359399
-19.8762 -19.868601 3.23738
-19.6724 -21.6122 2.9681599
-20.838499 -22.8657 2.60568
-19.7941 -20.658899 3.1178999
-21.1422 -21.472401 2.8383701
-19.3071 -22.4624 2.85887
-20.2488 -23.9431 2.43628
-18.774599 -23.271601 2.74073
-19.631001 -24.785801 2.29702
-18.074499 -24.025299 2.62288
-18.775101 -25.4825 2.1917901
-17.9161 -26.032 2.1021399
-17.450899 -24.5839 2.52157
-16.7549 -25.0842 2.4200301
-16.990299 -26.414 2.04111
-16.015499 -25.305401 2.3801501
-16.0072 -26.550301 2.0308101
-15.058 -26.437599 2.07094
-15.1779 -25.203501 2.4156599
-14.1508 -26.120199 2.1498499
-14.5283 -24.871201 2.4993601
-14.0747 -24.3356 2.62955
-13.4565 -25.606899 2.2697401
-13.5665 -23.75 2.7551301
-12.7693 -25.0149 2.39433
-13.1345 -23.254999 2.8462601
-12.1608 -24.4361 2.503
-12.7325 -22.619699 2.9563301
-11.6566 -23.6938 2.6412899
-12.5121 -21.784599 3.08918
-11.3272 -22.751699 2.8177199
-12.4644 -20.911301 3.22154
-11.1539 -21.6728 3.0107601
-12.493 -19.9415 3.37676
-11.1706 -20.429701 3.2277701
-12.4704 -19.2784 3.4751699
-11.2788 -19.237801 3.4219999
-11.4645 -17.785299 3.6298699
-11.9006 -16.5721 3.793
-17.5042 -26.829 5.2883301
-16.2197 -26.8929 5.3041
-15.0332 -26.811501 5.2855902
-13.8743 -26.5338 5.2941399
-12.8201 -26.1012 5.2778602
-11.856 -25.477501 5.2871699
-10.9667 -24.744699 5.2849998
-10.2448 -23.827499 5.3054399
-18.737101 -26.4674 5.3148799
-20.010401 -25.995399 5.3043599
-21.1406 -25.255899 5.3318701
-22.0875 -24.2332 5.3081899
-22.795799 -22.997101 5.3119001
-23.2286 -21.3263 5.35006
-23.3239 -19.6045 5.38029
-22.998699 -17.735399 5.3891802
-22.427099 -15.8424 5.4052801
-21.0791 -13.089 5.4190998
-19.842199 -12.4451 5.2718
-19.2265 -12.4558 5.1174102
-17.5403 -12.8046 5.2569499
-16.3776 -12.8092 5.2171798
-15.1637 -12.1549 5.3081102
-13.9669 -11.6367 5.0276299
-13.4395 -11.415 5.1921902
-12.2716 -11.7575 5.27597
-10.7508 -14.2208 5.2729301
-10.0508 -16.031401 5.2945099
-9.5501804 -17.868099 5.31147
-9.3548698 -19.611799 5.3229599
-9.33815 -21.378599 5.3308001
-9.6540604 -22.678801 5.31078
32.1385 -40.9203 123.528
32.219002 -39.3634 124.295
32.173302 -39.379601 122.745
32.0495 -40.625099 121.831
32.104198 -38.1609 124.602
32.072601 -38.665401 122.96
32.1292 -39.378201 126.41
32.054699 -37.611301 127.026
31.9883 -41.182098 125.622
31.9846 -39.217602 121.935
31.726999 -40.2243 120.658
31.812401 -38.0522 122.786
30.1049 -20.8603 119.815
31.0208 -29.4734 119.106
31.3349 -34.5961 120.932
31.5884 -38.803902 121.273
31.9436 -39.622002 128.537
31.9807 -37.556499 128.41
29.4352 -16.8409 121.696
31.5184 -37.503601 122.54
31.881901 -37.492699 129.616
31.4196 -36.9398 122.29
31.646999 -41.555401 127.825
31.2314 -39.685101 119.801
31.811199 -37.679401 130.536
31.7537 -37.950401 131.22099
31.627899 -38.2966 132.02
29.993299 -22.7721 116.92
30.893499 -31.189199 117.215
31.100201 -36.394501 119.559
31.712799 -42.657299 122.347
31.5333 -43.036098 124.577
31.619801 -42.110401 120.549
31.708401 -40.040401 130.336
31.272301 -41.417801 119.255
31.179001 -38.319901 120.775
31.4739 -40.5117 131.35001
29.181999 -17.9839 118.898
31.052401 -37.805199 120.435
31.2146 -42.201199 129.84801
31.323299 -40.920898 131.989
31.089899 -43.417198 126.961
29.8589 -25.5762 114.753
30.6497 -33.1647 115.95
30.7693 -37.571499 118.258
30.758301 -40.6497 118.354
31.1437 -41.237 132.565
30.7731 -39.133301 119.251
29.086901 -20.114599 115.773
30.8692 -41.566101 133.12
30.8102 -42.997799 131.453
30.882601 -44.509899 121.103
30.7432 -44.847 123.524
30.8437 -43.784302 119.275
30.5779 -42.806499 117.922
28.798201 -15.3463 119.713
30.6332 -38.800499 118.957
30.5226 -44.032001 129.16
29.6689 -29.23 113.281
30.283001 -35.189899 114.969
30.3151 -38.4851 116.824
30.198999 -39.9095 117.79
28.497499 -11.8131 121.117
27.7701 -9.3036804 122.547
30.572701 -43.446499 132.287
28.896099 -23.184799 113.405
30.1996 -41.6488 116.841
28.7073 -17.304899 116.822
30.324301 -45.110901 126.091
30.333799 -42.077801 133.83299
30.163401 -39.675499 117.623
30.3839 -43.521301 132.76601
28.2903 -12.649 118.314
27.373301 -9.6353102 119.766
28.5026 -19.673 114.241
30.012899 -44.776901 130.93201
29.680901 -37.500401 114.045
29.322901 -33.6968 112.376
29.6658 -39.6092 115.326
29.6192 -40.851002 116.321
28.6387 -27.597401 111.408
28.0923 -14.3493 115.92
29.749001 -45.5541 128.45799
27.2295 -10.608 117
29.891001 -42.456001 134.366
29.6077 -44.506901 116.564
29.8202 -45.585602 118.01
29.7962 -46.527 119.804
29.614599 -40.6278 116.154
29.685699 -44.266998 133.41499
29.8304 -46.551998 122.625
28.2792 -24.2988 111.548
29.2728 -43.3605 115.649
26.799299 -8.1640396 120.359
29.7852 -45.052101 131.933
27.6327 -17.4921 113.013
26.883699 -13.3752 114.143
29.479099 -46.6488 125.378
28.7402 -42.2029 114.846
28.138901 -31.0739 109.714
28.549 -37.147099 111.41
28.7794 -39.979301 112.973
28.7687 -41.0994 113.712
26.539301 -8.1269798 117.604
29.2784 -46.083302 130.487
29.383801 -43.045601 134.802
29.1007 -45.8624 132.674
28.6649 -41.998699 114.695
27.110701 -22.035101 109.854
25.832399 -6.4279799 120.939
28.921499 -46.975899 127.79
26.2017 -10.299 115.026
26.319401 -17.5226 111.158
25.492599 -6.2276001 118.112
29.124701 -45.0709 133.618
29.0536 -47.802799 116.589
28.854401 -47.204899 115.064
29.1984 -47.7565 118.374
28.6196 -46.122002 113.945
28.934999 -43.7304 135.22501
25.1024 -7.19345 115.824
25.5245 -13.5621 112.388
29.2157 -47.811901 119.671
28.772301 -46.822601 131.011
26.983999 -37.121399 108.649
26.439199 -30.691099 106.956
27.4781 -40.6478 110.353
28.548201 -47.360298 129.37199
27.812799 -44.5201 112.896
27.745199 -41.943001 111.219
27.7981 -43.148399 111.9
25.754101 -24.266701 107.051
28.694401 -45.867699 133.909
25.507601 -5.3712301 120.912
27.711201 -44.232498 112.679
24.6043 -10.0662 113.147
28.4814 -44.680401 135.69701
25.2129 -5.1845002 117.956
28.881001 -48.750099 117.768
25.321301 -3.55967 120.572
28.5595 -46.886902 132.845
24.5408 -18.380501 109.031
25.045 -3.9899001 117.576
28.328899 -47.647202 131.37
24.798401 -5.8558798 115.49
28.308001 -46.9855 134.364
24.611799 -4.4891601 114.806
27.9615 -45.817699 136.209
28.009899 -48.264702 129.657
28.083 -48.1796 133.258
24.2311 -8.1459703 112.748
23.884701 -14.8086 109.924
23.9681 -5.5216398 111.989
27.6371 -49.194 132.058
27.8104 -48.3162 134.87601
26.6705 -43.808399 108.884
25.952299 -39.571301 107.056
26.9058 -44.890598 109.23
25.3022 -35.056801 105.708
24.3932 -29.671801 104.943
26.735201 -50.504002 130.285
27.437901 -49.673698 133.69901
23.3402 -24.4648 105.344
23.474701 -12.1679 109.335
27.258499 -46.978001 136.668
26.7218 -50.929798 132.55701
26.982201 -48.9263 135.407
23.073601 -7.9123802 108.44
26.674299 -50.870499 134.134
25.831499 -52.122299 131.33501
23.0977 -22.5159 105.434
25.5431 -52.434898 132.681
22.6236 -17.7967 105.242
22.0359 -11.0888 104.771
25.938299 -50.6721 134.85001
24.962999 -53.1521 130.00999
22.202 -28.982599 103.062
23.071199 -34.1922 103.594
24.379999 -53.801899 131.255
24.0926 -53.0989 133.37
21.502701 -22.808901 101.85
20.715401 -13.5857 101.058
23.2243 -55.273602 129.972
23.0315 -54.656898 131.29601
21.736099 -56.152901 129.403
20.3148 -57.476601 127.3
19.172501 -58.570999 125.403
18.3487 -58.949902 124.189
17.4438 -59.428299 122.732
14.9475 -59.204399 119.194
11.8799 -57.975201 115.625
28.7729 -48.772099 116.1
28.563499 -48.7407 114.345
28.2178 -48.541801 112.753
27.334 -47.213699 111.177
27.069 -45.811699 109.93
27.1553 -46.787601 110.819
24.1752 -41.1077 104.833
23.6078 -37.352001 103.942
21.306101 -39.423599 102.433
20.710899 -37.5159 101.654
20.1332 -33.875702 100.419
19.361099 -27.416201 98.673698
18.1971 -15.7153 97.175903
17.956301 -37.653 98.919601
17.601999 -34.1474 97.827904
16.826599 -29.886801 96.045303
15.3348 -16.0368 94.084503
14.3909 -35.741299 96.128998
14.0522 -29.7738 94.551903
18.5516 -61.1064 122.651
12.3897 -13.9057 91.949203
17.335699 -61.010201 120.653
16.0944 -61.303398 117.817
15.6214 -60.306099 118.072
14.2345 -60.4244 113.773
11.4718 -32.562801 93.943298
10.213 -25.182899 92.573303
9.5426798 -8.9387503 91.515099
12.4804 -58.2271 113.675
14.0931 -59.687099 114.588
11.746 -57.483601 108.275
12.6345 -58.339199 112.298
12.7644 -58.756302 111.171
8.1199903 -6.8963099 91.3806
7.17238 -15.1767 92.304703
11.5102 -57.315102 111.581
5.4172702 -6.5682001 90.117798
6.2257199 -19.8046 92.989998
9.0087404 -51.181999 103.398
10.7357 -55.7612 106.622
11.2963 -56.894001 108.757
10.0453 -55.991901 107.996
4.63977 -12.7366 91.2929
11.1403 -57.029701 110.79
5.6289301 -21.8974 93.7127
8.0573502 -50.536598 102.65
9.03689 -53.692299 105.187
4.0847602 -17.341101 92.495499
7.0289898 -43.022099 99.848297
6.6609302 -44.903599 100.52
5.45895 -24.7388 94.605904
5.7862701 -33.785099 97.506302
5.3959198 -27.8885 95.657303
3.8141 -19.752199 93.519798
4.67138 -35.114399 98.269798
3.7448299 -21.6973 94.650002
3.72419 -23.6966 95.849098
3.8257101 -26.680201 97.531998
29.1329 -47.866901 122.136
28.7169 -47.927799 124.946
27.959801 -48.4268 127.797
28.8883 -48.620399 119.356
28.7745 -48.697201 121.801
28.309 -48.8624 124.451
28.5103 -49.5336 121.437
27.996201 -49.954899 123.824
28.666401 -49.448299 118.864
27.395399 -49.668201 126.566
28.2792 -50.313801 121.105
27.6567 -50.996498 123.196
28.379101 -50.245602 118.718
27.034 -50.971699 125.526
26.2005 -51.1465 128.418
25.9356 -51.825901 127.33
26.7057 -52.259899 124.532
27.389099 -52.034302 122.583
26.435301 -53.538502 123.676
27.969101 -51.257999 120.63
25.698799 -52.948898 126.197
25.5163 -54.2822 125.148
23.695299 -55.147301 127.961
25.2654 -55.881802 124.41
24.0075 -55.1301 126.898
24.126301 -55.623798 126.126
24.4133 -56.4202 125.363
21.842699 -57.367401 128.33299
22.439501 -58.557999 125.983
21.554199 -59.3312 126.654
20.1336 -59.905602 125.611
28.612 -49.644001 117.314
28.5077 -50.023102 115.593
28.3291 -50.6064 113.669
27.9466 -51.102699 111.735
28.353901 -50.599998 116.938
28.257401 -51.231899 115.167
28.0858 -52.142799 113.229
27.2717 -50.978401 109.796
27.6394 -53.437901 110.948
28.1784 -51.2033 118.419
28.191799 -51.6413 116.592
29.2647 -57.973999 115.165
29.215401 -57.8727 113.96
28.9786 -57.934799 112.539
28.0879 -52.421799 114.783
28.9601 -55.588902 115.641
28.924801 -55.685902 114.681
28.715401 -55.976501 113.248
29.184099 -58.199001 116.272
27.8584 -53.519501 112.894
28.8885 -55.552898 116.835
28.583401 -53.841099 115.814
28.361401 -54.088799 114.114
26.8253 -53.825401 107.786
28.5021 -53.577702 117.754
28.1113 -53.394001 119.866
