# .PCD v.7 - Point Cloud Data file format
VERSION .7
FIELDS x y z
SIZE 4 4 4
TYPE F F F
COUNT 1 1 1
WIDTH 1703
HEIGHT 1
VIEWPOINT 0 0 0 1 0 0 0
POINTS 1703
DATA ascii
-8.9194202 38.421902 258.12601
-11.1818 94.941902 228.791
-9.4980001 37.0732 257.245
-10.3162 92.496597 245.94
-13.3963 93.043404 221.117
-10.3641 34.7234 256.86499
-11.004 88.3088 258.38699
-10.9726 40.816502 260.45499
-10.9996 41.919998 262.15799
-11.8084 25.3927 251.985
-12.0728 94.017502 224.992
-10.8046 31.7658 255.88901
-11.057 39.445301 259.42999
-11.3485 37.545101 258.23801
-11.0344 93.082497 242.12801
-11.1803 88.627998 256.83899
-11.6149 31.941999 256.32199
-11.3431 88.936501 255.28799
-12.0318 35.3148 257.57599
-12.1057 93.140099 237.14
-11.6498 28.4902 254.407
-11.7419 89.445396 251.52299
-12.4283 89.424103 248.071
-12.1476 28.8368 254.381
-13.2356 32.521099 257.04999
-14.3051 92.204201 223.784
-13.222 92.485901 232.245
-13.1374 89.474701 245.465
-12.2699 85.347198 259.181
-13.0721 29.1173 254.634
-13.0241 42.175499 260.95001
-12.7992 43.234699 262.14401
-13.5352 41.2631 260.259
-12.8695 26.3468 251.511
-14.209 39.559502 259.647
-14.1706 89.7248 241.411
-12.3858 85.473503 258.65799
-12.8214 85.511299 257.755
-13.0449 85.5373 256.931
-14.1527 91.927101 229.19
-13.3149 85.858704 255.39
-14.8995 37.258999 258.72
-13.9559 86.1558 252.655
-14.6474 29.646999 255.349
-13.3799 26.7955 251.366
-14.8415 86.1325 249.103
-14.6008 80.745399 259.59601
-15.9764 34.267101 257.89999
-14.1896 27.242399 251.388
-15.2678 91.205299 226.521
-15.2376 89.527802 236.692
-15.2678 91.553001 221.179
-14.8895 80.653702 258.944
-15.7451 80.418198 257.935
-14.3387 44.8848 262.095
-14.8467 43.776299 261.073
-16.388599 80.370499 256.60501
-16.763901 80.395699 255.701
-15.7939 28.3531 252.06
-15.3956 42.8927 260.33499
-17.096901 31.5354 255.716
-17.095301 80.488701 254.271
-16.645399 85.423302 245.02699
-16.0795 89.232201 233.181
-15.8884 90.667603 223.588
-16.265499 41.460999 259.76099
-16.207399 77.079201 260.40799
-18.4561 80.449203 251.015
-15.3836 46.490299 262.04999
-16.471001 48.847099 262.22101
-15.953 90.096603 228.495
-16.9305 88.551201 231.448
-17.266701 39.285999 258.98599
-17.8876 85.064499 241.843
-16.874201 89.303902 226.13499
-16.3675 45.622601 260.89301
-16.7369 90.326302 221.282
-17.5483 29.818701 252.19701
-16.785299 76.770203 259.24301
-18.1754 36.352402 258.05499
-17.2099 44.6283 260.04001
-19.8074 80.265404 247.86501
-17.9161 76.7052 257.54999
-17.296 51.508099 262.086
-18.876101 84.9776 237.487
-16.980801 88.757797 228.129
-16.899599 89.769798 223.53101
-17.729099 47.7393 260.811
-18.2185 43.080502 259.21399
-17.4118 73.634003 260.978
-18.8631 33.3325 255.823
-19.2262 76.267799 255.285
-17.378201 87.789101 231.325
-17.9648 53.765099 261.978
-19.1544 41.1936 258.379
-18.070299 73.509003 259.37399
-19.004101 46.5868 259.88
-20.545 75.720703 253.05901
-18.7139 50.5326 260.591
-18.073601 71.266602 261.19901
-20.748501 79.970596 245.19
-19.542801 86.358299 222.896
-19.5942 86.8685 220.68201
-21.2609 75.178703 251.61099
-19.3288 73.355103 257.418
-18.4732 55.777699 262.15201
-19.4977 85.769897 225.25
-19.5165 85.010803 227.106
-19.7118 84.0159 229.95799
-19.951 83.463799 233.23
-20.0364 38.988899 257.72
-21.9216 75.083603 250.50101
-18.2845 70.397102 261.31601
-20.363899 44.873699 258.86899
-19.3953 53.031399 260.44901
-18.681299 68.785103 261.59799
-19.616899 84.126503 235.02699
-18.8284 70.782204 259.73901
-18.8794 57.679798 262.237
-19.1439 66.432701 261.77701
-20.287399 49.2742 259.60501
-21.026501 72.807198 254.758
-20.766701 35.9828 255.894
-19.2637 59.747898 262.15701
-19.8298 55.294102 260.48801
-20.262501 70.6633 257.48599
-19.419399 63.426498 262.03201
-20.953199 42.619099 257.922
-19.562901 68.669701 259.72299
-19.3657 61.480301 262.095
-22.869301 75.102997 248.55901
-20.135799 57.352501 260.44299
-20.059601 66.226997 259.96701
-21.1614 51.837399 259.297
-20.957399 68.408501 257.603
-22.219801 79.247101 242.28999
-22.9436 78.8937 238.717
-20.3766 59.3988 260.38101
-21.5077 40.200401 257.01401
-21.7134 47.444801 258.75101
-20.3127 63.221001 260.27701
-22.312099 72.324501 252.412
-20.380899 61.216702 260.35901
-21.923901 70.098801 254.87399
-21.693501 54.4818 259.22699
-22.0056 79.625603 228.10699
-21.9841 80.961502 224.85699
-22.216299 81.772003 221.99001
-21.915899 79.061699 230.853
-22.447201 82.453102 219.366
-21.468201 66.103699 257.936
-22.8176 78.841301 236.021
-22.4552 78.840797 234.261
-22.065599 78.966599 232.403
-22.0611 56.785999 258.992
-22.0562 37.5942 255.465
-21.9221 62.953098 258.284
-22.2952 58.9599 258.71201
-22.657499 67.667503 255.123
-22.208099 60.8256 258.535
-22.9095 50.102001 258.32001
-22.571501 43.834099 257.16199
-22.231001 46.008999 258.177
-22.892099 71.711502 251.173
-24.689699 73.868896 244.89799
-22.9016 41.275101 256.20499
-23.199699 65.202103 255.554
-23.3909 69.218498 252.491
-23.439199 52.655499 258.108
-23.540701 71.252899 250.284
-23.7644 62.130001 256.14301
-24.047501 54.890598 257.27301
-23.433001 47.480999 257.33899
-24.5264 72.764397 233.489
-24.6332 72.697998 234.763
-24.2945 73.276604 231.86301
-24.0453 74.160103 229.209
-24.1374 59.800098 256.61099
-24.2995 66.307701 252.72099
-24.5035 70.647499 249.03999
-23.955601 75.940903 224.356
-23.8412 74.8162 227.537
-24.167999 76.777901 221.033
-25.1943 72.5784 236.101
-24.1814 57.7164 256.94501
-24.522301 78.056702 217.44501
-25.799 72.979202 241.52901
-23.8027 44.951401 256.39001
-24.0774 68.468697 251.285
-25.784901 72.705704 238.19
-23.9496 42.173302 255.187
-24.786699 63.808399 253.345
-23.8137 47.486198 216.647
-22.784201 44.423698 215.45799
-21.5296 41.354198 214.106
-23.9202 47.438301 215.485
-22.859501 44.3083 214.14301
-21.5464 41.1852 212.71201
-23.008499 43.696999 210.045
-24.2055 47.077499 211.924
-21.4769 40.377399 208.37399
-26.3442 69.244904 246.17101
-24.7558 67.906998 250.51601
-23.991899 51.084099 257.44101
-24.513399 48.741199 256.526
-25.3437 60.858501 254.21001
-24.8941 65.458 251.709
-24.7724 45.879799 255.43401
-24.873501 52.426899 256.57599
-25.756901 67.124603 249.46201
-25.561001 58.327099 254.94299
-24.463699 50.353401 217.62
-24.586399 50.366501 216.597
-24.7449 43.006199 254.18401
-25.528099 68.6465 229.282
-24.998199 69.431099 226.97501
-25.1192 70.331299 223.771
-24.952101 50.208099 213.541
-25.551701 71.466003 219.923
-25.492001 50.147301 255.47501
-26.041901 68.240997 232.136
-25.435699 56.442799 255.476
-25.4265 54.415401 255.771
-25.596901 52.620701 255.619
-25.513599 64.7687 251.052
-25.9736 73.947197 215.724
-25.105499 50.243301 212.48599
-24.3396 47.0522 210.728
-23.099899 43.591599 208.69901
-26.315901 67.761101 235.30901
-26.1889 68.088898 233.80099
-25.542 62.904598 252.16701
-25.3221 50.317902 211.217
-24.531 47.058201 209.36
-23.206301 43.5299 207.29601
-24.8549 53.097099 218.561
-24.9729 53.160099 217.64799
-27.4242 65.238197 247.12199
-25.4006 43.721699 253.29201
-26.364 67.506897 236.42799
-25.041401 46.845501 205.077
-25.945299 50.3386 207.255
-23.4142 43.114101 202.927
-25.5844 46.709499 254.457
-25.335699 53.157902 214.981
-26.718 67.500603 237.52499
-27.3974 67.816101 243.144
-26.443001 63.8671 250.155
-26.0387 59.8965 253.16299
-25.084101 56.005001 219.657
-25.195299 56.1161 218.83501
-26.078899 62.304798 251.617
-25.483 53.2383 214.037
-25.539301 56.266701 216.48
-25.3762 65.388298 225.27499
-25.4508 66.687302 223.17
-25.598301 64.6922 227.05099
-26.276199 64.314598 229.35899
-25.243299 46.863998 203.694
-23.523701 43.066002 201.522
-26.176201 50.435299 205.97
-25.966299 44.241299 252.47701
-25.261299 59.061401 220.838
-25.250099 58.823002 221.491
-25.3062 58.123798 223.259
-25.366699 59.219101 220.07899
-25.700001 53.3661 212.88
-25.794901 68.069504 220.201
-25.5944 57.407799 224.438
-27.346901 67.361 239.58701
-25.6903 59.548 217.927
-25.461 46.9417 202.356
-23.655199 43.117599 200.173
-26.436899 50.572701 204.68401
-25.410299 62.219299 221.94901
-25.373501 62.014702 222.508
-25.3311 61.436401 224.326
-25.500799 62.393398 221.308
-25.5361 60.545898 225.84801
-26.3447 53.571201 209.302
-25.479601 65.351097 222.867
-25.677799 56.3867 215.625
-26.1877 57.3363 253.834
-25.806801 62.927601 219.209
-26.540501 56.179199 225.707
-26.245199 55.256302 254.213
-26.1896 53.043499 254.54601
-25.8675 66.394699 219.797
-26.0355 46.991501 198.254
-27.176901 50.776501 200.718
-23.9573 43.1311 196.06599
-26.2306 47.089001 253.50101
-25.882401 56.548199 214.56599
-26.308599 50.132801 254.136
-26.941401 61.4151 250.742
-27.002399 64.535896 232.75999
-26.372499 59.446999 227.20599
-25.817499 59.708401 217.14101
-26.5639 59.098701 252.299
-26.1348 69.367104 218.08299
-26.7351 71.454498 214.03101
-26.6127 44.969299 251.645
-25.997 59.904701 216.215
-25.9095 63.101898 218.55099
-26.4939 56.882301 211.34801
-28.0345 61.7705 247.922
-26.2589 67.147102 217.65601
-26.042601 63.304401 217.84399
-26.462999 63.993198 215.634
-26.527599 60.391201 213.478
-26.579 53.725498 208.12199
-26.7451 47.337399 252.64101
-26.786301 56.4417 252.78999
-27.164801 64.857903 234.936
-27.375401 57.990799 251.084
-26.3703 67.461899 217.04201
-26.5193 67.816101 216.231
-27.027 69.048698 213.39999
-27.2372 44.860001 250.19
-26.8629 53.916698 206.88499
-26.8743 54.505901 253.054
-27.2138 64.914101 236.306
-26.887699 52.586899 253.201
-26.8941 50.086601 253.076
-26.621 64.276604 214.841
-27.460501 59.73 231.09599
-27.225 57.461498 228.44701
-27.860901 61.2813 234.00301
-27.239599 64.793297 237.328
-28.063101 63.827702 244.30099
-26.716801 57.074501 210.26601
-27.427099 65.002403 238.593
-26.837 64.627197 213.87601
-27.7027 54.2882 203.06
-28.202499 59.226299 248.58501
-26.7244 60.628101 212.53
-27.496599 65.574799 210.923
-27.5376 55.424198 251.48801
-27.0026 57.308201 209.09599
-26.988701 60.912498 211.452
-27.8312 45.0317 248.78101
-27.787001 47.431702 250.41901
-27.1548 47.4039 251.84599
-27.6605 65.613899 240.55499
-27.1565 69.608902 212.62
-27.4547 49.944599 251.99001
-27.560699 53.764801 251.713
-27.790899 61.611 208.15199
-27.864799 57.828602 205.493
-27.528799 52.156101 251.89301
-28.3913 56.4403 249.2
-27.891399 61.968399 235.99001
-27.725599 65.942001 209.91901
-27.976999 54.450901 230.33
-27.885099 62.087799 237.297
-27.4396 50.923 199.446
-26.2486 47.0835 196.946
-27.994101 54.488998 201.82401
-28.134001 49.694901 250.44
-27.950199 61.869301 238.483
-28.2862 56.214199 232.927
-28.120399 61.921902 239.769
-28.352699 47.392399 248.828
-28.418301 54.153099 249.726
-28.3937 61.948002 241.828
-28.6371 60.418301 245.535
-28.275 51.4884 250.245
-28.4951 57.493999 235.619
-28.0679 61.910301 207.056
-28.3654 52.768902 250.01401
-27.9699 52.678699 231.354
-28.1618 58.077 204.317
-28.666599 49.317402 248.69701
-28.618999 57.999199 237.65601
-28.4856 58.84 238.63
-28.6005 58.364201 239.88499
-28.656601 47.279999 247.347
-28.7083 58.538399 241.175
-28.2696 54.494099 233.81599
-28.432699 53.4762 234.258
-28.973801 57.542702 246.573
-28.908199 59.2257 243.537
-28.865801 58.753799 242.44701
-28.8265 50.753601 248.44701
-28.8004 51.787998 235.041
-29.0618 54.940399 247.38499
-28.720699 47.174801 246.14
-28.4827 56.076698 236.317
-28.6668 54.772202 236.62
-28.920401 51.749298 248.23
-28.619699 45.983799 237.83501
-28.629999 45.392899 238.062
-28.753901 47.115101 237.28101
-28.9984 52.898998 247.94701
-28.877001 48.897499 247.093
-28.7656 44.759602 238.23599
-28.7139 47.0438 245.2
-28.9419 52.789501 237.35899
-28.6 57.157001 238.064
-28.8248 55.359798 238.576
-28.646099 57.539799 239.22301
-28.7244 46.765202 244.12601
-28.8689 49.2323 236.224
-28.764099 46.128502 242.58501
-28.9202 55.601002 240.14
-29.0543 55.150101 241.51199
-29.102501 55.370602 242.715
-28.8953 48.404099 239.444
-28.7283 47.255699 239.957
-28.6924 46.6054 240.157
-28.764799 45.894501 240.33299
-29.241501 56.3274 244.922
-28.8382 48.537201 245.81599
-28.9914 50.098598 246.84
-29.0711 53.608002 239.332
-28.732201 47.0588 242.41299
-28.695801 47.770802 242.229
-28.7687 48.435699 241.974
-28.7248 47.770901 243.875
-28.7185 48.5513 243.63901
-28.791901 49.259102 243.37
-29.191099 55.676201 243.757
-28.7514 48.1922 244.854
-28.7663 49.089802 244.58701
-28.8197 49.798199 244.313
-28.961399 49.523899 241.44
-28.9009 49.6688 245.526
-29.031799 50.488998 238.423
-28.909401 50.2029 245.063
-28.9694 50.297699 242.895
-28.9494 50.785301 243.908
-28.9928 51.125198 244.67999
-29.122499 54.1973 240.83099
-29.0665 50.944401 246.69099
-29.1408 51.475601 240.407
-28.9799 50.451698 245.589
-29.0667 51.4244 245.36301
-29.149099 51.962601 246.45
-29.1796 52.144199 241.95
-29.135 52.622101 243.01601
-29.138599 52.885399 243.92599
-29.2623 53.833401 245.88699
-29.196199 53.2038 244.77699
24.0868 43.1917 194.75
21.643999 39.971298 193.188
21.5835 39.847401 194.42
21.501301 39.6022 198.24001
21.4452 39.491901 199.515
21.427401 39.579102 200.965
21.5116 40.091202 205.492
21.496401 40.199699 206.955
19.676701 37.936901 192.217
19.665001 37.790001 193.437
19.7115 37.441601 197.194
20.060699 38.709999 212.93401
20.050501 38.563702 211.53799
19.8771 37.873798 207.22501
19.8661 37.721199 205.813
19.8598 37.6717 204.366
19.709101 37.3647 199.899
19.7003 37.315201 198.461
17.388 35.715099 211.76601
17.378201 35.660702 210.384
17.2292 35.290501 206.13499
17.226601 35.2192 204.745
17.232401 35.235901 203.336
17.1215 35.188202 199.013
16.9627 35.727699 191.38699
17.039801 35.622101 192.614
17.124599 35.305599 196.35001
17.120701 35.197601 197.612
14.5107 32.893101 210.82201
14.44 32.9002 209.38699
14.12 32.817699 204.98801
13.9984 32.7826 203.54601
13.9971 32.8517 202.168
13.9325 32.988499 198.008
13.9345 33.0354 196.651
13.9118 33.1362 195.409
13.7101 33.445301 191.745
12.8626 33.174099 190.48599
11.8136 30.5198 210.043
11.7667 30.6292 208.567
11.4946 30.893101 204.11501
10.7724 30.622 202.59801
10.8548 30.868799 201.175
11.1367 31.350401 197.172
11.262 31.4879 195.866
11.4376 31.708799 194.70599
11.9679 32.4725 191.345
8.1798601 31.0072 189.56599
8.0033197 30.707001 190.603
7.6719398 30.0334 193.743
9.0408602 28.5781 209.31799
9.2785997 28.9464 207.804
9.9898796 29.9608 203.666
7.5505099 29.840799 194.842
7.41469 29.690599 196.15601
7.0486798 29.021999 200.174
6.9077401 28.7465 201.50101
6.6458602 28.441401 202.828
5.99822 27.5187 206.94099
5.7775402 27.2019 208.308
3.9438701 29.815001 188.896
3.8782799 29.560699 189.927
3.7485499 28.934999 193.037
4.32231 20.949499 249.91299
3.7107601 28.768101 194.114
3.622 28.635201 195.416
3.41571 28.0776 199.48801
4.0506701 20.4891 249.338
3.3513401 27.8764 200.811
3.2286899 27.680799 202.188
3.9965401 19.2897 247.991
2.9051099 26.907 206.45599
2.8080599 26.619101 207.83
3.2060101 18.190701 243.38901
3.6137099 18.261 246.026
2.6576099 26.2701 209.27
2.1672499 25.148001 214.217
2.74491 19.241699 240.216
2.02918 22.254299 251.004
1.60691 24.445601 218.52901
2.27649 21.472799 236.83501
1.9359 21.6357 250.496
1.7932 20.451401 249.716
1.8685499 18.349701 246.021
1.83416 19.1604 247.897
0 29.466801 188.649
0 29.198299 189.702
0 28.5942 192.686
0 28.429001 193.82401
0 28.288401 195.168
0 27.8174 199.16901
1.80222 18.2735 243.535
1.43914 24.3759 221.295
0 27.6408 200.578
0 27.4652 202.01801
0 26.7875 206.183
1.73443 19.6047 240.336
1.32917 24.5679 223.692
0 26.4932 207.63499
0 26.157101 209.10201
1.23017 24.908701 226.082
0 25.091801 213.899
1.04705 25.4755 229.541
1.03925 24.005199 233.492
0.98730898 22.509501 236.718
0.59838301 19.9284 240.461
0 24.447001 218.438
0.63292998 22.6056 250.83099
0.45910999 21.1056 250.047
0.52571899 19.2665 247.526
0.495727 18.572001 245.907
0.57302397 18.508499 243.601
0 24.308901 221.311
0 24.469999 223.81
0 24.828199 226.287
0 25.564501 229.63
0 24.4694 233.55099
0 22.872299 236.808
0 20.326401 240.62199
-0.0020059999 23.0359 250.882
0 21.278299 249.899
0 18.715799 243.739
0 18.7162 245.82201
0 19.4039 247.418
-0.63646501 22.6043 250.836
-0.45918101 21.104601 250.049
-1.23017 24.908701 226.082
-1.04705 25.4755 229.541
-1.03925 24.005199 233.492
-1.32917 24.5679 223.692
-1.43914 24.3759 221.295
-0.98730898 22.509501 236.718
-1.60691 24.445601 218.52901
-2.1672499 25.148001 214.217
-2.6576099 26.2701 209.27
-0.52571899 19.2665 247.526
-2.8080599 26.619101 207.83
-2.9051099 26.907 206.45599
-3.2286799 27.680799 202.188
-3.9438701 29.815001 188.896
-3.3513401 27.8764 200.811
-3.8782799 29.560699 189.927
-3.7485499 28.934999 193.037
-3.41571 28.0776 199.48801
-3.622 28.635201 195.416
-3.7107601 28.768101 194.114
-0.59838301 19.9284 240.461
-0.495727 18.572001 245.907
-0.57302397 18.508499 243.601
-1.7932 20.451401 249.716
-1.93767 21.6322 250.506
-1.83416 19.1604 247.897
-1.8685499 18.349701 246.021
-1.80222 18.2735 243.535
-1.73443 19.6047 240.336
-2.27649 21.472799 236.83501
-2.0330801 22.251499 251.02
-2.74491 19.241699 240.216
-3.2060101 18.190701 243.38901
-3.9965401 19.2897 247.991
-4.0506701 20.4891 249.338
-3.6137099 18.261 246.026
-4.32231 20.949499 249.91299
-5.7775402 27.2019 208.308
-5.99822 27.5187 206.94099
-6.6458602 28.441401 202.828
-6.9077401 28.7465 201.50101
-7.0486798 29.021999 200.174
-7.41469 29.690599 196.15601
-7.5505099 29.840799 194.842
-7.6719398 30.0334 193.743
-8.0033197 30.707001 190.603
-8.1798601 31.0072 189.56599
-9.0408602 28.5781 209.31799
-9.2785997 28.9464 207.804
-9.9898796 29.9608 203.666
-10.7724 30.622 202.59801
-10.8548 30.868799 201.175
-11.1367 31.350401 197.172
-11.262 31.4879 195.866
-11.4376 31.708799 194.70599
-11.9679 32.4725 191.345
-12.8626 33.174099 190.48599
-11.8136 30.5198 210.043
-11.7667 30.6292 208.567
-11.4946 30.893101 204.11501
-13.9984 32.7826 203.54601
-14.12 32.817699 204.98801
-13.9971 32.8517 202.168
-13.9325 32.988499 198.008
-13.9345 33.0354 196.651
-13.9118 33.1362 195.409
-13.7101 33.445301 191.745
-14.44 32.9002 209.38699
-14.5107 32.893101 210.82201
-16.9627 35.727699 191.38699
-17.039801 35.622101 192.614
-17.124599 35.305599 196.35001
-17.120701 35.197601 197.612
-17.1215 35.188202 199.013
-17.232401 35.235901 203.336
-17.226601 35.2192 204.745
-17.2292 35.290501 206.13499
-17.378201 35.660702 210.384
-17.388 35.715099 211.76601
-19.676701 37.936901 192.217
-19.665001 37.790001 193.437
-19.7115 37.441601 197.194
-19.7003 37.315201 198.461
-19.709101 37.3647 199.899
-19.8598 37.6717 204.366
-19.8661 37.721199 205.813
-19.8771 37.873798 207.22501
-20.050501 38.563702 211.53799
-20.060699 38.709999 212.93401
-21.501301 39.6022 198.24001
-21.5835 39.847401 194.42
-21.643999 39.971298 193.188
-21.4452 39.491901 199.515
-21.427401 39.579102 200.965
-21.5116 40.091202 205.492
-21.496401 40.199699 206.955
-24.0868 43.1917 194.75
14.9973 64.280701 276.04001
14.8925 61.958 275.10199
14.7913 66.296501 277.29599
14.5605 59.966499 274.48199
14.4022 58.451199 274.10501
13.9395 56.243801 273.49399
13.3518 54.284 272.87201
-13.9122 56.273602 273.40201
-13.331 54.318901 272.785
-14.3683 58.473 274.01001
-14.5227 59.980598 274.38501
-14.8491 61.952499 275.00299
-14.9525 64.261703 275.996
-14.7528 66.277802 277.25299
18.377399 61.168301 264.86499
18.3461 63.2505 264.95001
18.1441 66.236397 264.82001
18.348101 59.235298 264.75101
17.984501 57.203201 264.604
17.761101 68.683701 264.50201
17.490601 55.569801 264.42401
17.387501 70.4907 264.202
16.8011 54.001202 264.23999
17.4387 62.250099 267.987
17.4496 60.185001 267.90701
17.413401 64.228203 267.94299
17.155899 58.185101 267.81601
17.1689 67.043999 267.90799
17.188299 71.624001 264.009
16.747299 69.574402 267.64499
16.6479 74.080597 263.50699
15.9955 52.1306 264.26099
16.754499 56.571701 267.64099
16.349199 71.428398 267.19501
15.9928 55.020901 267.362
16.2026 63.690399 272.104
16.1579 61.3172 271.77802
15.8594 59.3601 271.37
15.5049 77.381699 262.668
16.156601 65.653297 272.22
15.9698 68.442101 272.12201
16.2148 72.568497 266.892
15.1556 49.6805 264.272
15.523 57.740601 271.01401
15.763 74.704201 266.233
15.5035 70.984802 271.694
15.1416 53.299198 267.03
14.906 56.073898 270.60501
15.0487 72.822601 271.047
14.7059 77.653099 265.26801
14.0715 47.332298 264.07501
14.9637 73.913597 270.69501
13.9379 80.781303 261.89001
14.578 75.671997 270.02899
14.3683 68.822304 278.44901
14.307 50.927799 266.41501
14.1828 54.297501 270.18201
13.7462 72.357903 278.211
13.5756 78.123199 269.08499
13.1086 74.719002 277.36899
13.2664 80.8125 264.19501
13.9302 51.463902 267.54901
13.2632 52.092701 269.86499
13.3091 48.877201 265.95599
12.9682 75.848701 276.84
12.6282 77.338501 275.84201
12.3249 80.856903 267.63101
11.8896 84.807602 261.54599
11.8183 79.249298 274.66199
12.6456 45.3554 264.35001
12.6319 52.083599 272.23499
12.7662 49.156399 267.22101
12.5644 47.4501 265.65701
12.3753 50.105301 269.45599
11.6173 84.572899 263.09799
11.0954 80.670197 273.98001
11.0457 83.976196 266.492
11.8192 49.8158 271.29199
11.0738 43.112701 264.26401
11.3784 45.395401 265.34399
11.6749 46.9753 267.215
11.8425 48.481602 269.284
10.5734 87.591103 261.771
10.0233 83.359703 272.78101
10.7828 46.624901 268.974
11.0425 48.059799 271.24301
9.7423801 87.097702 265.97699
10.2595 45.0728 266.83899
9.6589003 43.439899 264.784
9.7139902 46.6366 270.82901
8.8853302 41.064701 263.522
8.71348 90.391899 261.936
8.9854298 86.279198 271.259
9.2080898 45.344299 268.45801
8.1747398 89.558098 265.64801
8.4905796 43.930302 266.26001
7.6985102 42.278599 264.17001
8.11166 46.132198 270.375
7.60321 88.649803 270.388
6.7917299 40.4743 263.31699
7.5433602 45.0168 267.89801
7.1370502 92.212097 262.259
6.744 43.649799 265.595
6.7102599 91.453003 265.39301
7.02634 45.525398 270.03201
5.84201 41.859299 263.41599
6.3395 44.569698 267.444
6.2037301 90.4328 269.99701
4.8744602 40.452599 262.48401
5.4812999 43.251598 265.133
5.3747702 93.812202 262.75601
5.9804001 44.812199 269.77701
4.9962802 93.002296 265.57199
4.6058402 43.545502 266.86899
4.5215302 91.828697 270.14401
4.5401301 41.537498 262.86801
3.67731 42.439999 264.74399
4.74687 43.725601 269.418
3.6072099 40.434502 261.82599
3.96452 94.996597 263.366
2.95625 41.346802 262.28799
3.85305 94.0606 265.737
3.5992701 42.974201 269.16901
3.7382801 92.723801 270.34201
3.46805 42.838699 266.63199
2.3819301 40.456501 261.133
2.4270401 96.011803 264.02899
2.4484899 95.341301 265.78201
2.51526 94.019203 270.67499
1.67135 41.444901 264.026
1.82087 42.083801 266.28601
1.36096 41.092098 261.81
1.90701 42.2397 268.82401
1.05942 40.379398 260.55899
0.092680998 94.920601 270.83499
0.094754003 96.258301 266.07401
0.096124001 96.992996 264.22699
-0.012039 41.902302 268.66101
-0.024152 41.6264 266.05801
-0.035292 40.9823 263.72299
-0.041372001 40.9048 261.57901
-0.045967001 40.324799 260.12601
-2.3347001 94.031998 270.677
-2.2639401 95.353699 265.78299
-2.2400401 96.024101 264.03
-1.92946 42.247501 268.81201
-1.86685 42.0938 266.27499
-1.7388901 41.456001 264.01599
-1.44309 41.0998 261.80899
-1.15267 40.373402 260.57199
-2.4767599 40.463902 261.147
-3.0366199 41.373699 262.27899
-3.7376299 42.463402 264.724
-3.5104401 42.857498 266.61099
-3.6182001 42.988499 269.146
-3.7040901 40.454399 261.841
-3.7832201 95.016998 263.36801
-3.67524 94.080299 265.73999
-3.5646999 92.742996 270.34399
-4.6178002 41.582901 262.85001
-4.9730802 40.485298 262.49899
-5.53759 43.286301 265.10199
-4.7631202 43.744202 269.388
-4.6456599 43.5704 266.84201
-4.3527598 91.851997 270.147
-6.8923998 40.525299 263.33401
-4.8241 93.028 265.57501
-5.9151502 41.899799 263.384
-6.3734498 44.603001 267.40601
-5.2000399 93.839996 262.759
-6.0423598 90.464996 270
-6.5462999 91.487801 265.397
-6.7957802 43.6912 265.55701
-5.9927902 44.835098 269.73901
-7.0360198 45.5518 269.987
-7.76441 42.329601 264.12701
-6.9710002 92.2491 262.263
-7.5728598 45.054901 267.853
-7.4509401 88.689301 270.392
-8.5360098 43.9799 266.211
-8.9849396 41.134701 263.54099
-8.0205603 89.600601 265.65302
-8.1179304 46.1614 270.323
-9.2322702 45.388199 268.401
-8.5571604 90.437202 261.94101
-9.7184696 43.503201 264.73099
-8.8450603 86.325996 271.26501
-9.71597 46.669201 270.76599
-9.6008902 87.148499 265.983
-10.2989 45.1315 266.77899
-10.4319 87.646301 261.77701
-10.8015 46.675098 268.90799
-9.8973503 83.412003 272.78699
-11.1643 43.171101 264.271
-11.4317 45.4715 265.28101
-11.0399 48.0956 271.172
-10.9203 84.033897 266.49899
-10.9828 80.728203 273.987
-11.7098 47.044201 267.147
-11.4908 84.633598 263.10501
-11.7127 79.311096 274.66901
-12.5354 77.3853 275.953
-11.8573 48.5383 269.211
-12.2151 80.921402 267.63901
-11.8151 49.856499 271.216
-11.7628 84.869698 261.55301
-12.8891 75.871498 276.94901
-12.7242 45.422001 264.358
-13.0388 74.723 277.47299
-12.6137 47.5382 265.59
-13.1589 80.881897 264.203
-13.4793 78.194199 269.09399
-12.8 49.2388 267.14999
-12.6181 52.1208 272.15302
-13.6942 72.314301 278.29199
-12.3877 50.167301 269.38101
-13.832 80.854202 261.89801
-13.2707 52.161201 269.785
-14.494 75.748299 270.03799
-14.3348 68.712997 278.43701
-13.9598 51.560299 267.474
-14.6143 77.730003 265.27701
-14.1862 54.375999 270.09799
-14.1399 47.4063 264.08301
-13.3549 48.9734 265.88699
-14.8885 73.991898 270.70401
-14.3474 51.035999 266.34299
-14.9791 72.901398 271.056
-15.4431 71.066101 271.703
-15.1749 53.4202 266.957
-15.2115 49.7603 264.28101
-15.4163 77.462898 262.677
-14.9045 56.159199 270.51801
-15.6864 74.786797 266.24301
-15.9224 68.525803 272.13101
-15.5168 57.832802 270.92499
-16.0385 52.2276 264.27701
-16.018801 55.105 267.371
-16.1238 65.737999 272.229
-15.849 59.460098 271.28101
-16.149 72.653503 266.90201
-16.142599 61.430199 271.69199
-16.5762 74.167801 263.517
-16.180201 63.775398 272.11401
-16.7722 56.659698 267.651
-16.2892 71.514 267.20499
-16.696699 69.662201 267.65601
-16.8333 54.352299 264.36499
-17.1315 67.134003 267.91901
-17.165001 58.2752 267.827
-17.129101 71.714104 264.01999
-17.4482 60.2766 267.918
-17.390699 64.319603 267.95401
-17.514 56.141899 264.599
-17.426399 62.341599 267.99799
-17.3342 70.581902 264.21301
-17.716999 68.776802 264.513
-18.113001 66.5224 264.79401
-17.999201 57.912701 264.771
-18.3302 63.774502 264.94101
-18.352501 60.005501 264.862
-18.372101 61.830799 264.90601
14.0568 70.659897 278.436
15.7366 69.7136 271.90799
16.958099 68.309097 267.77701
17.9526 67.460098 264.66101
16.076401 75.731102 263.08701
15.2344 76.178497 265.75101
14.0768 76.897598 269.55701
12.2239 78.302597 275.17801
9.5043802 84.819504 272.01999
10.394 85.536903 266.23499
11.0954 86.0821 262.435
11.2118 86.240898 261.66199
6.2559099 93.012199 262.50699
5.8532701 92.2276 265.48199
5.3626299 91.130699 270.07001
-17.915001 67.6101 264.65799
-16.914101 68.398102 267.78699
-15.6828 69.796097 271.91699
-14.0151 70.581497 278.483
-12.123 78.366501 275.185
-13.9866 76.971298 269.56601
-15.1504 76.258202 265.76001
-15.9963 75.8153 263.09698
-11.0774 86.2994 261.668
-10.9613 86.139999 262.44101
-10.2606 85.591103 266.241
-9.3712101 84.869102 272.026
-5.1975598 91.158501 270.07401
-5.6852002 92.257896 265.48599
-6.0855198 93.044601 262.51099
-2.01776 67.4692 308.18399
-1.33961 40.661999 279.43799
-2.7783101 41.2281 280.02899
-2.7395899 67.101303 307.03699
-3.52068 66.776901 306.32001
-4.06532 41.959301 280.34201
-4.5408401 66.545998 305.57101
-4.7543702 42.497398 280.578
-5.8285198 65.731102 304.27802
-5.6926899 43.435902 281.366
-6.3619099 44.3479 282.47601
-7.6298299 63.635101 302.15201
-7.16465 45.4991 284.05499
-8.4333801 46.8069 285.48099
-8.8648996 61.406502 300.23901
-9.7509003 48.282799 287.435
-9.52176 59.373501 298.92001
-9.8436604 57.6866 297.798
-10.3262 50.2104 289.68399
-10.0826 57.146999 297.41299
-10.5329 56.344799 296.965
-10.7463 54.921101 295.565
-10.8479 52.320099 292.896
0.025475999 40.269402 279.66699
-0.027347 67.672401 308.673
10.8587 52.3339 292.92801
10.746 54.934799 295.59601
10.5267 56.3582 296.995
10.074 57.159801 297.44199
10.349 50.223499 289.71399
9.8332796 57.6991 297.827
9.5059795 59.385601 298.948
9.7826595 48.2952 287.46301
8.8426905 61.417801 300.26501
8.4727097 46.817699 285.50601
7.2097998 45.508301 284.07599
7.5992298 63.644798 302.17401
6.4131398 44.355999 282.495
5.7483101 43.4431 281.383
5.7890701 65.738503 304.29501
4.8094501 42.506699 280.60901
4.4965901 66.551697 305.58401
4.1194901 41.966801 280.36801
3.4739599 66.781303 306.32999
2.6903801 67.104698 307.04501
2.83111 41.2327 280.047
1.38987 40.663799 279.44601
1.96474 67.471703 308.19
13.5679 60.983601 279.99301
12.1697 60.051399 285.77301
12.1963 62.0121 287.25101
13.6607 63.2416 281.62201
13.5142 65.568398 283.07101
12.0476 64.447304 288.66
13.4126 59.334202 278.535
12.261 58.826199 284.55099
12.3041 57.719501 283.784
13.436 58.160099 277.69299
12.9969 56.310699 276.625
12.3533 56.0588 282.211
12.4661 54.242298 275.82001
12.0724 53.961201 279.983
11.4789 57.3092 290.82199
11.5409 55.634102 289.17401
11.1773 58.2654 291.414
11.045 58.937302 291.87701
10.7319 60.9342 293.142
10.254 63.139 295.19
11.2028 53.379601 286.41699
11.3505 67.360199 289.862
9.0818195 65.654297 297.31601
12.8639 68.206596 284.25699
11.039 50.944 283.42801
11.5191 51.753399 277.944
11.8936 51.935001 274.871
10.7987 49.821499 276.89801
10.4056 48.972698 281.02399
11.1995 49.526299 273.70901
11.9829 71.459 284.603
10.1056 70.406502 290.45999
8.1679201 69.926201 295.94299
9.6609297 48.301601 276.09399
9.4182596 47.520802 279.508
9.87677 47.688702 273.36401
7.5247102 72.7901 295.09201
9.1531 73.686096 290.302
11.1734 74.474297 284.194
7.8276601 47.3545 275.47299
7.9932098 46.816601 278.89499
8.1686096 46.919998 272.867
6.35496 68.637497 301.203
6.3584199 70.052696 299.88101
6.18262 71.979103 298.53299
7.2789602 46.206001 275.11099
6.8979998 45.616901 278.271
7.3172598 46.109501 272.58701
6.1469302 73.237297 297.85101
7.3698301 74.167397 294.64401
8.9177799 75.070602 290.078
7.2944899 75.506897 294.01599
6.0820398 74.417801 297.17401
8.7694197 76.566299 289.56201
6.17874 44.678699 277.77499
6.4453502 45.103199 274.75699
6.3594699 45.187199 272.336
5.1743302 43.507702 277.237
5.48596 43.906898 274.431
5.4724202 44.0895 272.07999
4.9380898 69.293999 302.53101
4.7993898 71.353699 300.92999
4.9173799 72.5383 299.88901
4.9239202 76.909698 296.87799
6.0971398 77.928802 294.36499
7.1490202 78.542603 291.771
5.0261302 79.1744 294.59601
6.1917701 79.183197 292.99899
4.9362602 43.598701 272.01199
4.8477402 43.3018 274.32999
4.4887099 42.912102 277.05801
3.6988299 78.380096 296.64999
3.6452799 75.500198 299.11099
3.7093 71.257004 302.061
3.6206601 69.0784 304.10199
3.1992199 42.198502 276.76501
3.5489199 42.563499 274.16101
3.6823499 42.841801 271.81
2.86216 70.802696 303.625
2.9555299 73.760399 301.14401
3.10571 77.381897 298.509
2.8197801 68.846703 305.45401
1.72524 42.037498 273.99899
1.45345 41.708698 276.51801
1.87613 42.2365 271.64899
2.39008 77.233704 300.164
2.3096499 73.354599 302.83801
3.25844 80.753799 295.13101
3.75437 81.174202 293.74799
2.4737799 80.971497 296.81
2.24456 70.776001 305.11401
2.1738 69.151604 306.68701
-0.011867 76.983299 301.18399
-0.023967 73.0756 303.99701
0.0035900001 81.007004 297.888
-0.025201 71.2257 305.651
-0.026339 69.469002 307.198
0.0098879999 41.816002 273.957
0.018012 41.490898 276.465
0.000505 41.933998 271.53799
-2.22458 69.148804 306.681
-2.29281 70.773102 305.10699
-2.35267 73.336502 302.83401
-2.4088199 77.216301 300.164
-2.4621799 80.955902 296.815
-1.70502 42.039299 273.98801
-1.41698 41.708401 276.508
-1.87403 42.241001 271.63599
-3.5271599 42.567101 274.138
-3.16099 42.197498 276.74399
-3.67851 42.850498 271.78601
-2.86657 68.843102 305.44601
-2.90611 70.799103 303.616
-2.99088 73.737297 301.14001
-3.11725 77.359596 298.51001
-3.2406001 80.733902 295.13901
-3.6638 69.073799 304.091
-3.74927 71.252296 302.04999
-3.6666801 75.472801 299.10999
-3.6985199 78.354797 296.655
-3.7283499 81.152603 293.76001
-4.44835 42.909901 277.02899
-4.8242102 43.306301 274.298
-4.9302402 43.610001 271.979
-4.8361802 71.347603 300.91599
-4.9769201 69.287697 302.517
-4.9520001 72.499702 299.88101
-4.9309001 76.874496 296.88101
-5.0135598 79.142097 294.60599
-5.4612498 43.911701 274.39401
-5.1325998 43.504501 277.202
-6.3904901 70.044601 299.86301
-6.2132101 71.971199 298.51501
-6.1716499 73.189796 297.84299
-6.38908 68.629402 301.185
-5.4654899 44.1021 272.04401
-6.1000099 74.371696 297.17001
-6.0893698 77.888 294.375
-6.1722898 79.144897 293.01401
-6.1335201 44.673 277.73499
-6.4174299 45.107601 274.71399
-6.3496499 45.201199 272.29401
-7.2958202 75.454399 294.01999
-7.1272998 78.498703 291.789
-7.3789501 74.112396 294.642
-6.8499699 45.608398 278.22601
-7.2477999 46.209301 275.06299
-7.5405402 72.732201 295.08401
-8.1883497 69.915802 295.92001
-9.1008196 65.6427 297.29001
-7.30474 46.124802 272.539
-7.7932601 47.356201 275.42099
-7.9421401 46.803501 278.84399
-8.1532602 46.935902 272.81299
-9.1470804 73.619499 290.30499
-8.9049997 75.009201 290.08899
-8.7476196 76.510696 289.58099
-10.1107 70.3936 290.431
-9.6220598 48.2995 276.03
-9.3649702 47.502201 279.44901
-9.8569803 47.704899 273.298
-11.35 67.345802 289.82901
-12.0398 64.431999 288.625
-10.2636 63.125999 295.16
-10.7544 49.8125 276.827
-10.3559 48.959499 280.99399
-11.1757 49.542702 273.634
-12.848 68.1903 284.21899
-11.9633 71.371597 284.60599
-11.1383 74.4095 284.228
-10.7328 60.920601 293.11099
-12.1813 61.996601 287.216
-11.4693 51.7342 277.871
-10.9988 50.93 283.396
-11.8595 51.941399 274.79199
-11.0396 58.923302 291.845
-12.1479 60.035999 285.73801
-11.1744 53.365398 286.38501
-12.0261 53.9459 279.948
-12.2341 58.8106 284.51599
-11.1697 58.251202 291.38101
-11.4684 57.294601 290.789
-12.2735 57.703899 283.74799
-12.3161 56.043098 282.17599
-11.5234 55.619499 289.14001
-13.4915 65.551201 283.03101
-12.4244 54.2374 275.73801
-12.9499 56.292999 276.54099
-13.6309 63.2243 281.58301
-13.5305 60.9664 279.95401
-13.3688 59.3172 278.496
-13.3883 58.143101 277.65399
10.9559 75.810898 283.86401
10.7011 77.446198 283.151
9.8568697 80.214302 281.746
9.0845604 82.414803 280.16501
8.2892399 79.720802 287.63501
8.3611097 85.266502 277.17599
7.5945501 82.059799 286.73999
8.0805702 84.417297 280.80301
7.0666599 87.608704 275.89899
6.8175702 86.351402 280.82599
7.4750099 81.363403 288.07001
6.6020298 84.280502 285.66
6.4548898 82.523903 288.716
5.7635398 89.233597 275.36401
6.3866501 81.688004 289.896
5.5402098 87.790199 280.664
5.3703098 85.659401 285.59201
5.2349401 83.5625 289.17999
5.14294 81.695602 291.715
4.20647 90.524902 274.95401
4.0399699 88.836601 280.82199
3.9256599 86.6492 285.87299
3.8118999 83.901398 290.44
3.6129701 91.246803 275.18701
3.53373 89.379898 281.33301
3.4738801 87.017601 286.539
3.4143 84.075104 291.19501
2.61991 92.557503 275.42999
2.61395 90.518799 282.11099
2.58674 87.881798 287.79001
2.5604 84.5718 292.75699
0.045072999 88.412804 288.58801
0.068879001 91.257103 282.56299
0.090191998 93.436996 275.487
0.022368001 84.7938 293.763
-2.51215 84.560097 292.76801
-2.4955699 87.876503 287.80701
-2.4781101 90.521896 282.13199
-2.44414 92.570801 275.431
-3.4442201 91.265404 275.189
-3.36128 84.060303 291.211
-3.4003601 89.385002 281.36099
-3.3812201 87.011497 286.56201
-3.7562001 83.885498 290.45801
-3.8316801 86.643097 285.89999
-3.9070599 88.843201 280.85501
-4.0416398 90.5466 274.95599
-5.1050401 81.6689 291.73401
-5.1749902 83.542198 289.207
-5.28055 85.6502 285.629
-5.4125099 87.798698 280.70999
-5.6052198 89.263496 275.367
-6.3403101 81.657799 289.92401
-6.3983998 82.497704 288.74899
-6.5204802 84.2659 285.703
-6.6989899 86.3592 280.88199
-6.9165301 87.645401 275.90302
-7.42173 81.331703 288.10699
-7.5309401 82.033501 286.78299
-7.973 84.422897 280.86801
-8.2298298 85.296204 277.25
-8.2427397 79.6819 287.672
-8.9851599 82.420303 280.23801
-9.7783804 80.2005 281.815
-10.6454 77.4067 283.20901
-10.9124 75.7565 283.909
12.4212 69.5457 284.535
10.279 78.857101 282.47601
8.5614796 83.458298 280.49701
8.72299 83.8927 278.68399
4.9850001 89.879204 275.159
-12.4077 69.506798 284.50299
-10.2119 78.831001 282.54099
-8.6073399 83.911499 278.758
-8.4578199 83.463898 280.56601
-4.8234301 89.904999 275.16199
-1.92327 64.161201 310.96899
-1.05356 38.489399 283.93301
-2.97086 39.999401 284.94901
-2.0369501 39.326401 284.54901
-2.8703499 63.6763 309.94199
-3.6196599 63.262699 309.229
-4.12714 40.6814 285.263
-4.37467 63.079899 308.78101
-4.7591 41.2071 285.60199
-5.3314099 62.191002 308.03
-5.61199 42.242401 286.67801
-6.3455 43.300201 287.85101
-6.5595999 60.8652 306.64899
-7.15764 44.681301 289.466
-8.4141102 45.872002 290.957
-7.6064501 59.246899 305.05801
-9.45788 47.348 292.66901
-8.2688103 57.698898 303.716
-8.6941795 56.326199 302.65201
-10.1383 49.090698 294.905
-8.9413204 55.840302 302.34698
-9.4612999 55.115799 302.03799
-9.4755201 45.941601 297.224
-8.4793701 44.590199 295.69
-10.1539 47.717602 299.008
-7.30409 43.140301 294.117
-6.6828599 42.2117 292.92001
-5.79844 41.036999 291.53201
-5.0176601 40.1759 290.51599
-4.4042501 39.720699 290.19299
-3.27877 39.523499 289.798
-2.47541 39.375999 289.32599
-1.6253099 39.045399 288.298
-0.742064 38.889 287.85699
-1.97764 61.4165 313.33401
-2.9547601 60.810902 312.508
-3.85115 60.203201 311.67801
-4.81949 59.2477 311.02499
-5.9039898 58.018398 310.013
-6.6954598 56.897099 308.70599
-7.15341 56.0196 307.793
-7.5398798 54.724201 306.759
-7.8223901 54.296501 306.427
-8.37848 53.804901 306.19501
-9.9607296 53.920399 300.935
-8.9632597 53.0327 305.32599
-10.2351 52.803902 299.888
-9.4409704 52.206299 304.56699
-9.9870796 51.070202 303.10699
-10.3579 50.811798 297.28
-10.2874 49.295898 300.93201
-2.1700101 52.162899 320.55499
-2.1496201 54.649101 318.82101
-2.0603499 56.4268 317.40601
-1.8960299 58.715302 315.69299
-0.85083199 39.170601 289.69
-1.05823 39.077702 289.82001
-1.4232399 38.810001 289.22101
-9.9685297 43.021198 309.30399
-10.0345 43.222801 310.36801
-10.2218 42.417099 307.92001
-9.9257803 41.834301 306.38501
-9.9854698 44.823101 308.57501
-9.89254 46.054699 309.612
-10.1349 43.7668 307.08099
-10.1637 47.895802 304.052
-10.0319 46.349201 302.41901
-9.85536 49.815102 306.05399
-9.7626104 43.299301 305.43201
-10.1607 46.549599 306.798
-9.70117 48.516701 308.68701
-9.9140501 44.787498 305.08099
-9.6835403 44.736301 311.909
-9.6394596 43.440601 303.60901
-9.5292797 44.673302 300.664
-9.4560404 41.241299 305.285
-9.2658501 42.9296 304.117
-9.2688904 47.469799 310.92099
-9.06359 42.5951 302.306
-9.0423098 51.004299 307.43399
-8.7233295 43.343498 299.26401
-8.6896801 49.970001 310.155
-8.5728502 42.607899 302.927
-8.8527803 46.413898 313.37299
-8.3064604 52.015202 308.45801
-8.1344204 49.1637 312.271
-7.9384799 42.1586 300.74799
-7.7522302 50.8755 311.056
-7.6870298 52.639301 309.08499
-7.65943 47.952999 314.811
-7.5205998 41.990799 297.93701
-7.31001 41.697601 299.18201
-7.2567601 49.9165 313.14401
-7.10992 53.0639 309.396
-7.0836 51.374802 311.57599
-7.0936999 41.595901 298.591
-6.8641801 41.194199 296.578
-6.8422899 48.499401 315.61099
-6.8429699 53.502499 309.72601
-6.68366 41.246899 297.55399
-6.6206999 50.3214 313.63501
-6.5495601 51.752701 311.883
-6.3266702 41.124298 296.82999
-6.32408 54.716999 311.086
-6.25844 52.101898 312.30099
-6.2439198 48.805801 316.04001
-6.0993099 50.6633 313.92899
-6.0615602 40.869499 296.16901
-6.0455999 40.7701 295.03
-5.8393998 51.060501 314.30899
-5.8348598 53.147301 313.42499
-5.7658601 49.0933 316.28601
-5.6247501 40.7798 295.54099
-5.51125 49.4356 316.629
-5.4997001 51.9249 315.24701
-5.4479399 40.611801 295.242
-5.4450302 56.118401 312.38501
-5.2719498 40.478001 293.957
-5.2053299 50.277 317.388
-5.0890799 54.182499 314.55499
-4.9233799 40.584 294.83401
-4.8615398 52.816101 316.26199
-4.6714401 40.313499 294.19501
-4.6371102 40.338501 293.46201
-4.6461601 50.990299 318.21799
-4.4281402 57.045399 313.353
-4.00564 40.370499 294.05801
-3.8757 39.9394 292.927
-3.8775699 57.488899 313.82401
-3.8445101 55.243599 315.45599
-3.7995999 53.554199 317.11899
-3.69946 51.501099 318.88901
-3.4539199 40.1576 292.82001
-3.1791201 40.068001 293.01599
-3.1167901 56.015499 316.59
-3.19261 54.2337 318.064
-3.17189 51.9748 319.78699
-2.9547801 58.1689 314.79599
-2.78074 39.960899 292.181
-2.6970201 39.2635 290.73401
-2.2588501 39.461102 291.047
-2.0060899 39.4501 290.547
0.019773999 38.719601 288.94901
0.018616 39.010399 289.61801
0.018657999 39.121498 289.54099
-0.032554001 58.976601 316.04001
-0.033805002 56.665501 317.90701
-0.034731001 54.911301 319.30701
-0.035695001 52.236 321.13599
-0.030799 61.760399 313.621
0.021497 38.844398 287.71301
0.027451999 38.188801 283.91
-0.029414 64.382103 311.52701
2.04005 39.452702 290.55301
2.2913401 39.464001 291.05399
2.73066 39.266899 290.742
2.8092799 39.9645 292.19
2.8943 58.1726 314.80399
3.1047399 51.978699 319.79599
3.12762 54.237801 318.073
3.0538199 56.019402 316.599
3.20509 40.071999 293.02499
3.48035 40.161999 292.82999
3.63553 51.505699 318.89899
3.73822 53.558998 317.13
3.78582 55.248402 315.46701
3.8207901 57.493801 313.83499
3.9021001 39.944302 292.93799
4.0281901 40.375599 294.069
4.3733001 57.050999 313.366
4.5848298 50.996101 318.23199
4.6614299 40.344501 293.47501
4.6936598 40.3195 294.20901
4.8035898 52.8223 316.276
4.9433999 40.590199 294.84799
5.0343599 54.1889 314.569
5.1473198 50.2836 317.40302
5.2946501 40.484699 293.97198
5.3941798 56.125198 312.39999
5.4667201 40.618801 295.258
5.4458299 51.931801 315.263
5.4565201 49.4426 316.64499
5.6424499 40.7869 295.55701
5.7125602 49.100601 316.30301
5.78474 53.154701 313.44199
5.78936 51.067902 314.32599
6.0647998 40.777802 295.048
6.0773201 40.877201 296.18701
6.05088 50.671001 313.94699
6.19171 48.813702 316.05801
6.2129302 52.109798 312.319
6.27878 54.724998 311.104
6.3401699 41.132401 296.84799
6.5057101 51.761002 311.90201
6.5735602 50.3297 313.65399
6.6949 41.255402 297.57401
6.8031802 53.5112 309.746
6.7917099 48.507999 315.63101
6.8783302 41.2029 296.59799
7.10147 41.6049 298.61099
7.04111 51.383801 311.59698
7.07165 53.072899 309.41699
7.2115598 49.925701 313.16501
7.3159299 41.706902 299.20401
7.5297699 42.000301 297.95901
7.6118598 47.9627 314.83401
7.6501999 52.649101 309.108
7.7118902 50.8853 311.078
7.93924 42.168701 300.771
8.09272 49.174 312.29501
8.2722502 52.025799 308.48199
8.8113604 46.425098 313.39899
8.5666904 42.618801 302.952
8.65312 49.981098 310.17999
8.7269096 43.3545 299.29001
9.0123596 51.0158 307.45999
9.0592604 42.606602 302.33301
9.2332697 47.481499 310.948
9.2558203 42.941399 304.14401
9.4447498 41.2533 305.31299
9.5270901 44.685398 300.69199
9.6302605 43.452801 303.63699
9.64851 44.7486 311.93701
9.8988504 44.800098 305.10999
9.6707201 48.528999 308.715
10.1382 46.5625 306.828
9.74827 43.311699 305.45999
9.8309402 49.827599 306.08301
10.0225 46.362 302.448
10.1475 47.908699 304.082
10.1152 43.779598 307.11099
9.8625202 46.0672 309.64099
9.9600401 44.835701 308.604
9.9105301 41.846901 306.414
10.2013 42.43 307.95001
10.0059 43.2356 310.397
9.9432697 43.033901 309.33301
1.46187 38.811901 289.22501
1.09479 39.079102 289.823
0.88764697 39.1717 289.69199
1.83226 58.717701 315.698
1.99449 56.429401 317.41199
2.0818999 54.651798 318.827
2.10039 52.1656 320.561
10.2785 49.308998 300.96201
10.3577 50.825001 297.31
9.9696398 51.082901 303.13699
9.41784 52.218201 304.595
10.2248 52.816898 299.918
8.9368696 53.044102 305.35199
9.9460001 53.932999 300.96399
8.3485804 53.815498 306.22
7.7912002 54.3064 306.44901
7.5071702 54.733799 306.78101
7.1160402 56.028702 307.814
6.6543298 56.905602 308.72501
5.8576198 58.025799 310.03101
4.76863 59.253799 311.039
3.7971699 60.208099 311.689
2.8975899 60.814602 312.517
1.91731 61.418999 313.34
0.78457701 38.8899 287.85901
1.66634 39.047501 288.30301
2.51301 39.3792 289.33401
3.31481 39.527699 289.80801
4.43889 39.726299 290.20499
5.0507698 40.182301 290.53101
5.8274899 41.0443 291.54901
6.7063699 42.2202 292.94
7.3229299 43.149601 294.138
10.1527 47.730499 299.03799
8.4917803 44.601002 295.71399
9.48174 45.953602 297.25201
9.4418402 55.1278 302.06601
8.9200401 55.8517 302.37299
10.1473 49.1035 294.935
8.6714001 56.337299 302.677
8.24119 57.7094 303.73999
9.4755898 47.360001 292.69601
7.5729599 59.2565 305.07999
8.4386797 45.882702 290.98199
7.1880798 44.690399 289.487
6.5194201 60.873501 306.668
6.3824 43.308201 287.87
5.6536498 42.249599 286.694
5.2855201 62.1978 308.04599
4.8052201 41.2132 285.616
4.32548 63.085499 308.79401
4.1749201 40.686699 285.27499
3.5689299 63.2672 309.23901
2.8170199 63.679901 309.95099
2.0885301 39.328999 284.55499
3.0204201 40.003201 284.95801
1.1080101 38.490799 283.936
1.86634 64.163597 310.97501
-1.03084 1.2887 272.23801
-1.20338 1.01969 273.164
-1.0740499 1.6550699 271.47198
-1.49693 1.30724 274.42001
-2.0639999 47.518799 322.974
-2.0307 45.005798 323.849
-2.1192801 49.980301 321.80399
-1.92749 42.872101 324.505
-1.88973 40.262699 325.01199
-1.8959 37.6301 325.21701
-1.81629 35.082199 325.25
-1.73945 33.149899 325.18701
-1.6708699 31.275801 325.043
-1.59419 28.9807 324.625
-1.52518 26.8325 324.19199
-1.47858 24.6828 323.73901
-1.50561 22.7684 322.89301
-1.82393 20.8561 321.59299
-0.166695 19.4788 320.78201
-2.0466001 19.7295 320.561
-0.48317501 18.6537 319.819
-0.95367903 17.770399 318.517
-1.34553 17.0254 317.46301
-1.85097 16.1968 316.16101
-2.7232201 14.9714 314.311
-1.52628 13.6326 312.36801
-0.564327 12.1755 309.866
-1.19912 11.0869 307.54001
-2.2151501 12.1174 309.66901
-0.62110502 9.8562698 304.84799
-0.488341 8.0235796 301.522
-0.372486 5.3713002 297.04501
-2.8094201 34.998299 298.91699
-3.21208 36.628799 297.90701
-2.8871601 31.340099 298.742
-4.8551402 24.652901 298.94
-3.0522799 37.146099 296.14999
-0.329988 3.5492001 294.07901
-2.3573301 36.345001 294.245
-2.09443 30.511 290.78799
-4.1518402 20.377701 296.07101
-2.2120199 26.443899 286.88501
-3.4998801 15.9319 290.98199
-0.29075801 1.76539 291.18399
-1.98932 22.930401 284.09299
-1.80869 37.219002 288.52802
-1.57689 35.374802 287.69699
-2.3708701 12.7141 288.15701
-1.2516299 33.316399 286.772
-1.47724 20.1859 282.00699
-1.01641 31.2327 285.71301
-0.79104698 27.822701 283.578
-0.50920999 26.118999 282.28601
-1.8394901 10.5013 286.35699
-0.35305801 24.4585 281.05701
-1.6611 8.8530598 284.673
-1.19321 18.3062 280.082
-0.80144101 -0.92087698 286.58899
-0.90183097 -2.43893 283.77899
-0.79015899 0.40051401 288.888
-0.77863002 1.7222199 291.186
-1.1127599 -3.1423199 282.34601
-1.67969 7.5687699 283.104
-0.35071599 22.773001 279.841
-1.7414 6.5524902 281.733
-0.377262 20.9231 278.47198
-1.0838799 16.764299 278.35699
-1.1441 -3.62644 281.35101
-1.8411 5.7456598 280.60699
-0.422061 17.809099 276.60699
-1.13297 -4.0573602 280.228
-1.7519701 4.94033 279.677
-1.07383 -4.38694 278.65701
-0.43757799 14.8433 274.80399
-1.6969 4.0850601 278.63101
-0.964782 -4.4786201 277.129
-1.65644 3.1456101 277.37799
-0.40205899 12.5844 273.383
-0.84231597 -4.2982998 275.79901
-1.5958101 2.1938601 275.96899
-0.76754701 -3.8982 274.63599
-0.40163901 11.9861 272.177
-0.73615497 -3.3381 273.50101
-1.9567699 11.6239 273.04199
-1.7313499 10.3986 271.104
-0.414325 11.7641 271.255
-0.73041898 -2.88029 272.60199
-0.43888199 11.6468 270.384
-0.93874902 9.6609697 269.83301
-1.72726 9.1592798 269.867
-0.72636902 -2.5697 271.909
-0.46759 11.3582 269.47501
-0.71393102 -2.3162601 271.177
-0.87254697 7.64644 268.65601
-0.48161501 10.8839 268.793
-0.71579802 -2.0841701 270.37399
-0.32841 1.72174 271.13901
-1.03637 1.81463 271.159
-0.99548101 6.8143101 268.43301
-0.721766 -1.73722 269.65201
-0.47225001 10.1274 268.26501
-0.13974699 1.7773499 270.888
-0.63941997 1.91987 270.86301
-0.30590999 1.77174 270.54001
-0.39851499 1.66717 270.026
-0.520365 5.9886298 268.29199
-0.448145 1.77821 269.45401
-0.78600502 -1.11358 269.11899
-0.471313 2.16838 268.944
-0.44578901 9.0472298 267.89899
-0.32282299 2.6554101 268.43201
-0.38674501 5.6828899 268.23801
-0.38749301 5.4209599 268.16299
-0.85975701 -0.39565301 268.763
-0.44624299 7.98561 267.62399
-0.14771999 5.1173701 267.97699
-0.50031298 3.5649199 268.34698
-0.57571 3.0946701 268.311
-0.37603599 4.30446 268.08899
-0.212129 4.7209702 267.94199
-0.576199 3.0581501 267.996
-0.94470602 0.246629 268.50101
-0.43656299 6.98452 267.39301
-1.0869 3.1438999 267.92099
-1.14926 2.80689 268.43301
-0.576855 3.1496999 267.64401
-1.01687 0.81699902 268.27802
-1.02363 3.11186 267.685
-1.04383 2.9563701 267.53799
-0.44576901 5.79072 267.293
-1.0692101 1.4355299 268.01199
-0.57077402 4.05126 267.30399
-1.09183 2.1368899 267.70099
-1.06753 2.7077401 267.55899
