# .PCD v.7 - Point Cloud Data file format
VERSION .7
FIELDS x y z
SIZE 4 4 4
TYPE F F F
COUNT 1 1 1
WIDTH 1763
HEIGHT 1
VIEWPOINT 0 0 0 1 0 0 0
POINTS 1763
DATA ascii
2.9193499 -115.171 144.07201
3.2973001 -114.286 145.401
2.90609 -125.704 138.015
3.35624 -125.142 141.401
2.81301 -132.045 142.28
2.7973101 -124.918 135.267
2.2659099 -112.067 147.08701
2.8396101 -128.158 136.271
3.2004001 -125.551 138.591
2.6494701 -116.521 141.815
2.8491199 -101.483 193.683
2.86285 -103.154 193.47
2.8771901 -131.105 140.116
2.98316 -124.58 136.01801
2.9006701 -127.491 136.052
3.1119599 -122.559 136.48399
2.89536 -125.469 135.381
2.9419999 -126.209 135.64301
2.9359801 -126.875 135.866
2.8861101 -99.992203 193.729
3.5141001 -124.319 142.79401
2.92681 -117.472 140.748
2.9209099 -96.209 156.06799
2.9194 -111.486 145.411
2.8987 -94.624397 193.757
2.9218099 -96.519997 193.729
2.9270599 -98.479797 193.755
3.0396099 -119.785 138.405
2.9214001 -126.197 158.827
3.04334 -119.285 151.87
2.91379 -105.142 193.09
2.9194 -115.7 143.32899
3.3066399 -115.457 144.119
3.6183901 -115.012 144.976
3.8436301 -114.595 145.56
3.35321 -125.481 138.838
3.3968401 -125.043 140.464
2.9579301 -89.009201 193.235
3.09006 -93.911598 164.2
3.36514 -98.938797 160.32899
3.6303599 -102.926 156.44
3.28877 -118.761 139.623
3.83341 -120.797 147.29601
3.81107 -121.18 146.791
2.9646599 -92.713997 193.605
3.59864 -123.393 144.121
3.7637401 -121.817 146.158
3.6494999 -122.513 145.265
2.96102 -119.475 175.461
3.4806199 -125.341 139.211
2.9673901 -107.152 192.35899
3.00157 -114.067 143.702
2.9969599 -131.18401 140.347
3.10221 -125.661 137.789
3.67223 -113.702 146.35699
3.01401 -131.44701 140.897
2.6902101 -121.317 137.06599
2.92647 -121.469 137.071
3.30654 -121.644 137.155
3.1359 -124.441 135.77499
3.03456 -87.145203 192.939
3.07251 -122.708 135.65401
3.2112501 -123.532 135.46899
3.26402 -117.709 140.86099
3.6322601 -124.519 141.397
3.5827899 -125.082 139.74899
3.1471901 -116.776 141.97099
3.0757501 -116.086 142.444
3.26372 -123.736 136.927
3.0664799 -90.860603 193.334
3.8596201 -120.279 148.31799
4.17483 -113.992 146.46899
3.6572299 -106.332 153.161
2.4583001 -110.688 148.87
2.9426799 -108.954 150.851
3.1122501 -131.62 141.491
3.1117599 -124.718 161.83
3.46172 -116.16 143.14301
3.77789 -115.752 144.06
3.1607001 -121.76 135.757
3.1336901 -108.571 191.407
3.15502 -131.23199 140.614
4.0247302 -115.337 144.88699
3.1675301 -120.845 135.897
3.2183199 -125.618 137.62399
3.6865399 -124.68 140.481
3.76601 -123.749 142.62399
3.2095699 -125.543 138.215
4.2736101 -114.855 145.636
4.0750499 -114.865 184.049
3.1759901 -114.089 185.58099
3.1819201 -119.908 138.42799
3.8603001 -122.865 143.86099
3.50876 -117.01 142.10001
4.1338401 -115.861 155.32001
3.34202 -117.849 153.58
3.28828 -125.481 137.349
3.3816199 -125.216 136.94701
3.9575 -121.955 144.98599
4.0088301 -121.272 145.815
4.04216 -120.698 146.41499
3.4876201 -118.905 139.658
3.233 -113.525 146.15199
3.25405 -116.58 141.522
3.2422199 -89.037498 192.545
4.09061 -120.24 147.071
2.91962 -120.759 137.589
3.27455 -120.154 136.216
2.9279599 -112.321 147.248
3.3631401 -111.082 148.987
3.55158 -112.548 147.485
4.0748801 -112.804 147.75101
3.7822499 -119.487 149.666
3.2742801 -131.34801 141.19
3.3333199 -116.831 140.494
3.2872801 -116.842 139.311
3.8512299 -124.124 141.414
3.83953 -116.433 143.17101
4.1333799 -115.975 144.07401
3.5264399 -122.225 136.996
3.29199 -132.248 143.48399
4.20119 -98.453697 167.022
7.0858698 -103.651 166.33
6.6112099 -107.835 162.298
3.2980299 -122.001 169.27699
4.5708299 -113.209 147.82401
3.3385601 -120.061 138.375
3.3289001 -130.724 150.71899
3.35392 -98.146599 154.576
3.5139799 -117.859 140.989
4.34654 -115.545 144.89999
3.3543799 -130.595 139.50301
3.31937 -124.725 136.502
4.5871201 -114.287 146.55701
3.1363699 -120.888 137.61099
3.4802999 -120.949 137.771
3.4967899 -124.17 136.825
3.42156 -125.48 138.022
3.3703799 -131.172 140.948
3.9705901 -123.343 142.51199
4.8803601 -114.562 146.58
4.5805802 -115.065 145.7
3.3755 -130.42999 139.073
3.3120999 -124.329 136.035
3.3873 -117.117 138.246
3.3706 -128.845 153.62399
3.5015399 -117.649 137.534
3.49632 -118.388 136.981
3.39189 -119.33 136.55
4.0534301 -122.473 143.69
3.7302899 -119.29 139.436
3.5957899 -125.315 138.786
3.72895 -125.153 139.16
3.4017401 -130.978 141.655
3.40818 -130.73199 139.901
4.1176 -121.652 144.759
3.3970101 -117.468 179.95399
4.1761999 -119.676 147.965
3.8348701 -124.872 139.68401
3.9079499 -111.276 149.2
3.99863 -109.724 150.87399
4.5370302 -111.503 149.617
3.42308 -127.274 156.16
3.36692 -124.269 135.698
4.1456499 -120.932 145.617
4.21665 -120.394 146.215
3.4391 -131.448 149.30901
3.6029601 -131.077 141.88901
3.4465599 -131.461 141.66901
3.49789 -125.384 138.50999
3.52968 -120.081 138.47099
3.7691801 -119.989 138.748
4.95573 -107.307 153.233
3.93875 -94.376099 164.02
4.3573499 -99.235397 160.888
4.86834 -103.374 156.94099
4.3077302 -119.89 146.84599
4.43262 -119.325 147.603
3.4567699 -87.183502 192.05099
3.4593799 -120.498 172.681
3.4778399 -130.87601 140.224
3.68489 -121.387 137.63
3.4867899 -110.154 190.20599
4.0622501 -97.725502 154.577
3.6788399 -96.336998 155.735
3.5199499 -93.999802 157.44099
3.9235101 -124.443 140.388
3.5009601 -124.377 161.763
3.8168499 -118.411 151.16701
3.8376 -120.498 138.36501
3.5920801 -125.396 137.836
3.5346999 -130.10899 138.30901
5.01723 -112.162 149.60201
3.4841101 -124.394 135.57401
3.54721 -130.69501 141.72701
3.7559199 -117.172 142.23
3.5555799 -130.38 142.661
3.5574999 -131.745 142.48599
3.60554 -122.467 136.10899
3.5627699 -123.158 164.946
3.59108 -124.662 147.50999
3.5973499 -130.953 140.515
3.70139 -125.202 137.575
4.9475098 -109.536 151.952
4.0304799 -120.057 139.013
3.55216 -124.622 135.593
4.0748601 -123.866 141.298
3.8409901 -123.208 136.02
3.88098 -124.001 136.41499
3.7158301 -124.154 136.63901
4.9725099 -113.653 147.812
3.6230199 -129.591 137.614
3.6386001 -130.047 142.77699
4.2427201 -118.891 149.09399
3.6619201 -128.87801 136.964
3.65272 -131.86 148.50101
4.0704198 -116.607 143.26199
3.88973 -131.52699 142.532
3.9667599 -131.116 142.56
3.66326 -130.60899 142.59399
4.0981202 -120.937 138.24699
3.7988801 -123.289 137.543
3.7506499 -125.219 138.73
3.7003701 -125.295 138.312
3.7334299 -117.983 141.07899
3.6840799 -125.005 147.386
4.0338502 -95.556099 167.922
4.19034 -93.762604 165.957
4.3264298 -94.338501 167.368
7.2203898 -101.416 164.866
7.2055702 -105.838 160.813
5.06461 -99.622597 162.314
5.9860301 -100.092 163.47501
5.8305802 -103.909 158.082
6.92486 -104.61 159.325
5.98669 -107.807 154.201
5.8920298 -109.851 153.069
5.41822 -110.898 151.53999
3.7027299 -126.041 146.597
3.6946399 -111.108 189.158
4.1789098 -117.105 152.78999
4.9292498 -115.384 154.571
5.3762598 -112.556 157.289
4.3488102 -116.136 144.13699
4.19244 -123.058 142.355
3.7619901 -124.733 137.08299
3.9267499 -125.021 139.08099
4.04601 -124.733 139.56599
3.70327 -125.179 135.709
3.7318299 -132.314 144.603
3.7500601 -127.938 136.55901
3.7529399 -130.91901 140.867
4.2302299 -119.213 139.95599
3.75736 -126.072 146.58299
3.96333 -121.89 137.54601
4.2757602 -122.17 143.52901
4.1402602 -124.315 140.19
3.8035901 -125.945 135.936
3.8208699 -126.622 136.142
3.80039 -127.256 136.328
4.3028498 -120.434 139.211
3.80022 -124.802 147.843
3.8145399 -92.2631 158.75999
3.8115101 -127.66 145.394
4.0047498 -118.181 141.11301
3.8919301 -125.187 138.151
3.8233099 -132.175 147.642
3.9017601 -94.682297 193.14101
3.8224101 -92.820396 192.93401
3.8290701 -128.49899 153.493
3.8473599 -121.292 136.58099
3.83972 -124.842 147.82899
4.5514002 -115.705 144.94701
3.8451099 -132.328 145.11501
3.94333 -132.33299 146.287
3.80161 -124.059 136.532
3.9047799 -129.127 144.168
3.8551099 -129.86301 143.745
3.9390399 -125.126 138.623
4.7677598 -115.244 145.75101
3.8809099 -130.496 141.73399
3.8830299 -130.297 150.55299
5.3699198 -112.823 149.511
4.0399199 -124.981 137.94701
4.1324801 -124.527 137.62
3.90639 -127.602 145.399
5.0304899 -114.735 146.62
5.2219801 -114.197 147.58
3.91892 -125.709 147.06
4.34623 -117.835 150.487
3.9351399 -109.734 147.599
3.9189999 -118.586 177.17599
3.9284301 -91.044701 192.478
4.3432999 -121.368 144.59599
4.3920202 -120.736 145.356
4.4589601 -120.159 146.026
4.5980201 -119.611 140.22099
4.1145101 -124.913 138.985
4.2276702 -124.625 139.42599
3.96294 -125.409 158.672
4.5588799 -119.661 146.661
4.6585598 -119.141 147.38499
4.2873402 -123.713 141.024
3.91114 -123.945 136.22501
3.9800301 -129.886 142.856
3.9908299 -107.978 148.619
4.61728 -118.594 148.37199
7.0150299 -109.578 157.064
4.0083599 -112.114 145.961
3.9823899 -111.9 187.995
3.95789 -117.291 142.332
4.0927801 -123.678 137.442
4.0278502 -125.875 147.007
4.0404301 -114.257 144.494
4.02599 -126.802 156.00101
4.0477901 -106.419 149.623
4.0304599 -121.732 168.907
4.3295798 -124.261 139.849
4.0550098 -116.015 143.26401
4.04214 -131.16701 149.164
4.1226802 -125.012 138.509
4.0721302 -130.321 143.66901
4.0792499 -124.903 148.395
4.0843701 -131.823 143.63499
4.4484701 -131.017 143.61
4.4064298 -131.521 143.65199
4.0984902 -120.798 137.10699
4.0949001 -127.418 145.91299
4.10607 -124.892 148.392
4.10988 -130.02901 139.57201
4.3842201 -118.386 141.283
4.2713699 -124.812 138.334
4.1192598 -129.85001 139.175
4.4198899 -121.5 138.38901
5.7688899 -111.823 151.362
6.2227998 -110.664 153.258
6.9435101 -108.709 155.51801
4.43645 -122.844 142.06799
4.9458499 -109.414 190.29601
4.1182599 -108.379 191.29201
4.13099 -128.173 153.37601
4.1338701 -89.171501 191.86501
4.14116 -128.96899 144.189
4.20227 -117.446 142.396
4.0899301 -124.071 136.127
4.1587901 -130.20799 139.916
4.1746402 -116.629 142.45799
4.4583902 -123.629 140.49899
4.1543002 -116.657 181.22
4.34833 -105.513 192.70399
4.1590099 -107.265 191.916
4.1754699 -122.716 164.756
4.42348 -124.103 139.82201
4.28122 -124.792 138.894
4.3632202 -124.461 139.40401
4.2795601 -122.838 138.25101
4.6199098 -121.064 144.474
4.5459299 -121.878 143.356
4.6739998 -116.599 151.94501
4.2041402 -129.625 138.614
4.2420802 -116.722 143.35201
4.3687601 -124.407 138.03799
4.2220898 -131.51801 148.472
4.2463799 -123.792 137.347
4.4051399 -124.598 138.679
4.2371602 -130.44 140.271
4.2322102 -129.69701 150.39101
4.1973901 -124.321 136.151
4.2519102 -128.72099 145.09801
4.27527 -122.022 136.927
4.2684698 -129.131 138.03799
4.27808 -117.019 141.62399
5.6024399 -113.502 149.28101
4.2722502 -127.298 145.907
4.2842202 -104.774 150.66701
4.7400098 -118.788 141.504
4.5060201 -122.689 136.879
4.5294299 -123.456 137.216
4.3387899 -123.632 137.347
4.4741702 -124.278 139.10201
4.2968998 -125.908 147.562
4.52143 -123.882 139.619
4.3164601 -120.188 137.7
4.3090401 -130.57201 140.58701
4.2985802 -96.461998 192.981
4.7743402 -117.529 149.78
4.5888 -123.29 140.405
4.4544902 -124.197 138.263
4.5066299 -116.247 144.20399
4.6707101 -122.631 141.47301
4.6641698 -120.565 145.089
4.4422498 -116.853 143.41901
4.3646598 -130.573 140.94299
4.3477402 -129.94 142.798
4.3601499 -130.36301 141.69501
4.3526902 -128.38 137.483
4.3481798 -126.453 155.853
4.3642201 -125.889 147.556
4.3738799 -129.27699 144.85001
4.54491 -121.099 139.397
4.3903599 -90.510902 160.356
4.3736801 -87.276802 191.302
4.3649302 -119.194 175.161
4.3679099 -102.931 193.216
4.4706101 -114.401 145.005
4.39853 -112.683 146.505
4.3924398 -123.795 161.567
4.3979001 -131.71001 147.91
5.1876502 -115.092 153.44901
4.4044299 -131.746 144.623
4.4071398 -125.21 148.939
4.4005799 -123.561 137.069
4.41328 -127.66 153.246
4.5377898 -123.896 138.68401
4.4312801 -117.325 140.843
4.4096999 -101.526 193.274
4.43433 -98.606697 193.12399
4.4228401 -100.086 193.209
4.4247198 -125.243 148.892
4.42343 -130.58 149.11
4.5219402 -117.678 142.494
4.4832902 -123.552 137.84801
4.86868 -119.477 146.452
4.7617602 -119.969 145.828
4.41043 -124.879 136.26801
4.8468099 -121.472 143.19099
4.45364 -119.337 138.297
4.5648799 -118.527 139.00101
4.51019 -117.818 139.80901
4.7082601 -115.834 144.98399
5.8135099 -113.229 154.778
6.6323299 -111.618 155.006
4.4717798 -110.482 148.09399
4.8729 -115.949 145.01401
4.6818299 -116.357 144.263
4.4839702 -127.509 137.071
4.4744401 -124.984 158.47301
4.4679799 -113.034 186.394
4.9122801 -115.434 145.746
4.7563701 -122.834 140.13901
4.5925102 -123.573 139.198
4.9074502 -120.556 144.58501
4.5065498 -131.69901 145.10201
4.5103598 -127.405 146.37
4.5041099 -94.7323 192.61099
4.6265001 -122.434 138.896
4.5362301 -126.841 136.845
4.55547 -126.202 136.662
4.5299902 -125.562 136.465
4.5405002 -102.966 151.673
4.5380602 -92.900597 192.14999
4.56568 -129.37199 143.787
4.5632501 -131.731 145.623
4.89816 -120.315 140.362
5.0936198 -116.393 150.978
4.5717802 -128.399 145.08299
4.5878 -121.695 137.45399
4.5759301 -129.214 150.28101
5.1744299 -114.991 146.634
4.8106999 -125.693 155.55701
4.5806098 -126.137 155.71899
4.60221 -99.6707 153.25301
4.6458302 -123.305 138.362
5.9395299 -112.804 150.948
6.6862102 -111.224 154.30901
6.2856798 -112.027 152.68401
4.8533201 -118.05 142.65601
4.59865 -130.964 148.504
4.6058202 -128.554 145.834
4.6199899 -108.937 149.12601
4.6233001 -112.933 146.729
5.0727501 -119.769 145.649
4.65308 -123.33 137.64301
4.77495 -131.153 144.62399
4.6338401 -129.716 144.767
5.00945 -130.39999 144.71201
5.0282001 -115.663 145.60699
4.6336198 -91.210403 191.617
4.6512699 -131.707 146.38699
4.6373701 -131.80901 147.04201
4.65376 -114.508 145.257
4.6349301 -121.483 168.403
4.64505 -125.436 149.59599
4.8964 -123.315 137.72501
4.62603 -123.651 137.02699
4.6510801 -127.242 146.48801
5.1103301 -119.322 146.338
5.0416098 -118.95 146.97701
4.6738501 -126.241 148.052
4.6831899 -129.092 145.593
4.6927199 -129.38699 140.05
4.8343701 -125.983 149.649
4.6943302 -125.712 149.27901
4.8724399 -125.947 149.647
4.69555 -126.091 148.17599
5.1603899 -117.331 149.19099
5.0675802 -118.194 148.05499
4.70748 -129.105 139.757
4.6940899 -120.182 172.41901
4.7226501 -123.037 138.37801
4.6903601 -117.068 143.502
4.7298102 -130.02699 149.084
4.7506599 -110.753 148.312
6.41855 -112.479 153.698
5.49793 -115.105 152.239
6.0233102 -113.7 153.20799
4.75737 -128.81 139.45
4.7497401 -128.422 138.828
4.8334899 -121.943 139.733
4.7543402 -127.181 153.049
4.78021 -122.996 138.927
5.4365101 -114.561 147.714
5.7277498 -114.134 149.063
4.78619 -121.334 137.948
4.7913299 -107.427 150.078
5.2671399 -115.315 146.478
4.7806301 -89.297699 190.98199
4.7931099 -129.575 140.38499
4.7890902 -131.313 146.718
4.7828999 -123.889 137.089
4.8148599 -123.107 138.11301
4.8067698 -115.89 144.487
4.8088398 -129.938 142.813
4.8245401 -99.055 153.505
5.0039101 -119.418 141.80099
4.8214502 -130.11501 142
4.8320799 -124.556 158.22701
4.8358102 -131.283 146.494
4.8810902 -116.532 144.35001
4.8525901 -127.803 146.907
4.8516798 -131.284 147.968
4.8545899 -126.775 148.558
4.9502001 -128.49899 147.282
4.8655801 -127.358 148.724
4.8629699 -126.79 148.409
4.9120598 -127.242 148.618
4.8541698 -117.714 178.65199
4.8776002 -129.506 145.437
4.90482 -131.12199 145.912
4.9030099 -131.04401 145.414
5.11625 -130.30701 145.185
4.8688998 -131.056 144.959
4.8851199 -127.662 138.35899
4.95468 -117.416 143.61099
5.0684099 -116.859 144.388
4.94315 -129.39 146.754
4.9005699 -128.821 146.397
4.9222798 -130.485 146.65601
4.9823599 -130.55 146.464
5.1361499 -130.26199 145.73199
5.1036201 -130.354 146.16901
4.8887 -129.314 146.18201
4.9995499 -129.62801 146.036
5.0325198 -129.976 146.36501
4.9655099 -129.77299 146.509
4.9226398 -122.438 139.89999
5.2443399 -120.735 143.039
5.00455 -121.975 141.151
4.89116 -104.819 192.91499
4.91045 -128.93401 144.604
5.18748 -116.559 144.935
5.0585799 -116.05 145.2
4.9197402 -129.873 140.73
4.97402 -130.08099 141.032
4.95156 -130.172 141.34599
4.9103799 -113.799 185.19299
5.0173001 -121.193 140.87601
4.9577999 -123.009 138.282
4.9366598 -122.204 137.787
5.1298299 -122.853 138.14799
4.9391499 -128.23599 145.77
4.93998 -127.557 146.998
4.9424901 -131.369 147.364
4.9471202 -128.78999 147.57401
5.0600901 -128.121 147.367
5.0281501 -128.66701 147.57001
4.9952598 -130.104 146.907
4.97855 -130.98801 146.993
4.9506602 -122.23 164.448
4.9625301 -130.495 148.49899
4.9751601 -123.201 137.961
4.9637499 -87.390999 190.35899
4.98141 -120.788 138.627
4.9739199 -129.515 143.571
4.9987202 -122.789 138.71201
5.00143 -122.628 139.028
5.5331898 -121.865 164.02499
4.9922299 -123.364 161.299
5.0697498 -126.706 152.961
4.9994302 -128.52299 150.259
5.13169 -118.622 142.88901
5.51161 -114.977 147.577
5.4670401 -118.579 146.689
5.0272698 -124.383 137.213
5.01896 -125.365 155.44299
5.29213 -115.784 146.12199
5.5120502 -115.548 147.198
5.4297299 -117.096 148.925
5.4579902 -117.9 147.61501
5.06007 -89.495796 161.675
5.0599999 -126.855 137.957
5.0681701 -97.125298 154.58099
5.37009 -119.978 144.291
5.49898 -119.245 145.756
5.4681401 -119.002 146.13901
5.0692902 -123.443 137.903
5.0650401 -129.237 149.16
5.0623598 -118.486 176.51801
5.1099401 -116.417 143.888
5.1079402 -127.428 140.13499
5.11094 -127.95 140.638
5.10218 -124.14 158
5.38942 -123.55 157.80299
5.1171799 -128.248 140.888
5.2178302 -117.941 143.75999
5.1340299 -124.95 137.38499
5.1556101 -125.571 137.563
5.1322198 -126.212 137.742
5.57304 -104.169 151.87801
5.1382499 -105.795 151.082
5.2663798 -117.162 144.60201
5.3529201 -116.467 145.606
5.5061698 -116.135 146.73399
5.14329 -109.402 149.396
5.1844001 -94.7332 191.838
5.13937 -92.921898 191.366
5.1507301 -128.55701 141.11
5.21596 -120.137 142.308
5.1834502 -120.073 139.466
5.1752601 -130.84 148.006
5.18787 -128.463 146.312
5.2199302 -122.61 138.923
5.3790598 -122.478 138.76801
5.1877899 -121.911 138.395
5.2016201 -122.099 139.93201
5.1890898 -91.335503 190.82201
5.21525 -122.835 138.666
5.2013502 -121.155 167.666
5.2723799 -128.995 146.69299
5.2511201 -130.97301 147.461
5.2171001 -129.76801 146.936
5.2266898 -130.71001 147.05299
5.2177901 -129.832 148.45799
5.2323399 -122.145 139.741
5.2288299 -128.76601 145.282
6.2432799 -113.345 151.87601
5.9746199 -113.85 150.298
5.7790298 -114.613 148.853
5.2599902 -129.22 144.172
5.2630701 -128.83299 141.339
5.25741 -89.416702 190.15401
5.2702098 -126.726 139.51601
5.2797198 -128.632 148.842
5.3179598 -127.808 150.082
5.3343201 -123.916 138.02699
5.42308 -119.336 143.276
5.4787402 -115.517 182.457
5.3126402 -114.67 183.705
5.34166 -129.845 142.49699
5.3618002 -116.991 143.366
5.3628702 -123.016 138.716
5.3559899 -87.477402 189.465
5.37006 -119.281 140.479
5.5039601 -118.765 143.903
5.6086898 -118.241 144.36501
5.5429902 -117.123 145.76199
5.3940802 -121.374 141.06599
5.4059801 -126.075 152.84399
5.4003201 -124.816 155.256
5.41049 -130.22701 147.94901
5.4215398 -114.996 146.008
5.4363399 -122.08 139.793
5.6002202 -121.947 139.595
5.42103 -121.414 139.201
5.4306598 -126.159 138.959
5.4415598 -113.443 147.097
5.4677701 -125.648 138.593
5.4432602 -124.464 138.175
5.4653301 -125.072 138.338
5.4344401 -96.822998 192.10899
5.4569201 -122.168 139.714
5.4332399 -109.449 190.70799
5.4519701 -128.894 145.84399
5.4605498 -121.421 140.922
5.4688201 -118.475 141.634
5.46982 -127.261 142.13499
5.4787698 -127.618 142.27
5.4816198 -126.526 141.58299
5.5149002 -129.681 142.092
5.4845901 -129.153 141.59599
5.5664001 -129.459 141.842
5.4863801 -94.834099 191.575
5.4934201 -130.494 146.924
5.5535302 -130.59801 147.368
5.50001 -92.964401 190.989
5.5160298 -127.812 148.11
5.5204101 -127.952 142.397
5.5264602 -115.891 145.416
5.3618498 -116.533 149.862
6.0521598 -114.153 151.74001
5.7509899 -115.238 150.989
5.9924402 -114.451 150.461
5.76016 -115.614 148.17599
5.71839 -115.609 149.541
5.6315098 -116.642 148.86501
5.5325298 -129.075 144.79201
5.5364399 -126.982 143.06
5.5365801 -127.367 143.211
5.6416798 -109.622 189.88
5.5499401 -109.966 189.22501
5.5183201 -111.06 187.701
5.5510898 -88.659401 163.16901
5.5609698 -94.331001 156.47301
5.5584998 -108.126 150.476
5.5634499 -120.521 142.27699
5.5560198 -91.450699 190.44501
5.5658202 -129.293 146.25
5.5669398 -122.669 160.879
5.98383 -121.985 160.53799
5.5729399 -89.480003 189.78
5.5669198 -118.915 174.92101
5.5832 -129.239 148.03999
5.5844698 -129.94501 146.57401
5.5918598 -127.752 143.349
5.5929298 -127.174 144.12399
5.59518 -126.007 142.56
5.5766501 -117.064 179.672
5.60742 -117.722 142.918
5.6072202 -123.396 138.83
5.60744 -126.699 144.004
5.6115599 -129.487 143.229
5.6103001 -87.585098 189.05
5.6228299 -122.329 139.783
5.6232901 -128.25301 142.526
5.63027 -125.844 140.894
5.6476498 -121.355 140.888
5.64048 -120.749 140.166
5.8176098 -121.223 140.64301
5.6233401 -119.895 171.98
5.6459699 -129.373 143.685
5.6496701 -127.617 144.16
5.7502098 -127.572 145.21201
5.7202902 -127.625 146.153
5.6421199 -117.891 177.612
5.6523299 -120.989 166.882
5.7263598 -119.777 143.38901
5.7420402 -119.331 143.952
5.67418 -127.105 145.22301
5.6835899 -127.014 146.18201
5.67803 -126.839 147.786
5.6911802 -116.346 145.187
5.7000299 -121.393 140.922
5.6986599 -125.526 143.605
5.69452 -101.253 192.774
5.71593 -123.927 138.95399
5.7122002 -126.337 145.24699
5.7147298 -128.105 143.405
5.9215999 -118.906 144.32201
5.94241 -117.971 145.53
5.7215099 -100.057 192.53
5.7149501 -98.737297 192.299
5.72295 -123.17 157.52299
5.73809 -111.332 148.701
5.7327299 -130.18401 146.696
5.8424802 -130.186 147.02499
5.7590599 -129.767 147.48399
5.9444799 -118.252 145.517
5.7450199 -129.099 145.36099
5.9201398 -129.28799 145.83501
5.7415099 -89.509201 189.67101
5.74541 -126.412 149.908
5.7827201 -125.252 140.24899
5.7691798 -124.409 139.286
5.7930498 -124.879 139.709
5.7814202 -119.736 143.17101
5.9160199 -118.465 145.151
5.9039001 -118.667 144.78799
5.76864 -102.242 192.937
5.7843499 -126.138 146.226
5.79005 -124.953 144.95
5.8105898 -128.03 144.166
5.8228502 -92.920502 157.856
5.8288999 -120.486 142.052
5.8202701 -119.908 141.27
5.99227 -120.347 141.759
5.8185101 -125.179 141.87
5.8287501 -125.149 152.702
5.8436298 -129.24899 144.32001
5.8621101 -128.717 142.657
5.9527702 -129.076 142.77901
5.8645201 -129.29401 142.91701
5.8696198 -122.668 139.90199
5.8807602 -116.421 146.04201
5.8829598 -116.819 144.909
5.87815 -128.65601 147.24699
5.9886899 -128.065 145.127
6.0047598 -128.28101 146.062
5.8729401 -96.914703 191.886
5.8983898 -121.504 141.019
6.0934401 -119.912 169.763
5.8823199 -119.931 171.15401
5.8990302 -125.756 147.58299
5.8866401 -118.404 176.05499
5.9122901 -115.795 146.51801
5.9211898 -106.629 151.492
5.95787 -119.656 143.207
5.92068 -119 142.448
6.0903902 -119.437 142.95
5.9275098 -116.677 145.883
5.9397702 -124.462 146.157
6.1546402 -122.599 157.164
5.9423599 -123.945 154.983
6.06991 -118.478 143.459
6.17098 -118.908 143.787
6.0078502 -119.173 143.905
6.0144801 -129.252 144.812
6.1187701 -129.446 145.48801
5.95082 -129.59 146.005
5.9644499 -124.615 141.119
5.9675899 -94.926598 191.27299
5.9991498 -128.638 143.481
6.0889301 -129.019 143.435
5.9773502 -129.218 143.461
5.9871502 -124.546 143.00999
5.98105 -87.676003 188.77901
6.0079002 -124.139 140.733
5.9965901 -123.094 140.12399
6.0408201 -123.583 140.44
6.1417499 -118.802 144.399
6.1013398 -118.313 145.11099
6.1043901 -118.316 145.08701
6.0183101 -93.108398 190.623
6.0373101 -110.066 149.772
6.0170698 -112.405 185.905
6.0279002 -119.634 143.19501
6.13972 -118.639 144.644
6.12924 -118.409 144.94
6.0447402 -116.977 145.68401
6.0413599 -120.873 165.70799
6.0706902 -87.902702 164.897
6.06637 -116.93 146.231
6.0795598 -117.387 144.61501
6.1928802 -117.319 145.44099
6.2536898 -118.02 144.46001
6.24196 -118.505 144.411
6.1535902 -129.33701 146.76801
6.0671301 -129.77 146.19
6.1752701 -129.714 146.459
6.0843701 -124.953 149.78
6.0939298 -117.112 146.032
6.1027799 -114.226 147.565
6.1082401 -124.052 147.339
6.0919299 -103.382 193.045
6.11975 -116.388 146.771
6.1170902 -91.529198 190.02699
6.1357698 -117.327 146.34801
6.1493301 -121.794 141.153
6.1721301 -128.61099 144.12801
6.4036999 -128.92 145.785
6.42243 -128.67101 144.98399
6.29846 -129.498 145.466
6.4499302 -129.33 145.552
6.4742198 -129.084 144.827
6.2638102 -129.008 144.093
6.1481099 -129.187 144.10899
6.3137498 -129.252 144.70599
6.1585202 -117.453 146.12
6.1513801 -118.007 176.946
6.1791701 -117.296 145.813
6.1880698 -123.627 142.411
6.1931701 -123.729 144.569
6.1834202 -121.074 163.436
6.2248902 -91.640404 159.312
6.22367 -116.966 146.87801
6.2519102 -122.241 141.32001
6.2729502 -122.738 141.60201
6.23418 -123.175 142.02499
6.26405 -117.619 145.828
6.2842002 -117.514 145.524
6.3801198 -117.773 145.56
6.3376002 -118.247 144.952
6.3432002 -117.781 145.188
6.2638798 -119.676 143.32201
6.2966599 -118.263 146.29201
6.3093801 -104.908 152.05299
6.2961898 -121.163 161.703
6.3035598 -89.612801 189.276
6.3010001 -119.855 169.01401
6.3943901 -118.733 144.623
6.3962402 -118.437 144.856
6.3818798 -118.277 144.96899
6.2996802 -110.469 187.379
6.3305998 -108.82 150.853
6.3287702 -118.308 146.01199
6.3090401 -109.544 188.86501
6.3380799 -118.072 146.883
6.3429399 -123.015 145.914
6.3333502 -113.314 184.642
6.3684402 -123.157 149.647
6.3765898 -114.988 147.985
6.3749299 -123.76 152.561
6.5725799 -122.789 154.748
6.3645401 -109.421 189.14301
6.3763199 -96.922203 191.343
6.4970698 -121.63 145.69501
6.4004598 -122.474 143.869
6.4785399 -120.699 145.495
6.3914399 -119.015 146.19701
6.4043398 -122.613 147.12
6.4660501 -121.867 143.701
6.4059 -118.811 145.91299
6.52072 -120.11 145.353
6.4025798 -121.215 160.435
6.40558 -118.574 174.735
6.4417701 -90.6782 160.645
6.4726601 -118.089 145.187
6.4408102 -118.189 145.73801
6.4802399 -118.101 145.481
6.42765 -117.17 178.842
6.44311 -120.56 164.30499
6.5475202 -121.067 147.024
6.52667 -120.061 147.05
6.46351 -118.997 146.946
6.4793901 -112.256 149.272
6.5249901 -102.174 151.97
6.5185299 -121.407 158.937
6.5283499 -118.632 145.61301
6.6466899 -119.581 145.22099
6.5644398 -121.225 143.62801
6.5202799 -119.907 143.506
6.5964599 -120.484 143.567
6.6117001 -118.878 144.89999
6.6603899 -119.115 145.06
6.5827498 -118.515 145.345
6.5586901 -118.447 145.09
6.5458398 -87.741798 188.291
6.57195 -87.6063 166.215
6.5753198 -115.738 148.397
6.5689301 -119.759 168.05
6.5852599 -121.977 149.564
6.5872202 -120.534 162.853
6.5926499 -95.099998 190.571
6.5878701 -116.14 180.91901
6.5924101 -109.33 189.78
6.6518798 -89.8246 162.157
6.6582198 -118.326 175.657
6.6832399 -116.712 148.73599
6.6895299 -107.462 151.89301
6.6971102 -120.647 160.99001
6.71345 -121.671 157.056
6.7048898 -122.505 152.567
6.8310599 -122.047 154.716
6.7196698 -117.532 148.916
6.7184801 -93.321701 189.883
6.7806802 -100.807 152.149
6.7948499 -118.331 149.14999
6.7965999 -119.549 149.41299
6.8236399 -120.194 149.563
6.8133302 -120.861 159.448
6.8113999 -111.739 185.58
6.8598299 -110.921 150.39999
6.8453202 -118.918 170.881
6.8556099 -91.7285 189.265
6.8502202 -117.3 178.34599
6.8532 -114.156 183.14
6.8624401 -119.609 165.70799
6.8790898 -113.121 149.838
6.89082 -88.9589 164.06799
6.9948201 -121.214 157.132
6.9415598 -121.724 152.733
7.0453701 -121.545 154.875
6.9580002 -98.295502 153.248
6.9424701 -118.816 172.338
6.9629302 -118.128 176.38699
7.0068598 -119.019 169.136
7.0336399 -118.593 173.313
7.0394702 -119.583 163.48801
7.03829 -100.991 191.93201
7.0774598 -119.102 166.992
7.0578799 -119.14 166.338
7.0674601 -89.7798 188.44099
7.0985198 -101.565 192.121
7.1403699 -113.904 150.394
7.1274199 -118.288 174.50301
7.1315098 -109.628 186.91
7.1432199 -100.136 191.536
7.2781601 -98.9925 190.97099
7.1507502 -119.741 161.342
7.17521 -87.5802 167.92
7.2080302 -120.293 152.32001
7.22157 -88.569901 165.61301
7.2403202 -115.122 150.76199
7.2539201 -95.196899 155.231
7.2516098 -119.939 159.82001
7.2645998 -109.681 151.433
7.2423401 -116.39 179.935
7.2797999 -105.981 152.382
7.2835999 -119.07 163.55901
7.2744498 -114.919 181.799
7.3076401 -118.72 167.388
7.3926702 -119.529 160.034
7.3130798 -119.366 161.44299
7.3203502 -119.431 152.145
7.3209801 -87.912804 187.42
7.3278098 -116.278 151.218
7.3334098 -111.786 151.011
7.3887401 -120.199 157.541
7.3319998 -120.469 153.455
7.4275899 -120.444 155.34399
7.3329 -108.735 188.179
7.3670902 -118.686 166.72501
7.3714099 -102.443 192.377
7.4033999 -93.708504 156.685
7.3965001 -118.717 152.002
7.41115 -117.404 151.716
7.39469 -118.169 175.33701
7.4093699 -118.233 172.589
7.4250698 -118.227 171.72
7.4249802 -108.655 188.401
7.4592099 -112.485 184.242
7.46592 -110.806 185.271
7.4909301 -119.801 153.81
7.4813299 -118.093 173.418
7.4936399 -119.655 157.633
7.4909301 -118.277 170.145
7.5183201 -97.130898 189.88
7.5634098 -119.873 155.51401
7.6009102 -118.523 164.70399
7.6034698 -117.973 174.32401
7.6117101 -116.537 179.498
7.6363902 -112.573 151.592
7.63275 -95.541397 189.16701
7.6573601 -118.974 153.657
7.6672101 -108.46 152.351
7.6577902 -119.189 157.627
7.6736898 -88.479897 167.75101
7.6529198 -117.771 171.995
7.6875401 -118.85 160.185
7.7068501 -92.378899 158.289
7.6820798 -118.094 175.967
7.6929798 -118.582 162.186
7.6834502 -108.681 188.74899
7.6972699 -95.148499 189.00101
7.6939602 -117.722 172.68401
7.7107801 -117.646 172.008
7.72648 -118.225 153.464
7.7238498 -118.04 168.42101
7.7410898 -113.915 152.02
7.72368 -117.612 177.62801
7.7308698 -117.678 173.304
7.7558198 -117.186 153.21001
7.7625198 -117.593 172.733
7.82795 -115.465 152.716
7.7769799 -116.674 153.03101
7.7923498 -110.581 152.007
7.7845402 -117.576 170.763
7.8085098 -87.639603 169.789
7.8009801 -117.553 173.271
7.8181701 -117.968 167.83501
7.84267 -119.306 155.588
7.8582802 -91.331802 159.871
7.8523502 -93.699997 188.327
7.8648901 -118.406 159.754
8.62535 -115.731 173.707
8.5268898 -115.668 173.438
7.8906102 -115.693 173.642
7.8923001 -117.908 175.101
7.9050498 -99.214104 190.05499
7.9192901 -118.114 161.493
7.9117799 -115.465 180.66499
7.9497499 -104.022 152.217
7.9350901 -117.58 174.138
7.9468699 -115.061 173.14799
7.9675899 -117.987 163.436
7.9586701 -108.807 186.16701
7.9738402 -92.154198 187.73801
8.1868095 -114.767 173.662
8.1012402 -115.314 174.114
8.2088003 -114.676 173.58299
7.9697399 -114.966 173.08501
8.0053902 -114.891 173.049
8.0133896 -118.505 157.42599
8.0229197 -118.356 155.298
8.0151701 -99.9384 190.24699
8.0625696 -100.431 190.382
8.0310402 -100.828 190.505
8.0635204 -90.4953 161.383
8.0438204 -117.448 174.08
8.0394802 -113.273 182.856
8.0534697 -117.274 171.075
8.0678596 -117.68 161.052
8.07549 -117.638 155.037
8.0776596 -116.828 154.714
8.0735397 -108.069 187.185
8.0918503 -117.755 166.03101
8.0883703 -117.36 172.091
8.0938997 -109.85 184.918
8.0961704 -101.116 190.53
8.1208696 -102.515 152.05299
8.1263103 -111.387 152.58701
8.1275301 -116.141 154.44
8.1523304 -89.650902 163.12199
8.1468401 -117.304 169.243
8.1470404 -117.34 172.76199
8.1663198 -107.21 152.964
8.14711 -107.893 187.483
8.2142401 -117.844 175.722
8.2000198 -117.475 162.71899
8.1984396 -117.329 173.311
8.2282801 -112.815 153.064
8.2421303 -114.508 153.778
8.2129898 -115.159 154.065
8.2356701 -109.479 152.87199
8.22645 -90.241402 186.659
8.2149401 -111.586 183.88699
8.2390604 -88.639801 169.711
8.2354498 -114.607 173.519
8.2442799 -117.224 168.722
8.2544699 -117.536 174.894
8.2708797 -117.329 173.995
8.2838802 -117.687 159.202
8.2755098 -115.656 180.23399
8.2838297 -117.078 172.138
8.2802401 -107.745 187.60899
8.3130398 -116.971 169.713
8.3401299 -117.016 162.211
8.3682203 -89.241997 164.72701
8.3624401 -117.1 172.839
8.3780499 -117.42 174.83
8.3739996 -116.875 171.293
8.3928499 -117.673 157.043
8.4179897 -87.8797 172.02499
8.4081898 -117.282 164.86501
8.4043903 -117.71 177.12801
8.4719801 -117.004 156.726
8.4276695 -116.205 156.29201
8.4272299 -117.1 173.326
8.9535799 -115.826 174.125
8.7313299 -115.344 174.78799
8.4524002 -115.879 174.33099
8.4302101 -101.018 189.563
8.4580498 -115.528 155.937
8.4492702 -116.832 169.19299
8.4612503 -116.532 171.66901
8.4631996 -101.261 189.604
8.4636898 -102.03 191.092
8.4786797 -116.484 171.55
8.4847002 -116.695 172.33701
8.5016499 -114.607 155.408
8.4879198 -108.773 184.52699
8.5043297 -117.109 173.895
8.49897 -116.453 171.48801
8.5065804 -117.076 160.431
8.5012903 -107.77 185.536
8.5140896 -88.438301 185.606
8.5058002 -113.826 181.8
8.6491499 -113.66 154.873
8.5384197 -110.445 153.34599
8.7282 -111.727 153.955
8.6202097 -117.486 175.57001
8.5522699 -116.744 172.83099
8.5526896 -116.566 170.18201
8.5534401 -116.912 178.722
8.5830202 -99.283302 152.94299
8.5662699 -116.426 172.896
8.5686598 -116.932 167.401
8.5667105 -110.799 183.65601
8.5724401 -116.323 172.444
8.5943604 -103.317 152.189
8.5771399 -100.32 189.25301
8.5844297 -99.8349 189.011
8.5917301 -99.350502 188.769
8.5851402 -99.089798 188.638
8.6129198 -89.089798 167.201
8.5946798 -116.156 171.95799
8.6053801 -116.753 164.01601
8.6101599 -116.332 172.924
8.6454897 -116.779 173.34801
8.6424904 -116.476 173.38499
8.6416597 -117.324 174.726
8.6299801 -116.191 172.493
8.6287699 -116.106 171.79601
8.64118 -107.174 186.591
8.7699203 -117.38 175.52499
8.66646 -115.949 172.09599
8.6708803 -97.567596 188.043
8.6835804 -115.589 173.05299
8.6774797 -115.857 171.967
8.7021904 -96.886902 154.241
8.6805296 -116.055 171.69
8.6803102 -107.015 186.916
8.7020102 -108.392 153.562
8.81528 -116.814 173.90199
8.74578 -116.532 173.89
8.7118196 -89.051003 171.658
8.6961603 -108.199 184.31599
8.7028904 -106.935 187.146
8.7144003 -116.369 163.603
8.7179098 -116.476 161.493
8.7219105 -116.346 169.645
8.7545605 -105.976 153.048
8.7560997 -116.056 172.53
8.7635403 -115.284 172.82899
8.7684402 -116.951 158.717
8.9080095 -116.311 158.429
8.7676601 -115.588 157.864
8.7614098 -114.039 172.897
8.7715797 -116.242 172.96001
8.7660999 -115.775 171.88901
8.7856798 -116.472 168.205
8.7978897 -115.18 172.77
8.8202 -94.736801 155.96001
8.8000898 -115.84 172.20399
8.8192301 -116.012 170.666
8.8290997 -114.909 157.41499
8.8357401 -116.362 173.38499
8.8333502 -115.094 172.741
8.8386202 -96.055298 187.38901
8.8738699 -117.133 174.614
8.8460798 -109.734 183.3
8.85324 -115.726 172.073
8.8745098 -115.962 172.54401
8.8785801 -113.91 173.502
8.88099 -117.548 176.77
9.3692598 -115.262 175.332
8.9264898 -115.965 174.873
9.3310003 -115.877 174.528
8.8989601 -113.894 156.707
8.8932104 -116.509 166.326
8.9309301 -116.18 172.94099
9.03617 -116.324 173.34399
8.8961096 -107.026 185.414
8.9119902 -115.746 172.289
8.9233503 -115.606 172.729
8.9303198 -115.631 171.991
8.9759903 -115.641 172.345
8.9731703 -115.437 172.633
8.9359598 -115.557 172.467
8.9802399 -115.497 172.57001
8.9340096 -102.095 189.995
8.9688997 -116.46 173.871
8.9617796 -93.233398 157.651
8.9535103 -115.942 172.55901
8.9487104 -115.637 172.63901
8.9584599 -115.742 172.58
9.0754805 -117.31 175.38699
8.9615097 -112.248 182.60001
8.96943 -115.622 172.17999
8.9853601 -89.233299 169.32401
9.0053997 -115.538 172.285
9.0290298 -115.335 172.575
8.98528 -115.434 172.414
9.0201502 -115.397 172.50101
8.9789 -114.171 181.03
8.9870396 -115.739 170.851
8.9836502 -107.632 184.114
8.9988899 -106.601 186.39301
9.0232 -116.149 172.93201
9.0218096 -115.945 168.94
9.0279799 -95.453796 187.056
9.1330004 -112.761 155.97701
9.0500498 -109.364 154.15199
9.2751102 -110.671 154.908
9.1162701 -116.85 174.48399
9.0817499 -116.595 174.498
9.0367603 -101.429 188.243
9.0392199 -106.467 186.73199
9.0591402 -89.7229 174.944
9.0434399 -109.07 183.03799
9.0852604 -116.037 172.924
9.0690899 -115.818 173.07401
9.0944996 -115.889 172.965
9.0609503 -115.513 172.10699
9.0601702 -115.7 170.166
9.08216 -92.1576 159.358
9.0625801 -101.737 188.37
9.07302 -106.392 186.967
9.0861597 -115.255 172.541
9.1287098 -116.305 159.908
9.2487297 -115.748 159.603
9.1015196 -115.069 159.01801
9.1171303 -116.311 173.325
9.1093798 -116.048 165.45599
9.1142998 -115.29 172.466
9.1132298 -115.292 172.37
9.1513901 -115.38 172.23599
9.1173697 -111.494 182.52901
9.1379499 -115.993 167.285
9.1480503 -115.678 163.002
9.7139502 -115.849 174.86301
9.2190504 -115.97 175.16499
9.6746702 -115.174 175.605
9.4233398 -113.49 173.649
9.1632605 -113.61 172.87601
9.2322197 -116.536 174.44701
9.17624 -94.245399 186.508
9.1816702 -114.444 158.61301
9.2033005 -117.278 176.492
9.1760397 -115.582 170.95
9.2161999 -115.983 173.38901
9.23071 -116.077 173.30701
9.21208 -116.192 173.321
9.3402205 -117.13 175.245
9.1959105 -100.391 187.839
9.1940403 -99.8349 187.537
9.1921301 -99.279198 187.23399
9.1974497 -99.094704 187.13499
9.2200098 -107.396 153.87601
9.2329798 -91.329498 160.95799
9.2140303 -115.473 170.38699
9.2616997 -116.439 173.798
9.2374601 -117.056 178.146
9.2361498 -106.279 186.334
9.2393904 -106.188 186.687
9.2419996 -106.582 185.308
9.2636499 -105.073 153.075
9.2561197 -115.703 165.12601
9.24827 -106.145 186.925
9.2718401 -89.617203 171.20599
9.2577 -115.494 171.071
9.2861605 -90.4702 162.73599
9.2601604 -114.343 180.689
9.3304596 -117.201 176.39101
9.2741098 -108.49 182.84399
9.3004704 -90.542702 174.259
9.2852802 -116.071 179.42599
9.4048595 -116.121 173.743
9.4277296 -116.244 173.731
9.3790102 -116.341 173.759
9.3180799 -113.224 157.783
9.3374901 -101.571 152.33099
9.3181 -110.497 182.263
9.3303699 -92.809601 185.66901
9.3279495 -115.326 169.71899
9.3336802 -107.189 183.97099
9.3516798 -115.438 168.367
9.5410004 -116.85 175.061
9.53965 -116.62 175.05901
9.3843298 -115.239 171.30299
9.4169798 -89.9823 164.40601
9.3985701 -115.138 171.395
9.4022503 -102.392 187.371
9.4064703 -115.086 171.56
9.4017897 -105.889 186.95599
9.4090796 -115.332 170.57401
9.4142704 -97.545303 186.355
9.4310198 -115.403 166.76401
9.4280195 -105.923 186.70599
9.4421902 -115.668 161.015
9.43361 -102.352 188.67599
9.5968399 -115.113 160.722
9.4567003 -114.465 160.123
9.4578199 -102.024 187.02
9.4624996 -115.128 169.98399
9.6198997 -89.141197 183.49699
9.507 -90.801697 184.455
9.5604296 -112.079 157.002
9.5159302 -108.516 154.616
9.7922201 -109.879 155.726
9.5623798 -116.541 174.295
9.4981298 -109.892 181.99699
9.5033703 -105.927 186.34801
9.5505304 -113.85 159.692
9.5434103 -100.924 186.577
9.6270905 -116.554 175.015
9.55655 -115.172 170.78799
9.60742 -91.481598 175.32001
9.5759602 -91.048103 175.70799
9.5638704 -103.476 186.789
9.6935196 -116.255 174.222
9.7025604 -116.372 174.21201
9.6507998 -116.476 174.254
9.5765696 -114.945 171.755
9.5756702 -100.131 186.11099
9.5720596 -112.724 181.455
9.5978298 -89.700104 166.918
9.5806904 -103.068 186.401
9.5883198 -105.379 187.07001
9.6091499 -90.6054 176.097
9.6011496 -115.035 166.49699
9.6512804 -117.173 176.21201
9.5956202 -111.937 181.603
9.6947603 -111.025 181.49001
9.6223402 -100.186 153.12601
9.6482601 -102.826 187.716
9.6419697 -104.835 187.239
9.7069502 -103.584 187.125
9.6178799 -104.097 187.119
9.6024704 -107.993 182.729
9.60361 -103.318 186.16901
9.6081495 -99.338799 185.646
9.6175604 -114.795 164.772
9.6162901 -103.513 186.015
9.6231203 -96.419601 185.802
9.6240196 -114.847 169.37199
9.63095 -98.993202 185.44501
9.6353102 -105.362 186.838
9.6782103 -104.81 187.017
9.6282902 -104.073 186.882
9.6468201 -103.97 186.588
9.66821 -106.634 154.05
9.6506004 -109.532 181.86501
9.6577902 -114.873 168.00999
9.9097996 -111.362 157.754
9.6744003 -112.616 158.617
9.6656199 -101.544 185.91901
9.6869602 -116.962 177.662
9.6794205 -114.323 172.528
9.6680899 -106.166 185.166
9.7267799 -105.296 186.5
9.7447996 -104.79 186.63
9.6798601 -104.175 186.603
9.6840296 -100.264 185.44901
9.6914196 -114.965 170.22
9.6953001 -114.913 171.04401
9.7030497 -103.81 185.799
9.7194405 -90.882103 173.867
9.7243605 -95.896599 185.548
9.7221403 -114.749 171.20599
9.7517004 -114.658 169.688
9.7515297 -114.671 171.345
9.7592096 -114.736 171.94501
10.1908 -115.694 175.22
9.8562803 -115.8 175.685
9.81427 -114.655 172.064
9.7785702 -114.583 172.174
9.7735701 -106.797 183.983
9.8067303 -89.757698 168.992
9.7951498 -113.095 172.953
9.7910299 -104.017 185.66499
9.8200703 -98.224197 154.311
9.8124104 -114.802 162.48199
9.8161201 -97.691902 184.694
9.8269997 -102.255 184.922
9.8177099 -103.003 184.60699
9.8256502 -102.602 184.769
9.82446 -110.502 181.28799
9.8259401 -109.194 181.765
9.9619598 -116.58 174.808
10.0263 -116.524 174.739
10.0248 -116.287 174.64101
10.0263 -116.415 174.649
9.8380899 -99.312599 184.215
9.8607702 -93.220802 177.38699
9.9330702 -117.036 176.02299
9.8669596 -94.746498 184.916
9.9247503 -105.42 185.298
9.9595003 -104.752 185.38699
9.8606901 -104.231 185.552
9.9896898 -97.744301 183.222
9.8665895 -98.872803 183.91901
9.8952503 -114.441 172.382
9.8778601 -114.506 172.23399
9.91185 -114.493 172.285
9.8722801 -114.767 170.51601
9.8965902 -114.321 169.19701
9.9389896 -116.77 177.29601
9.9131899 -113.901 172.56599
9.9247303 -91.727997 174.964
9.9243898 -102.85 184.203
9.9333296 -112.85 173.547
9.92941 -102.508 184.32201
9.9568701 -96.214897 155.884
9.9534702 -107.838 155.033
9.9457703 -114.248 167.899
9.9445 -114.524 171.582
9.9644499 -103.618 153.166
10.037 -90.311096 177.34
10.2672 -90.112297 178.89799
9.9568701 -89.838402 179.888
9.9682798 -90.0588 170.75301
9.9641304 -93.209297 183.907
10.0018 -91.143303 182.799
10.0901 -89.672401 180.66499
9.9651299 -89.3937 182.037
9.9555998 -103.454 184.364
10.0608 -103.315 183.95399
9.9642 -100.698 184.306
9.9951 -114.234 162.207
9.9712496 -113.654 161.578
9.9679604 -96.809898 184.183
9.9771299 -116.249 178.80299
10.1494 -92.564301 179.627
10.1384 -93.007004 178.478
9.9897804 -92.228302 180.187
10.0816 -91.464302 181.94299
10.1098 -91.971397 180.813
9.9849501 -102.248 184.27499
10.0405 -116.729 177.157
10.0117 -93.490501 177.11099
10.0035 -114.484 169.974
10.0016 -110.152 181.14999
10.1832 -109.862 181.04601
10.0943 -95.4189 183.28999
10.0189 -96.403397 183.946
10.0211 -114.142 169.55
10.1125 -116.739 175.715
10.0239 -112.841 173.011
10.0242 -108.878 181.696
10.028 -114.474 170.86099
10.0301 -102.751 184.106
10.1157 -116.556 175.67799
10.6147 -115.418 175.496
11.0056 -115.032 175.681
10.2434 -115.483 175.996
10.6937 -115.116 176.17
10.135 -115.002 175.97301
11.0062 -114.515 176.285
11.3213 -114.505 175.799
10.0445 -110.933 181.077
10.0509 -114.405 171.825
10.0704 -94.749397 157.605
10.0666 -97.162903 182.91299
10.1239 -94.433701 180.961
10.1461 -93.743896 182.151
10.1024 -96.632401 182.642
10.1213 -96.031502 182.356
10.1664 -116.442 175.569
10.0749 -112.901 160.73801
10.0643 -107.503 182.799
10.0687 -114.271 171.10001
10.0837 -94.877998 180.474
10.086 -106.366 183.95399
10.095 -113.929 166.366
10.1004 -114.201 171.246
10.125 -114.301 172.022
10.1167 -114.204 172.13
10.1381 -93.6502 159.381
10.2004 -111.912 159.534
10.2401 -110.724 158.12399
10.1315 -109.106 156.30701
10.1277 -99.958 183.311
10.1281 -102.626 183.94701
10.1246 -113.171 180.68401
10.1376 -96.493797 181.127
10.1636 -97.502899 181.51199
10.1512 -99.547798 182.847
10.1517 -113.745 169.215
10.1517 -101.825 183.955
10.2247 -114.083 172.37399
10.2473 -114.136 172.27
10.1735 -114.168 172.183
10.1791 -103.871 184.125
10.2746 -103.709 183.73801
10.1965 -103.316 183.832
10.1885 -114.284 170.34801
10.2207 -99.343697 182.632
10.2085 -98.8647 182.319
10.2819 -97.6689 180.88901
10.2217 -96.028 179.431
10.2519 -96.848396 180.16
10.25 -105.5 154.278
10.2559 -92.805199 161.082
10.2408 -113.648 169.561
10.2466 -113.908 164.237
10.2392 -114.864 179.804
10.2553 -113.511 168.075
10.2602 -112.435 173.737
10.2601 -112.623 173.063
10.3258 -116.768 176.922
10.2897 -102.003 153.89101
10.2806 -113.972 169.87601
10.2936 -114.085 171.536
10.2905 -110.438 180.90601
10.369 -109.633 180.97701
10.5081 -110.012 180.815
10.299 -101.368 183.29401
10.3097 -103.304 183.64
10.3244 -104.152 183.862
10.4126 -103.918 183.51199
10.3412 -91.868797 163.00101
10.3465 -91.393799 173.222
10.3455 -102.364 183.46899
10.3502 -111.398 180.84801
10.3559 -113.982 170.77699
10.3704 -105.64 183.771
10.3907 -116.213 178.237
10.3792 -112.373 173.194
10.5976 -116.171 175.05499
10.4936 -116.452 175.27299
10.6401 -116.304 175.093
10.5874 -116.446 175.19501
10.3855 -113.994 171.797
10.4173 -91.250603 164.664
10.4015 -113.156 169.30499
10.4236 -113.399 172.58
10.4224 -113.739 171.082
10.4305 -106.929 182.758
10.4295 -113.367 180.364
10.4521 -113.703 171.23399
10.4651 -92.286598 174.338
10.4639 -113.886 172.03101
10.4624 -113.796 170.299
10.467 -100.779 182.392
10.4702 -113.183 165.717
10.5516 -116.707 176.694
10.531 -103.233 183.142
10.6035 -104.076 183.063
10.4699 -104.749 183.53
10.4697 -108.41 181.70799
10.4812 -113.112 169.741
10.4835 -113.775 172.138
10.5001 -90.748398 167.019
10.4858 -112.122 174.01401
10.5006 -113.496 169.916
10.5069 -100.509 182
10.5295 -100.136 155.041
10.52 -112.168 173.315
10.5322 -94.519997 176.65401
10.5307 -101.975 182.614
10.5828 -112.233 162.617
10.5444 -113.17 164.034
10.5592 -90.597397 168.974
10.5819 -116.082 177.80499
10.5611 -106.85 155.517
10.5524 -111.897 180.604
10.5596 -100.342 181.739
10.5829 -90.691498 170.606
10.6831 -116.437 176.28101
10.5823 -99.991402 181.33501
10.6937 -116.295 176.201
10.601 -111.858 161.871
10.6093 -112.624 168.67
10.7268 -116.147 176.01801
10.663 -113.593 172.414
10.6193 -113.682 172.22501
10.6908 -113.642 172.308
10.6175 -113.538 170.778
10.671 -101.575 181.66701
10.6435 -101.458 181.32401
10.6226 -101.368 181.062
10.623 -112.014 173.452
10.6707 -116.061 177.657
10.6319 -98.724998 180.151
10.6415 -97.006798 178.64999
10.6322 -97.672798 179.24001
10.6283 -113.628 171.57899
10.6357 -102.753 180.47301
10.6408 -100.895 180.549
10.6609 -103.763 154.979
10.6441 -110.728 180.65601
10.8778 -110.154 180.539
10.8199 -109.347 180.80499
10.6703 -108.385 156.923
10.6618 -111.205 160.57401
10.7001 -109.917 158.673
10.7236 -103.145 182.274
10.8281 -104.276 182.10899
10.6588 -102.95 180.84599
10.7722 -103.121 181.411
10.6618 -112.5 169.688
10.6757 -113.361 170.35699
10.6797 -113.291 171.142
10.6866 -113.029 170.10899
10.689 -113.309 171.31
10.6929 -113.067 172.683
10.6961 -112.45 167.25301
10.714 -98.234901 156.651
10.8108 -111.909 164.299
10.7101 -112.502 165.222
10.707 -104.389 179.99001
10.7086 -112.547 170.06599
10.716 -104.617 180.505
10.7187 -113.552 171.858
10.841 -104.733 181.216
10.85 -105.186 182.041
10.7315 -106.129 182.485
10.743 -111.826 173.66901
10.757 -91.832497 172.88
11.5609 -113.883 175.85699
10.8155 -113.735 176.127
11.2945 -113.698 176.35201
10.7602 -105.417 179.58
10.7823 -102.125 179.64101
10.7879 -113.452 172.11501
10.7993 -92.785698 174.062
10.791 -105.713 180.03101
10.7997 -99.7528 179.46899
10.8101 -113.166 170.843
10.8151 -112.961 172.72501
10.8179 -111.665 174.76801
10.825 -111.383 162.84801
10.8166 -107.902 181.54401
10.8589 -98.413498 178.59599
10.8763 -97.6521 178.065
10.8443 -95.082901 176.10699
10.8407 -113.32 172.22701
10.8633 -96.830002 158.371
10.8485 -112.943 170.533
10.8588 -112.949 171.23599
10.8542 -113.003 171.41299
10.866 -115.118 179.12801
10.8694 -113.239 171.672
10.8735 -103.794 179.136
10.9352 -116.138 177.40199
10.8801 -112.538 170.394
10.878 -112.217 180.211
10.8899 -112.732 172.854
10.8911 -104.773 178.799
10.9373 -113.002 176.05901
11.4072 -113.104 176.33099
11.6918 -113.273 175.84801
10.9042 -111.887 170.242
10.9273 -105.463 156.418
10.9164 -111.811 169.62199
10.9513 -102.039 156.16701
10.9386 -111.978 170.54601
10.9467 -113.266 172.327
10.9757 -113.273 172.423
10.9454 -113.245 172.519
11.0702 -116.138 175.67599
10.9457 -106.452 178.76801
10.953 -111.595 166.49899
10.9693 -95.729301 160.13499
10.9561 -112.814 170.983
10.9592 -113.184 171.968
11.0499 -107.122 181.313
11.1025 -106.352 180.978
10.9644 -105.949 180.506
10.968 -111.573 174.011
11.7388 -112.633 175.76801
10.9916 -112.508 175.989
11.4745 -112.367 176.177
10.974 -105.765 178.224
10.98 -112.579 172.939
10.9979 -112.682 171.353
11.0826 -107.216 158.095
11.1003 -108.849 160.00301
11.0144 -110.227 161.83501
11.0157 -106.822 179.08299
11.0131 -110.949 180.22301
11.0208 -112.518 170.78
11.0211 -112.71 171.573
11.0244 -113.107 172.229
11.0238 -113.066 172.341
11.0607 -104.424 178.229
11.0637 -103.339 178.409
11.0316 -101.238 178.478
11.0377 -112.932 171.77299
11.1242 -116.129 177.149
11.7237 -112.082 175.65401
11.463 -111.873 176.056
11.1243 -111.658 175.91
11.7034 -111.585 175.472
11.0474 -111.049 175.39301
11.384 -111.266 175.892
11.0711 -94.823097 161.791
11.113 -113.044 172.461
11.1243 -113.073 172.521
11.0645 -113.054 172.614
11.1746 -115.835 175.36501
11.2109 -115.972 175.44
11.1956 -116.154 175.561
11.0721 -111.33 169.157
11.0769 -112.033 170.808
11.0908 -91.7034 170.853
11.0939 -92.228203 172.371
11.2263 -115.907 176.71001
11.1904 -115.819 176.53799
11.0888 -99.580002 177.843
11.0903 -111.334 174.438
11.0883 -113.788 179.71001
11.0951 -105.261 177.81
