# .PCD v.7 - Point Cloud Data file format
VERSION .7
FIELDS x y z
SIZE 4 4 4
TYPE F F F
COUNT 1 1 1
WIDTH 1736
HEIGHT 1
VIEWPOINT 0 0 0 1 0 0 0
POINTS 1736
DATA ascii
15.9174 65.042702 81.359596
16.182199 65.054703 76.926399
15.5699 65.063004 86.357101
17.322901 81.758003 82.697701
15.9022 64.688499 89.690201
17.470501 78.0355 64.145103
16.836901 82.117104 85.088501
16.306999 64.892601 95.057602
16.011 64.747597 92.861198
16.429399 65.132004 72.922203
17.201799 77.977699 62.9328
16.571899 65.2304 69.343697
17.1164 77.316399 60.4846
17.0835 77.762199 62.076801
16.4823 66.175598 98.549301
16.7162 82.0597 85.1651
16.994699 77.5187 61.288101
16.6057 65.268997 66.3722
16.2297 82.616997 87.400101
15.9224 67.533203 99.966499
17.4193 78.303101 74.061798
17.512199 77.571701 70.017303
17.257 77.147102 66.544701
17.2041 79.140404 77.649101
16.518101 64.955597 64.003098
16.4548 64.652603 62.433701
16.268101 64.3871 60.776901
16.797899 76.6222 64.433296
16.7796 79.882698 80.720802
16.4156 81.549896 85.323898
14.684 66.372597 81.031197
14.2878 66.535202 85.2771
15.0408 66.305298 76.758301
16.6287 80.784302 83.123596
17.4226 76.779999 70.022903
17.334801 76.481796 66.832802
17.3209 77.495399 74.0438
16.5667 76.505699 63.164001
16.7068 75.576302 60.807301
17.1014 78.343102 77.659698
14.9939 65.499199 89.501602
13.925 66.803101 89.001404
17.1849 77.006897 74.044296
17.149099 76.121803 70.286102
17.076 75.794403 67.163696
15.431 65.8396 95.6436
15.3666 66.270401 72.756104
16.218201 74.636803 65.283997
16.972099 77.856102 77.655197
14.9507 65.725601 92.767998
15.5468 66.301003 69.170998
16.649401 79.112999 80.793198
16.479401 76.231697 62.327099
14.5856 67.008301 96.094803
16.4058 76.160599 75.396896
16.5273 75.379601 71.332703
16.0383 76.996498 78.976501
16.481001 74.801697 67.8694
16.5026 78.635002 80.825104
16.573099 75.859596 61.610901
16.0376 81.093697 85.652603
13.8283 67.132599 92.984802
15.4903 77.622498 82.081596
15.6566 66.370201 66.243301
15.4902 81.777397 87.7994
15.987 74.1026 60.854198
15.9543 74.647102 63.5009
16.4538 80.294098 83.3256
16.1404 74.368599 61.724098
16.278799 79.804497 83.529099
16.113701 79.333603 83.566902
14.2588 67.846397 76.403397
14.555 67.693398 72.411499
13.9691 68.041298 80.5308
15.8506 74.678101 62.483101
15.5489 66.256302 64.219002
13.4707 68.222198 84.492302
14.9715 78.278297 84.649597
15.4298 65.916397 62.7201
15.1883 65.539398 61.0704
16.267099 73.552002 73.031097
16.0473 72.735199 70.207802
15.884 72.460999 66.524902
16.007099 74.386002 76.964699
14.7563 67.6353 68.799301
15.4998 75.072502 80.665497
15.6592 80.344597 85.964897
15.4838 79.730598 86.045197
13.0843 68.4589 88.0317
15.5378 72.5439 64.184898
15.1227 67.717598 65.874298
15.4725 72.4011 60.865299
15.698 72.602798 61.802101
15.4158 72.687698 62.847198
13.659 67.956001 95.588303
14.2704 68.882797 98.7258
14.1866 78.581703 87.0466
15.6846 72.964699 78.207901
15.9662 72.606598 73.978996
13.9776 69.897903 79.996002
14.1371 69.658997 75.869102
14.405 69.429298 71.880302
14.864 75.589897 83.764702
14.9324 71.334 75.101402
15.0952 71.476501 79.425697
15.0762 71.072098 71.060501
14.6671 69.229797 68.296097
12.7773 68.777802 91.358704
15.4656 70.638397 67.489998
15.0634 73.412201 82.131401
15.3093 70.727997 64.961304
13.4895 70.136398 83.813202
14.9742 80.802399 88.103302
15.1065 70.867897 63.466099
15.2924 70.763802 62.391701
15.2878 70.466301 61.2038
14.7282 80.134903 88.287102
15.0431 69.186699 65.472397
15.0286 67.696098 64.098701
14.5664 71.8144 83.3144
14.1987 76.140404 86.129799
13.3076 78.876999 89.244301
12.6016 69.355499 94.320702
14.3772 73.841904 85.176697
15.0366 67.541298 62.9188
14.7223 67.052101 61.373798
12.9679 70.374496 87.1157
15.0371 68.788696 61.508499
15.1273 69.117203 62.745201
14.8999 69.245903 63.854301
12.8637 70.197098 97.3162
13.9113 72.171204 86.420799
13.2961 76.414299 88.4869
13.6511 74.335899 87.5093
12.4571 70.663498 90.049599
13.2168 72.590797 88.967796
11.9885 71.016296 92.841904
12.7648 74.659302 89.885399
12.3541 76.626297 90.809402
11.6833 71.498299 95.615303
12.4612 72.917297 91.4823
11.9094 75.0093 92.176102
11.6942 73.247398 93.975403
25.1485 70.223503 58.716599
25.2903 69.142502 58.493301
25.1539 67.303101 58.2304
24.9118 70.432701 56.820599
24.9645 69.293404 56.575699
24.9216 67.3955 56.210499
24.330099 65.494301 58.245998
24.2052 65.594398 55.910599
24.901899 71.0271 58.954399
24.5735 71.119797 57.050701
24.390301 70.618401 54.6576
24.6387 69.809303 54.483002
24.866199 67.514198 54.0355
24.140301 71.976097 59.1147
23.8144 71.966904 57.471802
23.9846 71.2192 54.929298
24.307699 65.577103 53.735401
23.240299 72.028999 55.402901
23.9307 70.475502 52.5247
24.154699 69.657204 52.3325
24.677099 67.318604 51.820999
24.242701 65.4683 51.521099
23.025999 64.145798 58.291801
22.9641 73.901901 59.249298
22.799801 73.505997 57.9212
22.9916 64.156502 55.8055
23.5082 71.102303 52.806499
23.0473 64.130302 53.547699
23.761499 69.2052 50.487202
23.901699 67.123199 50.047798
23.6332 65.4897 49.784599
22.458599 73.311699 55.954899
22.6966 71.986099 53.313202
22.965599 64.2201 51.4422
22.632299 64.321503 49.781502
23.458 70.023003 50.672001
23.103001 70.742897 50.884201
23.121401 68.840103 48.806499
23.336 66.9105 48.4589
23.0769 65.470802 48.276501
22.3043 64.3797 48.313999
22.129601 73.288498 53.822399
23.0135 66.560303 46.355099
22.7834 65.3414 46.496498
22.8752 68.134399 46.514702
22.4182 71.653603 51.261799
22.103701 64.324898 46.537399
23.093901 69.324898 48.8727
22.823099 70.254204 49.033001
22.7439 67.749001 44.194599
22.8396 66.310799 44.014702
22.7192 64.862801 43.924099
21.587099 63.3228 58.334301
21.5585 63.160999 55.9132
21.5068 63.3176 53.528599
22.5026 69.650902 46.860699
21.428101 63.466801 51.514599
22.3438 69.374496 44.404999
21.471201 75.808403 59.3745
21.313999 75.105698 58.105999
22.2316 71.027802 49.2831
21.952999 63.847 43.984501
21.854799 72.994102 51.767799
22.716299 65.719398 40.829201
22.6262 67.245399 40.957001
22.5583 64.252296 40.807899
21.460199 74.532898 56.524601
21.292601 63.603802 49.926601
21.9538 70.465103 47.144901
22.1054 69.079597 41.189701
21.172501 63.684399 48.483299
21.775499 63.248699 40.882301
22.59 65.003601 37.084702
22.499599 66.521896 37.125
22.394199 63.5481 37.179199
21.6481 70.108704 44.635101
21.635 72.393501 49.713001
21.8813 68.327797 37.239498
21.381599 69.925301 41.473701
21.0966 63.645699 46.6745
21.366899 74.370003 54.369999
21.5986 62.6758 37.3367
22.419399 64.483299 33.2701
22.3288 66.066299 32.906502
22.195299 62.999599 33.689098
21.408701 71.591698 47.4865
21.1049 69.226402 37.470001
20.932501 63.131199 44.080299
21.686899 67.994202 32.730099
21.422701 62.272202 34.122002
22.2885 63.954899 30.491699
22.0289 62.625401 31.2411
22.244801 65.500999 29.7264
21.7687 67.465302 28.936199
20.7395 62.661499 41.004501
21.2108 74.021797 52.231499
21.249599 61.9445 31.8964
21.2269 71.205902 44.803902
20.942101 68.863503 32.811401
20.624701 77.364998 59.366001
21.0198 68.659897 28.486099
20.542299 62.1394 37.5294
20.148899 62.922199 58.437401
20.1094 62.928299 55.976002
20.0581 63.046001 53.566299
21.025999 70.882103 41.6035
19.934999 63.153 51.6082
20.3794 61.748798 34.470501
20.464899 76.522903 58.1549
21.058399 73.427597 50.070999
19.9809 63.262001 50.052502
20.2017 61.4445 32.3899
19.9963 63.3461 48.520901
20.8391 70.216003 37.737999
20.657301 75.675301 56.7005
20.9163 72.6315 47.7174
19.909599 63.069199 46.821999
20.6504 75.240898 54.735298
20.7736 72.118103 44.9944
19.767599 62.7117 44.212399
20.0791 78.397697 59.282902
20.681801 69.9655 32.994598
20.620701 71.663902 41.769798
19.599899 62.285 41.117599
20.561701 74.601196 52.477402
20.468399 73.8936 50.156502
20.3717 73.141998 47.648701
20.677999 69.844101 28.3713
20.2666 72.515297 44.828499
19.430401 61.803101 37.651798
20.154499 71.945396 41.582699
20.482 71.130699 37.879101
19.308201 61.448399 34.603802
20.028299 77.523201 58.134102
19.161501 61.179699 32.473701
20.0481 71.543999 37.715401
20.374001 70.893898 33.1329
19.976 76.486504 56.716801
19.940599 75.6586 54.882401
19.9114 74.892601 52.612202
19.158701 78.7117 59.248699
20.349701 70.796097 28.3461
19.9589 71.261299 33.316898
18.7875 62.9426 58.469501
19.880699 74.068001 50.2006
19.834299 73.2658 47.590698
19.7705 72.566704 44.704498
18.671301 62.9342 56.0112
18.559401 63.036499 53.6092
19.9037 70.983002 28.794399
18.4352 63.118401 51.6474
19.6947 71.937302 41.463902
18.6234 63.215698 50.063801
19.198799 77.878601 58.114799
18.795401 63.262299 48.522202
18.946199 63.177898 46.641701
18.8433 62.865601 44.191898
19.181601 76.727501 56.762501
19.219101 75.708099 54.977798
18.7148 62.473701 41.0769
19.2719 74.815399 52.680599
19.615 71.525703 37.707001
19.313299 73.916801 50.2173
18.585699 62.0271 37.569302
19.3225 73.090103 47.5555
19.301399 72.368896 44.638199
18.431999 61.602402 34.459
19.535999 71.205101 33.559601
19.259001 71.719902 41.416401
18.2857 61.3009 32.234299
19.4599 70.859703 29.2623
19.855499 70.355499 24.4863
20.3209 70.007401 24.242399
19.3724 70.298897 24.973101
19.2019 71.230904 37.811501
19.128901 70.890602 33.8703
19.030399 70.5224 29.8013
18.8869 70.011101 25.677
18.518101 75.299896 55.0438
18.3717 76.283798 56.902199
18.308399 77.337502 58.2677
18.2015 78.141602 59.382999
18.6621 74.393997 52.724602
18.775499 73.512802 50.244202
18.838499 72.718102 47.571201
18.8585 72.017799 44.652401
18.8472 71.3797 41.452999
17.837099 62.833801 41.039501
18.0175 63.235298 44.0672
17.9387 63.399601 46.613701
17.6422 63.523899 48.504799
18.811199 70.7826 37.997601
17.440201 63.277199 58.563301
17.302401 63.486401 50.081902
18.744301 70.443901 34.219601
16.9751 63.3881 51.751499
17.128799 63.182499 56.074001
17.007099 63.263199 53.701199
17.6469 62.392799 37.502701
18.625299 70.069504 30.4025
17.4757 62.019901 34.237
18.4182 69.5737 26.631701
17.303699 61.753201 31.8894
18.369499 72.191902 47.642502
18.4251 71.541901 44.742199
18.443501 70.936096 41.556099
18.267 72.913002 50.293999
18.106199 73.697601 52.759399
18.432699 70.353401 38.1301
18.382999 69.907097 34.5411
17.8981 74.496696 55.079102
17.686199 75.307198 57.096401
17.624901 76.242104 58.4823
18.268101 69.566002 30.9884
17.482201 77.001602 59.6035
18.0077 69.051201 27.9795
17.893801 71.519798 47.752201
17.9783 70.937401 44.884499
18.0256 70.381302 41.693501
18.046301 69.8367 38.225601
18.0327 69.3311 34.672199
17.775999 72.151299 50.3531
17.201799 63.838001 44.039101
17.0497 63.4589 40.9552
17.080999 63.994099 46.616402
17.997999 69.120102 31.119499
17.6092 72.806396 52.776199
16.838499 64.201103 48.556702
17.3685 73.436996 55.065399
17.635 69.195999 38.241402
17.6394 68.743301 34.543999
17.5823 69.678497 41.7812
16.282 64.252296 50.235699
17.114599 74.008797 57.266102
16.889999 63.018398 37.391399
17.5044 70.161903 44.997799
17.387501 70.665001 47.821999
17.6194 68.436501 30.9217
15.7073 64.095299 51.971001
17.6124 68.362396 27.4258
17.2318 68.430099 38.160801
17.1367 68.800301 41.723499
17.2281 68.053902 34.303001
16.9984 74.630997 58.696301
17.277901 71.221901 50.349701
16.740299 62.713799 33.979599
16.068001 64.015099 58.757702
17.158701 71.774597 52.728802
16.8925 72.284401 54.969398
16.875799 75.325203 59.844799
15.5899 64.054199 53.997101
17.191799 67.644302 30.6192
16.594 62.503201 31.441401
17.0243 69.175499 45.006001
16.842501 69.579102 47.775799
15.8353 63.941502 56.261398
16.6049 72.766403 57.132
16.748699 70.093399 50.198601
16.749599 70.578598 52.567299
16.9032 67.615601 38.135601
16.8515 67.340202 34.014702
16.7428 67.842697 41.599899
16.5944 64.539101 40.957802
16.652901 64.7313 44.036201
16.5187 64.899696 46.618301
16.3696 71.011497 54.733101
16.2535 73.260002 58.6744
16.247801 65.096603 48.633499
16.8015 66.912498 30.2854
16.4758 64.205704 37.4076
15.6231 65.185997 50.459702
16.681101 68.080399 44.657398
15.9224 73.872101 59.822899
16.4748 68.362 47.3992
15.9627 71.435501 56.719799
16.568199 66.5709 37.865002
16.482401 66.695602 41.3265
16.5219 66.416397 33.8246
14.8465 65.1912 52.3922
16.4107 63.943001 33.808701
16.3272 68.756599 49.8036
16.3484 63.6968 31.0413
16.4585 65.790497 30.5235
16.152 69.060997 52.063301
15.6627 69.439697 54.220001
16.459499 66.875198 44.3671
16.368 67.172897 47.042
16.4188 65.791603 44.153099
16.4161 65.558502 41.094398
16.2997 66.020401 46.773998
15.6893 71.819603 58.5592
16.421801 65.298302 37.567402
16.351 65.191101 33.781101
14.7297 65.240196 54.4813
16.011801 66.239098 48.921902
15.9697 67.476196 49.342899
16.3419 65.021797 30.7019
15.3406 66.394798 50.920799
15.6688 67.6978 51.537998
15.0313 67.933998 53.675499
14.7789 65.176804 56.6157
14.9187 65.1698 59.064201
15.2943 69.794601 56.215199
15.3721 72.145203 59.799198
14.7216 66.569099 53.008099
15.0906 70.014603 58.156399
14.7609 68.238197 55.696098
14.5025 66.730499 55.110699
14.9049 70.077202 59.855701
14.4114 66.755898 57.131199
14.615 68.354301 57.687
14.4532 68.340797 59.706001
14.2401 66.688599 59.424801
23.158001 62.0998 18.2973
23.228201 62.3064 19.2334
23.3349 63.783798 17.2705
23.2544 63.122101 16.42
22.8634 64.568703 14.9827
22.791 63.885601 14.3077
23.071199 64.297203 18.3892
22.6145 65.399101 15.7532
23.024599 62.593102 20.3283
22.6357 60.7957 20.0163
22.640301 61.116001 20.9408
22.5233 61.493698 21.887501
23.021299 62.579601 15.8183
23.007999 61.762299 17.688299
22.549101 63.305698 13.9174
22.616301 60.533298 19.1359
22.5033 64.921501 19.494101
22.622601 63.124802 21.4638
22.133499 66.195396 16.836399
22.2995 61.973301 22.935801
22.2449 62.7286 13.713
22.7087 62.115101 15.3898
22.854 61.2075 17.1147
22.6306 60.207401 18.4196
22.0665 65.306297 13.3248
21.9744 64.6791 12.7638
21.8517 66.026001 13.9893
21.731899 64.094002 12.368
22.6171 60.677799 16.8284
22.430799 59.984699 18.0014
22.355301 61.3671 15.3864
22.322001 63.830898 22.545799
22.1696 62.4254 24.0569
22.1336 65.587502 20.575399
21.8634 59.609501 21.376699
21.853901 60.0219 22.321699
21.7995 60.448299 23.262501
21.3829 66.976799 14.9189
21.886 59.382301 20.3249
21.9804 61.928902 14.0439
21.7055 60.945099 24.2099
21.9543 59.158699 19.3997
21.741199 66.808197 18.2495
21.8276 59.069 18.853901
21.400101 63.639099 11.9981
22.107401 62.990002 25.523001
22.1707 64.4049 24.3389
21.9513 66.085999 22.7684
21.655899 61.474499 25.247999
21.7442 61.880402 26.8706
22.2012 64.843002 26.819799
22.1917 63.41 27.906401
21.882601 66.604301 25.6633
21.8834 62.254902 28.955601
21.1255 67.872803 16.8818
21.099501 67.2314 21.316601
21.257 62.709801 12.4781
21.002399 66.103897 12.077
20.927099 65.5308 11.6568
20.8139 66.822601 12.6039
21.0837 67.830299 24.778299
21.0669 61.5774 29.7747
20.7026 65.0495 11.346
20.7416 58.696701 22.3694
20.7644 59.148998 23.3346
20.772499 59.5965 24.246901
20.8883 61.1003 27.7675
20.737499 58.455101 21.250799
20.739799 58.2444 20.2717
20.5646 58.134998 19.6325
20.488701 67.453201 13.9241
20.7561 60.075199 25.173901
20.7903 68.346298 20.250799
20.7679 60.618698 26.239901
20.441099 64.720596 11.1451
20.429701 68.3937 16.784201
19.997499 61.092602 30.1938
20.418301 63.6259 11.5847
20.343399 69.023903 20.185801
19.798599 60.575199 28.1994
20.7027 69.132103 24.308001
20.3081 66.518997 11.5529
20.1759 67.167702 12.1679
20.202 65.939598 11.1772
19.6273 60.060398 26.739901
19.807301 65.361702 10.7821
19.591 59.540401 25.700701
19.7983 67.623802 13.6206
19.534401 59.078098 24.808001
19.4552 58.638 23.878799
19.4062 58.195 22.9265
19.381701 57.937199 21.7652
19.350901 57.751099 20.824301
19.287399 57.696999 20.071501
19.439199 65.0355 10.9456
18.9755 60.858101 30.2031
19.789801 68.590401 16.835501
19.816799 69.322197 20.344299
19.323999 64.212799 11.2293
20.1178 66.6558 11.2036
20.0259 66.082703 10.8924
20.027 67.299797 11.7229
18.805401 60.3801 28.202999
19.7059 65.525299 10.6058
19.7243 67.646896 12.6971
19.908501 66.510597 10.4395
19.8594 66.136803 10.3293
19.8375 66.923103 10.6472
19.697599 67.279503 10.9044
19.6465 65.857101 10.3057
18.6222 59.845798 26.665899
19.7153 66.474297 10.3173
19.688101 66.128197 10.2408
19.6616 66.831299 10.4885
19.593399 65.893204 10.2376
19.611799 67.096901 10.6771
19.262699 69.303299 20.747999
19.1299 68.494598 17.124701
18.9893 67.613297 13.6474
19.0882 67.636002 12.7188
18.9911 65.333298 10.7919
19.072599 65.502296 10.618
19.1168 67.253899 10.9466
19.1369 66.443901 10.3405
19.1516 66.099602 10.2616
19.1141 66.7995 10.5187
19.1847 67.075401 10.7086
19.1884 65.832397 10.3208
19.2516 65.868896 10.2546
18.408899 59.336201 25.719999
18.2661 58.941399 24.765699
18.111 60.950001 30.0044
18.0858 58.6404 23.766701
18.0147 58.261398 22.7323
18.689301 69.162804 21.485201
18.363701 64.956299 10.8644
18.225201 65.354599 10.9788
18.173401 63.958698 11.2476
17.9848 58.0186 21.638901
18.0117 57.831902 20.7628
18.456301 68.2612 17.820101
18.0233 57.776199 19.991301
18.966299 66.111397 10.3491
17.9485 60.483398 27.933201
18.298599 67.439697 13.9374
18.902 66.8965 10.6826
18.714899 66.035202 10.9095
18.929701 66.483498 10.4657
18.8237 67.295898 11.7051
18.695801 67.170197 12.0962
18.564501 65.931198 11.1188
18.0564 65.788696 11.2583
17.6915 59.8908 26.4468
18.107401 66.919098 12.3034
18.590599 66.637901 11.2021
18.117001 68.845802 22.6805
18.4247 66.508698 11.5033
17.8946 66.294502 11.6866
17.676201 67.810898 19.5424
17.4111 59.518799 25.4461
17.1113 61.445301 29.5133
17.291901 66.967201 14.8199
16.877001 60.999199 27.1171
17.15 59.185398 24.3913
17.218 64.1464 11.5335
16.963499 64.5327 11.8981
17.073601 63.2341 11.8725
16.926399 66.026497 13.4252
16.696899 59.133499 23.167999
16.8302 64.982697 12.2661
17.691 68.400398 24.0333
16.7904 65.469597 12.757
16.864901 60.233299 25.968901
16.631201 58.8158 22.0338
16.5944 58.277199 19.329201
16.5082 58.344002 20.01
16.579399 58.6222 20.914801
16.581699 60.050201 25.034599
17.122299 67.353996 27.128799
16.4263 62.263 28.8909
17.0581 67.210297 23.567101
16.879601 66.877701 20.1292
16.375401 66.224403 16.768
16.419901 59.625999 23.941601
16.2572 62.056099 26.3957
15.8616 63.374001 12.6259
15.602 63.8582 13.0813
16.067499 62.6194 12.6081
15.7217 65.344101 15.1108
16.6665 66.194801 27.216101
16.580299 65.937302 24.1029
15.4393 64.317497 13.6202
16.4144 65.798599 21.142401
15.4429 64.779503 14.3284
16.552999 60.468201 25.688101
15.9084 61.9739 24.5177
16.2302 60.984798 25.221201
15.7653 64.990601 19.8284
16.3032 64.947998 27.7997
15.6307 59.159698 18.3806
16.200701 63.351398 28.315701
15.3878 59.916302 20.858299
15.4286 60.137199 21.937901
15.5059 60.513599 22.9702
16.252501 64.654198 24.9181
15.3904 59.746601 19.7199
15.3489 59.424599 18.751801
15.8484 60.823299 24.0553
16.1611 64.687798 22.229401
16.091499 63.150101 25.712999
14.9797 64.589401 18.112499
15.2974 61.913502 13.9684
15.8974 63.156898 23.5404
15.3282 61.8862 22.996901
15.0215 62.5784 14.3661
15.3029 63.023201 21.785601
15.0725 60.0261 16.906601
14.7284 63.1007 15.038
14.7762 61.658501 21.6952
14.7426 60.563702 17.405199
14.881 60.959801 15.4529
14.5393 64.073997 16.7551
14.5654 63.542999 15.8645
14.6303 62.797798 20.285101
14.5196 61.442001 20.5856
14.5945 61.555199 16.0872
14.4959 61.296501 19.4667
14.599 61.154202 18.4536
14.3724 62.1898 17.0168
14.2313 62.677299 19.061199
14.2409 62.587601 17.931499
23.2395 56.082699 8.1768999
22.5415 57.4995 9.3396502
22.346399 58.514099 8.4233503
23.119499 57.631802 7.1553302
24.3783 56.565102 5.7051301
24.502899 55.249199 6.35321
23.1644 55.295898 8.71807
22.582399 56.4006 9.9203997
24.375401 54.055199 7.0706201
22.8295 53.8829 9.6497297
22.339199 54.986099 10.9408
23.883101 52.9487 7.8253498
14.5166 55.832199 7.23072
14.4175 56.625801 6.8162098
15.0219 56.812199 8.3775101
14.3746 57.797199 6.3408699
15.1075 58.6572 7.6310701
13.449 55.376598 5.6538401
13.4139 56.699501 5.1033201
13.6459 54.353199 6.1834202
14.8396 54.454399 7.7915702
14.0112 53.126598 6.8632798
15.3976 55.705101 8.9259996
22.2677 53.003799 10.2608
21.8407 53.897099 11.7567
23.277599 51.871899 8.53619
21.863501 52.5923 10.525
21.115499 52.073399 10.9182
20.844999 53.198502 12.359
22.5207 51.054501 8.9283895
21.703501 50.3629 9.2948704
20.576401 51.853001 10.9717
19.489799 52.9048 12.4463
19.600599 51.648998 11.0681
20.787701 50.003899 9.45959
19.8417 49.815701 9.6083403
15.6476 54.977901 9.2683096
15.3097 53.721401 8.3354101
14.6108 52.464699 7.4166098
16.4583 52.529499 9.3525801
15.8922 53.141499 8.8405199
16.0452 54.1222 9.9499502
16.622 53.400299 10.6787
15.2624 51.5495 7.9113998
16.000601 50.850399 8.3787203
17.985201 51.772099 10.6497
17.0436 52.171101 9.783
18.018 52.8162 11.8212
16.919201 50.271801 8.90376
17.898001 49.925098 9.3501196
19.042601 51.687302 10.9512
18.870199 49.763901 9.5036097
15.883 49.694099 7.4685798
16.834 49.281601 7.7355399
16.8356 49.036999 7.3808098
15.8859 49.429901 7.1325202
17.844601 49.0947 7.9597702
17.8458 48.879501 7.5809202
14.3948 51.1049 6.6732001
15.1066 50.2799 7.0924101
15.0938 50.002899 6.7768402
14.3673 50.812599 6.3552399
13.4702 53.195499 5.5399499
13.8254 51.8531 6.1897702
13.7811 51.578602 5.8555999
13.4061 52.946098 5.2016401
13.1436 55.8722 4.1261001
13.2343 54.360401 4.8326898
13.161 54.148201 4.4809899
13.0649 55.6572 3.7464199
13.7512 59.921799 2.3859501
13.3927 58.044201 3.1608
13.314 57.894402 2.7662599
13.6954 59.769001 1.94138
13.7519 58.68 4.1494098
14.2086 60.5578 3.53916
14.9865 62.093102 1.41273
15.356 62.001202 3.1583099
14.907 62.130699 0.81871098
16.424101 62.1376 3.0343499
16.415199 61.9547 0.77642202
16.4095 61.686798 0.231433
17.806101 60.908901 0.487124
17.548901 61.895599 3.0114801
17.8472 60.4259 -0.086833999
19.364901 60.2458 -0.10503
19.3484 60.765202 0.52438301
19.386999 61.678501 2.8842299
20.890499 61.357101 0.45879301
20.8701 61.700802 1.064
20.8148 61.981098 3.33461
22.5425 61.590801 1.34241
22.4739 61.589401 1.95148
22.085199 61.673302 3.6773801
24.0737 58.851002 2.7039599
23.9872 59.003399 3.0888
23.266899 59.918201 4.2795501
25.056101 55.197498 4.8186798
24.611099 57.212002 3.85132
24.728901 57.0448 3.4851
25.193199 55.0103 4.4714899
23.8757 58.2136 4.9365602
24.9643 52.7108 6.0690999
25.143801 53.9618 5.4493999
25.2775 53.7631 5.1005502
25.095301 52.491699 5.7124801
23.726101 50.733101 7.1041298
24.4065 51.6898 6.6368699
24.5077 51.464802 6.2678099
23.7974 50.490101 6.7347598
21.906601 49.474899 7.76794
22.8409 50.045799 7.45015
22.882999 49.819901 7.0864
21.916401 49.2756 7.3951201
19.901199 48.965599 8.0845003
20.9191 49.125702 7.9428201
20.9217 48.9268 7.5613899
19.894899 48.774799 7.6887202
18.870199 48.922199 8.0452995
18.867701 48.718399 7.6571298
15.0786 60.0009 5.5285201
15.8281 61.019798 5.38902
16.674601 61.405998 5.4127002
17.708799 61.490398 5.4006901
19.4674 61.491501 5.3821301
20.586201 61.243801 5.5022101
21.5124 60.756199 5.6986098
22.2854 59.542801 6.1762099
21.7199 59.497898 7.6476302
22.0539 55.840199 12.458
22.299101 56.894001 11.2945
22.2351 57.6385 10.8046
22.248501 58.061298 13.4564
22.1388 58.6367 13.0453
21.955099 57.339298 14.7016
22.007 59.045601 12.4357
22.144899 58.109299 10.3777
21.9468 58.794601 9.8061304
21.808599 59.422001 11.8558
21.571301 54.9823 13.4824
21.4967 56.623699 15.5986
21.4086 59.618301 9.1059799
21.269899 59.955399 10.9272
20.9827 60.354801 7.2964301
20.649799 54.5154 14.1527
20.552601 56.194 16.3386
20.4807 60.672401 8.5032701
20.3325 60.754799 10.2124
20.3183 60.805901 7.0576801
19.373301 54.098301 14.1088
19.2701 55.793499 16.3487
19.3466 61.105099 7.0161099
19.277 61.1353 8.4302902
19.1768 61.282902 9.8731203
17.973301 61.243698 7.01263
18.018299 53.943901 13.4743
17.9988 55.671501 15.8312
18.008499 61.166698 8.3545504
17.986799 61.200199 9.7097397
16.856501 60.784401 8.1049099
17.0387 61.075699 6.9175701
16.9112 60.673 9.8501701
16.7335 54.168098 12.2534
16.7488 55.796299 14.9042
16.3871 60.698299 6.89679
16.003401 59.869701 8.5711298
15.691 59.993198 7.0852299
16.108 59.9711 10.3104
16.035601 54.9468 11.2724
16.0758 56.308998 13.8846
15.5726 58.719799 9.1160297
15.7203 59.0112 11.04
15.8737 55.697201 10.6596
15.9384 56.9202 13.0609
15.6527 56.439499 10.2469
15.703 57.469101 12.3858
15.4647 57.275398 9.7775698
15.5582 58.028301 11.779
22.434999 59.499001 15.6225
22.182899 58.823002 16.577101
22.196699 60.1059 15.0916
21.6078 58.081402 17.4377
21.812201 60.8144 13.6637
22.0191 60.507801 14.4732
21.1658 61.372299 12.521
20.532801 57.520401 18.156401
20.343201 62.196098 11.6374
19.262899 57.187 18.430901
19.2644 62.749401 11.1637
18.0809 62.5811 11.2475
18.005899 57.222599 18.233299
16.9547 62.010799 11.439
16.717899 57.501202 17.582199
16.124599 61.2631 11.9389
15.9256 58.161201 16.574301
15.5066 60.600899 12.9627
15.6921 58.693699 15.5294
15.5187 59.0518 15.0774
15.2153 59.688599 13.9653
21.7792 49.2771 6.9689898
20.805401 48.923302 7.13485
19.8002 48.7719 7.2547102
20.801201 48.845798 7.00353
19.795 48.692001 7.1187
21.7745 49.202999 6.8434401
23.666201 50.439201 6.3487401
22.7479 49.784698 6.6867499
22.7488 49.706402 6.5683198
23.6738 50.3652 6.2283702
24.954399 52.339901 5.3910298
24.3724 51.368301 5.9090099
24.383699 51.300701 5.7859702
24.9657 52.272499 5.27246
25.004999 54.8372 4.2075
25.1143 53.6031 4.8085999
25.122 53.540901 4.6932402
25.012899 54.783401 4.0926299
23.8325 58.767399 2.3829999
24.5105 56.902401 3.18697
24.517799 56.837601 3.06744
23.8318 58.7052 2.2728701
22.2957 61.2374 0.97097301
22.2694 61.1413 0.86456001
20.754101 60.806099 0.071168996
20.7411 60.649799 -0.063644998
19.328899 59.649399 -0.39398
19.325199 59.521 -0.479846
17.9081 59.8368 -0.38496199
17.9177 59.719601 -0.465031
16.547899 61.102001 -0.203697
16.567499 60.968899 -0.316046
15.1669 61.6259 0.35229099
15.2036 61.514301 0.25588
13.9771 59.432499 1.56022
13.9944 59.310101 1.46146
13.2825 55.338299 3.4168999
13.5594 57.5835 2.4029801
13.5591 57.4604 2.27894
13.2719 55.219799 3.30126
13.6142 52.712002 4.88658
13.3701 53.894901 4.1617298
13.3611 53.7771 4.0457201
13.6067 52.5937 4.7775002
14.6211 50.686001 5.9807301
14.0066 51.402401 5.5079198
14.006 51.2962 5.39217
14.6277 50.589298 5.8588099
16.0826 49.3792 6.70262
15.3157 49.907799 6.36832
15.3245 49.813202 6.2444701
16.092199 49.2911 6.5691099
17.8836 48.841 7.13936
16.952299 48.9921 6.9461699
16.9578 48.9034 6.8106699
17.885 48.751999 7.0028801
18.8393 48.697102 7.2202001
18.8374 48.612499 7.0838199
15.7961 47.935001 5.05796
16.739401 47.505199 5.2718
17.750999 47.282299 5.4264302
14.203 49.3414 4.41606
14.9517 48.531799 4.7704101
13.1283 51.441101 3.46997
13.5618 50.198399 3.9972899
12.8268 54.3438 2.13464
12.8805 52.741501 2.80568
13.6689 58.522999 0.48841101
13.1288 56.313999 1.22023
14.9369 61.080898 -0.35389
16.393299 60.6115 -0.91259003
17.8592 59.3815 -0.89258802
19.377199 59.135201 -0.88345402
20.896 60.196701 -0.69362098
22.559099 60.4702 -0.012804
24.142099 58.0658 1.14889
25.509199 54.125198 2.7890999
24.9713 55.9692 1.92667
25.468901 51.231701 3.9484999
25.6495 52.626701 3.3761001
24.115499 49.141201 4.76966
24.8876 50.119801 4.3998799
22.0945 47.834702 5.2934599
23.1504 48.401501 5.0634098
19.8925 47.236301 5.5183201
21.0091 47.436298 5.4337201
18.813299 47.161999 5.50179
25.2929 55.144199 -1.87851
25.248699 54.939602 -2.3496399
23.4618 57.118301 -2.8961899
23.5144 57.521198 -2.4997499
23.066401 57.452801 -2.84022
23.110399 57.845501 -2.4105899
21.8078 58.253101 -2.1221199
21.8472 57.9981 -2.1621101
20.8265 57.747101 -2.0228701
20.3554 58.047901 -1.89376
18.5846 57.390301 -1.88643
18.559401 57.789501 -1.85068
16.7966 58.181301 -2.0025401
16.490499 57.722099 -2.1096799
15.7635 57.800598 -2.2075601
15.7474 58.206501 -2.1814101
14.6563 57.659801 -2.9533801
14.6161 58.168598 -2.58376
14.1517 57.166 -2.97791
14.1075 57.754501 -2.6233001
12.928 55.0905 -2.4242899
12.8781 55.302299 -2.00157
12.0441 51.1964 -1.17581
12.3595 53.251099 -1.59043
12.4126 53.060501 -2.03141
12.0956 51.0289 -1.63857
12.2047 47.191101 -0.45693901
12.0335 49.194099 -0.81814402
12.0665 49.0042 -1.28073
12.2124 46.976299 -0.92251199
13.4157 44.478802 -0.0078480002
12.6832 45.742699 -0.21498901
12.6671 45.521599 -0.68824899
13.3757 44.251499 -0.48879701
15.2646 42.8097 0.256239
14.268 43.541 0.142184
14.2277 43.310799 -0.34574899
15.2231 42.575802 -0.238841
17.530701 41.852299 0.41263199
16.3638 42.2276 0.352106
16.337299 41.9758 -0.14425901
17.5203 41.587898 -0.084728003
18.8335 41.3876 -0.047247
20.151699 41.391602 -0.044193
20.140301 41.666199 0.45745301
18.833099 41.658699 0.45222601
22.8102 42.336102 0.369683
21.518499 41.851101 0.439594
21.5438 41.5825 -0.064080998
22.8505 42.068802 -0.13634799
25.168699 43.923698 0.12322
24.0769 43.000702 0.26901701
24.116199 42.732899 -0.232136
25.209499 43.651001 -0.373523
26.579 46.8004 -0.40616301
26.0166 45.264198 -0.116698
26.0481 44.993999 -0.601749
26.583401 46.5368 -0.88897598
26.703199 50.9604 -1.09401
26.8269 48.8722 -0.73086202
26.7966 48.6404 -1.22391
26.655899 50.755798 -1.58508
26.120701 53.053398 -1.48625
26.0741 52.848099 -1.96668
24.9855 54.638 -2.62626
24.6738 54.404598 -2.5885
22.9984 56.3125 -2.9479799
23.2586 56.672501 -3.13921
22.700899 56.5793 -3.0010099
22.878401 56.9799 -3.0700901
21.856501 57.559399 -2.2070501
21.820299 57.055199 -2.26653
21.124399 56.868 -2.10092
21.073299 57.3564 -2.0940599
18.736099 56.492901 -1.92409
18.6499 56.9935 -1.91153
16.510799 57.2481 -2.13445
16.611601 56.7225 -2.09203
15.9548 56.8619 -2.18538
15.8533 57.424099 -2.1926701
15.0653 56.697701 -3.0446999
14.8768 57.083801 -3.12396
14.693 56.221298 -2.9679
14.3108 56.6847 -3.1294601
13.5199 54.421902 -2.5952499
13.1369 54.7299 -2.6460299
12.3506 50.858601 -1.92852
12.6455 52.794998 -2.28654
13.0871 52.602901 -2.2435901
12.8549 50.801998 -1.79763
12.4773 46.976898 -1.26431
12.3254 48.918098 -1.59697
12.8266 49.003101 -1.4391201
12.9685 47.202801 -1.16907
13.5986 44.353699 -0.86182803
12.9111 45.573101 -1.0456899
13.3359 45.8811 -1.01847
13.9155 44.684299 -0.90720701
15.3664 42.737801 -0.63231802
14.4105 43.442501 -0.72923201
14.6849 43.836201 -0.79275399
15.5579 43.125 -0.69760102
17.5734 41.786201 -0.49092701
16.4361 42.158901 -0.54370999
16.5576 42.535301 -0.60853499
17.634899 42.143002 -0.55178601
20.1035 41.597198 -0.45505199
18.8361 41.5914 -0.45573899
18.8451 42.0009 -0.52574098
20.0548 41.986198 -0.521631
22.689301 42.2421 -0.541749
21.4398 41.768902 -0.472482
21.328699 42.154202 -0.53895903
22.5051 42.638401 -0.61077499
24.9445 43.751202 -0.76285601
23.9035 42.868599 -0.62955201
23.6395 43.258801 -0.69852501
24.6119 44.104801 -0.82637101
26.2882 46.533798 -1.24031
25.770399 45.0439 -0.96940303
25.4202 45.302299 -1.0166301
25.899401 46.720501 -1.27099
26.3402 50.6152 -1.90598
26.494101 48.568401 -1.5561
26.1213 48.6423 -1.57245
25.9524 50.584801 -1.90479
25.784201 52.626801 -2.26493
25.446501 52.498402 -2.2463801
25.7185 46.916599 -0.781407
25.8894 48.755402 -1.02562
25.7691 50.664799 -1.27636
21.291901 50.7794 -0.89745599
21.810499 51.722801 -1.09468
24.430599 44.3825 -0.43375301
25.187901 45.527599 -0.59217
20.888599 49.438099 -0.62784702
22.392 42.925301 -0.22477201
23.441601 43.564201 -0.317536
20.626699 48.379002 -0.43870699
20.0112 42.346199 -0.113566
21.2117 42.540699 -0.15640201
19.539 46.613899 -0.26459399
17.687 42.474899 -0.111582
18.8507 42.304001 -0.098471001
17.7279 48.122799 -0.38833401
15.6969 43.437801 -0.213891
16.6339 42.8563 -0.150967
17.414801 48.7659 -0.49849701
14.0841 44.907001 -0.39767101
14.7944 44.078899 -0.29670399
17.2293 49.173 -0.57848603
13.1908 47.382 -0.69003999
13.4749 46.104198 -0.54045302
16.9014 50.1478 -0.76405102
13.1491 50.8036 -1.13331
13.1113 49.131302 -0.90890402
16.1922 51.155499 -0.969625
13.8381 54.268398 -1.68085
13.3633 52.573002 -1.40303
15.3629 53.043999 -1.33596
14.8122 56.062 -1.92731
15.0474 55.660599 -1.8753
15.0776 56.170101 -2.0086801
15.3403 55.919899 -1.91208
15.9884 56.407101 -2.0845699
15.9122 55.681 -1.96627
16.632 56.142502 -2.0321
16.516899 55.310101 -2.0077
18.816999 55.7715 -1.93845
18.8584 54.783298 -1.95046
21.233299 56.181499 -2.0720501
21.3979 55.278702 -2.0122499
21.9655 56.539398 -2.1388199
22.018299 55.614399 -1.92307
22.6322 56.227798 -2.03104
22.4338 55.839001 -1.95068
22.8736 56.0476 -1.98168
22.733801 55.654301 -1.92813
24.4872 54.352299 -1.76635
22.614901 53.472301 -1.4594899
25.2854 52.495701 -1.5179501
21.2414 51.885899 -1.08557
22.0173 53.415001 -1.4107701
20.4951 49.826199 -0.65330702
20.355101 48.9729 -0.49173301
19.299101 46.939602 -0.272122
17.988001 48.619598 -0.42353499
17.6618 49.585098 -0.60606903
19.9813 49.3186 -1.00586
21.1005 53.4506 -1.7509201
19.126499 47.641499 -0.68924499
18.8929 53.518902 -1.76079
18.275801 49.052898 -0.93958801
16.6129 53.451401 -1.70243
16.626801 51.553398 -1.00877
15.8046 53.278198 -1.35436
14.1767 54.032001 -1.61301
13.7207 52.542301 -1.3681
13.4443 50.868 -1.1162
13.3411 49.238701 -0.90113503
13.4606 47.630199 -0.69299698
13.6722 46.395302 -0.55056602
14.2206 45.1535 -0.406122
14.9247 44.3634 -0.30639401
15.7821 43.772099 -0.227118
16.712999 43.253899 -0.16590901
17.6998 42.853401 -0.12614501
18.8929 42.674999 -0.112166
19.9617 42.6675 -0.124623
21.1751 42.858299 -0.16814101
22.292999 43.259899 -0.239099
23.317301 43.941002 -0.340345
24.2477 44.715 -0.46261799
24.9517 45.874699 -0.6178
25.4104 47.201698 -0.79192001
25.538601 48.9086 -1.00819
25.382799 50.783699 -1.25288
24.965799 52.404202 -1.47051
24.113501 54.1549 -1.71716
19.073999 49.847198 -1.10998
16.1194 53.417599 -1.56031
16.8659 51.6157 -1.24078
17.783199 49.697701 -0.90504903
18.078899 48.746201 -0.741669
19.2623 47.2006 -0.50078499
20.2356 49.105099 -0.82714301
20.3549 50.018002 -0.98828298
20.903 51.824001 -1.32085
21.5585 53.400398 -1.62879
18.806601 46.6255 -0.25822499
18.980301 46.923 -0.26884201
19.014299 47.185398 -0.49563801
17.179001 51.728298 -1.39031
18.950001 52.109699 -1.5079401
20.5422 51.9254 -1.46322
17.563601 54.951698 -1.96725
17.669701 53.512299 -1.74448
18.0063 51.936798 -1.4584301
19.820601 52.021801 -1.4934601
20.0555 53.479198 -1.76357
20.208799 54.8801 -1.98368
17.986799 49.958698 -1.08628
18.314699 50.635101 -1.22683
19.022301 50.853802 -1.28327
19.7206 50.766201 -1.26606
20.124701 50.210701 -1.15557
17.2656 50.679298 -0.83011001
17.476601 50.6623 -1.07335
17.6926 50.715801 -1.20902
20.255501 50.971699 -1.28459
20.505301 50.9669 -1.15931
20.753099 51.018101 -0.90263599
20.373301 47.693199 -0.35473499
19.995199 46.991501 -0.29576999
20.212299 48.133499 -0.37119699
19.6581 47.3241 -0.29602599
19.5714 47.529499 -0.55615902
20.056299 48.256199 -0.68142599
18.583599 48.259399 -0.81050003
18.378901 47.9897 -0.61710101
18.745399 47.4519 -0.53434598
18.375999 46.943802 -0.277419
18.0982 47.503899 -0.31358501
18.646 47.257301 -0.28442201
18.2938 47.889198 -0.32458299
19.747801 48.466 -0.86036098
19.108999 49.098999 -0.983459
19.5368 49.7449 -1.09314
19.3908 48.982899 -0.96513599
19.118401 48.601002 -0.898835
18.8531 48.8992 -0.94363201
18.6329 49.625301 -1.06137
20.0965 55.892601 -1.98851
19.953899 56.613499 -2.0004599
19.754 57.105202 -1.97094
19.382601 57.4828 -1.92975
17.821899 57.461102 -1.95459
17.6313 57.0429 -1.98564
17.606899 56.543598 -1.9748
17.6101 55.879299 -1.96269
23.524099 53.889099 -1.61581
22.7808 52.041 -1.21517
24.0627 52.254101 -1.3558199
24.312599 51.011799 -1.17497
22.8829 51.320999 -1.10189
22.882999 49.5135 -0.819915
24.191799 48.325199 -0.791619
22.893101 50.5037 -0.97174299
24.3312 49.790901 -1.00072
22.618299 48.6063 -0.65910602
23.731199 47.152599 -0.61713398
22.183001 47.7174 -0.51857799
23.215599 46.215199 -0.48633501
21.575199 46.863098 -0.39386401
22.4464 45.401798 -0.366009
21.657101 44.736801 -0.27640599
21.021099 46.214001 -0.314477
20.3885 45.613499 -0.25294599
20.781799 44.235802 -0.21045201
19.679899 45.298199 -0.21793699
19.820801 43.9827 -0.17122
18.864201 43.9916 -0.160667
18.835501 45.3083 -0.209131
17.925301 44.216599 -0.176173
18.1507 45.5798 -0.22643401
17.6366 46.086498 -0.26315501
17.174801 44.669998 -0.21422599
17.0627 46.634499 -0.319455
16.422501 45.202801 -0.272239
16.575701 47.093399 -0.38161501
15.7503 45.727901 -0.342314
16.102301 47.6987 -0.46939901
15.1626 46.433701 -0.435211
15.7863 48.527802 -0.59843302
14.7251 47.366299 -0.55415398
15.6375 49.4147 -0.74101502
14.4268 48.456299 -0.70074397
15.5532 50.411499 -0.891945
14.2984 49.736198 -0.87626398
15.4538 51.085999 -1.0023299
14.2671 50.970798 -1.05879
14.2834 52.4743 -1.30992
14.5764 53.760399 -1.53174
26.2026 52.6385 0.96556801
25.6215 54.511799 0.34997499
24.763 56.439098 -0.29624501
23.1971 58.950001 -1.14505
21.612301 59.187698 -1.59331
19.659599 58.312401 -1.41606
17.4513 58.5914 -1.44684
15.6231 59.512199 -1.80757
14.2124 59.249901 -1.50483
13.1136 56.629101 -0.73908901
12.5765 54.666901 -0.089144997
12.2742 52.763699 0.54303801
12.3256 51.019199 1.09969
12.5662 49.542801 1.57757
13.0308 48.151501 2.00951
13.707 47.183498 2.33763
14.5222 46.281502 2.62286
15.4404 45.604099 2.85971
16.481899 45.115002 3.04228
17.5979 44.827599 3.1608901
18.7971 44.688301 3.2289901
20.0156 44.7481 3.2464399
21.2633 45.010502 3.1935699
22.474199 45.481098 3.0876601
23.6308 46.131599 2.9100001
24.681999 46.947601 2.6570001
25.5291 48.014301 2.36374
26.165501 49.241699 1.97272
26.3489 50.888 1.4845999
33.192699 42.0145 142.436
33.3237 41.129902 146.953
32.627998 39.8619 152.674
33.1525 41.0513 142.442
33.279301 40.171001 146.978
32.574799 38.887901 152.714
33.061298 40.044498 142.45599
33.170799 39.141899 147.021
32.462898 37.8279 152.76801
32.593102 42.681599 138.47301
32.560902 41.716099 138.442
32.7826 37.1189 142.60699
32.8228 36.126301 147.29201
32.080799 34.699402 153.09399
32.476299 40.716999 138.429
32.222198 37.827499 138.468
32.701401 35.083 147.33501
32.6782 36.0998 142.623
31.957899 33.6241 153.147
30.972601 38.504601 158.515
32.125401 36.817902 138.459
32.551201 33.9767 147.407
32.5373 35.011299 142.67
31.813801 32.494701 153.21201
32.000301 35.748199 138.47
31.471901 43.214699 134.55901
30.942801 37.507099 158.563
31.438801 42.247398 134.494
30.8472 36.418201 158.61301
31.358601 41.252998 134.457
32.117599 31.791 142.948
32.091301 30.691999 147.798
31.3503 29.1327 153.584
31.635799 32.597698 138.595
31.1157 38.384201 134.396
30.485399 33.1964 158.92
31.0233 37.379398 134.367
30.8967 36.312099 134.366
31.9657 30.6936 142.998
31.5 31.517099 138.612
31.9321 29.5802 147.871
31.199301 28.0033 153.64301
30.3808 32.0905 158.96201
30.5261 33.176102 134.41901
31.7743 29.580601 143.07001
31.320499 30.4002 138.668
31.7365 28.473101 147.94901
30.268101 30.9391 158.97501
31.020599 26.9172 153.686
29.892599 27.511801 159.146
31.2027 26.2917 143.439
30.7911 27.0958 138.953
31.139099 25.2101 148.36099
30.4578 23.737101 153.991
30.391001 32.097198 134.42599
29.6663 43.629501 130.396
30.2332 30.980801 134.47501
29.618 42.667 130.29401
29.5368 41.666801 130.256
29.287399 38.7864 130.166
29.7777 26.367201 159.144
29.777 27.683001 134.702
30.598301 25.975401 139.022
30.9984 25.174601 143.519
30.930599 24.0986 148.44299
29.6507 25.309401 159.101
30.268101 22.644501 154.03
29.1959 37.777302 130.13901
28.454901 37.189301 163.729
29.0721 36.711498 130.146
29.225901 22.242001 159.12801
30.359501 24.857599 139.15401
30.743799 24.036301 143.64101
30.6721 22.949301 148.53799
28.438101 36.167999 163.735
28.3964 35.090199 163.754
30.036699 21.5163 154.05
28.699699 33.588402 130.192
28.1723 31.919901 163.981
29.608801 26.564899 134.76401
29.659 21.5574 139.702
29.9809 20.651899 144.18201
29.883301 19.5221 149.00301
29.320101 18.1628 154.26601
29.400299 25.466 134.901
28.567101 32.5121 130.20799
28.153799 30.8004 163.957
29.1028 21.135099 159.03799
28.417101 31.401501 130.263
28.1486 29.6635 163.84399
28.7997 22.242901 135.42799
28.127399 26.2651 163.524
28.9489 20.058201 158.92799
27.9811 28.128599 130.46899
28.469101 16.8979 158.685
29.6129 18.364401 149.10001
29.7129 19.506901 144.308
29.407801 20.435801 139.84399
28.1213 25.1406 163.38901
29.0791 17.027201 154.285
27.2118 42.9426 127.198
28.0833 24.1227 163.226
27.8251 27.017799 130.534
29.3062 17.1649 149.22099
29.403 18.315901 144.474
29.121799 19.2654 140.05499
27.1045 42.068401 126.968
28.5807 21.1436 135.578
27.5963 20.688999 163.528
27.022301 41.2141 126.806
28.8141 15.8562 154.32401
27.6602 25.934299 130.65601
26.764601 38.742699 126.307
28.3452 20.013599 135.812
28.2857 15.7584 140.894
28.475401 14.7319 145.18401
28.3766 13.5559 149.78999
27.1984 22.7717 131.09599
28.3064 15.8268 158.57899
27.9965 12.3477 154.67599
26.673901 37.866699 126.129
27.7283 19.739401 162.95
26.5532 36.8964 126.034
27.683599 16.6632 136.689
27.705601 18.940701 162.69099
28.048401 14.6586 158.826
26.179899 33.8097 126.098
27.727301 15.906 161.392
27.308399 11.094 159.505
27.0294 21.6945 131.231
26.0511 32.7439 126.125
26.8643 20.636801 131.446
25.6646 36.167702 168.04401
25.9126 31.643801 126.176
27.682699 15.0301 161.10899
25.673901 35.1059 168.032
25.661501 34.074501 168.054
25.503 28.408701 126.342
25.2679 30.684999 168.601
26.4254 17.553301 132.218
27.6029 14.1541 160.761
25.5888 29.8018 168.18401
25.829 28.7924 167.761
26.6717 25.3883 166.26801
26.904301 24.43 165.819
27.0728 23.6168 165.304
25.3608 27.3081 126.401
26.9792 19.066999 164.67599
27.143499 14.3521 162.767
25.9568 23.833799 167.375
24.475201 41.9883 124.39
24.157499 41.1157 124.031
26.260599 13.6354 165.252
25.9573 18.3018 166.91901
24.724199 22.4583 169.40199
24.340401 28.997101 169.94299
24.860201 17.955299 169.14799
24.8402 13.1752 168.74699
22.8559 27.499399 171.95599
23.139 35.373901 171.284
23.655899 34.488899 170.67
23.9524 33.623299 170.312
22.3918 34.0495 172.14
22.843201 22.835899 172.24899
23.005301 17.7878 172.379
22.820499 11.8776 173.411
20.767401 32.883202 173.992
20.1224 17.223101 176.70599
19.8932 10.8917 178.168
20.3536 22.690901 175.48801
20.612499 27.978901 174.591
18.1173 28.040501 176.99899
18.249201 33.762501 176.418
17.649401 22.7791 178.286
17.247801 16.970699 180.149
16.8808 10.7835 181.703
14.1944 34.639702 179.946
13.3068 29.1385 180.355
11.6356 24.158899 181.66901
13.2981 17.565399 182.507
14.4336 11.022 183.396
12.2286 11.276 184.905
9.8145103 35.574699 182.01801
10.7143 17.983101 184.017
8.6448603 30.2167 182.28999
8.61901 12.2253 186.601
8.7601995 24.7349 183.088
7.04673 18.6362 185.537
5.54638 30.837601 183.24001
4.9787202 25.560101 184.185
5.8995099 36.981098 183.245
5.0382199 14.1066 187.69901
2.30916 31.199699 183.73399
2.77056 36.2183 183.799
4.8336401 19.2076 186.32201
0 35.2934 184.052
2.28917 15.2624 188.21201
2.12409 19.4937 186.84
2.15798 26.2514 184.57201
0 15.9466 188.388
0 31.824699 183.94
0 26.2866 184.877
0 19.7868 187.08701
-2.28917 15.2624 188.21201
-2.12409 19.4937 186.84
-2.15798 26.2514 184.57201
-2.30916 31.199699 183.73399
-2.77056 36.2183 183.799
-5.8995099 36.981098 183.245
-5.54638 30.837601 183.24001
-4.9787202 25.560101 184.185
-4.8336401 19.2076 186.32201
-5.0382199 14.1066 187.69901
-8.7601995 24.7349 183.088
-8.6448603 30.2167 182.28999
-8.61901 12.2253 186.601
-7.04673 18.6362 185.537
-10.7143 17.983101 184.017
-9.8145103 35.574699 182.01801
-11.6356 24.158899 181.66901
-12.2286 11.276 184.905
-13.3068 29.1385 180.355
-14.1944 34.639702 179.946
-13.2981 17.565399 182.507
-14.4336 11.022 183.396
-17.649401 22.7791 178.286
-17.247801 16.970699 180.149
-18.1173 28.040501 176.99899
-16.8808 10.7835 181.703
-18.249201 33.762501 176.418
-19.8932 10.8917 178.168
-20.1224 17.223101 176.70599
-20.3536 22.690901 175.48801
-20.612499 27.978901 174.591
-20.767401 32.883202 173.992
-22.3918 34.0495 172.14
-22.820499 11.8776 173.411
-23.005301 17.7878 172.379
-22.843201 22.835899 172.24899
-22.8559 27.499399 171.95599
-23.139 35.373901 171.284
-24.340401 28.997101 169.94299
-25.2679 30.684999 168.601
-23.9524 33.623299 170.312
-23.655899 34.488899 170.67
-24.8402 13.1752 168.74699
-24.860201 17.955299 169.14799
-24.724199 22.4583 169.40199
-25.9568 23.833799 167.375
-25.6646 36.167702 168.04401
-25.673901 35.1059 168.032
-25.661501 34.074501 168.054
-25.5888 29.8018 168.18401
-25.829 28.7924 167.761
-26.6717 25.3883 166.26801
-26.260599 13.6354 165.252
-25.9573 18.3018 166.91901
-26.9792 19.066999 164.67599
-28.1723 31.919901 163.981
-28.3964 35.090199 163.754
-28.153799 30.8004 163.957
-28.1486 29.6635 163.84399
-28.438101 36.167999 163.735
-28.454901 37.189301 163.729
-28.127399 26.2651 163.524
-26.904301 24.43 165.819
-27.0728 23.6168 165.304
-27.5963 20.688999 163.528
-27.143499 14.3521 162.767
-28.1213 25.1406 163.38901
-27.308399 11.094 159.505
-27.6029 14.1541 160.761
-28.0833 24.1227 163.226
-27.7283 19.739401 162.95
-27.705601 18.940701 162.69099
-27.727301 15.906 161.392
-27.682699 15.0301 161.10899
-27.9965 12.3477 154.67599
-29.6663 43.629501 130.396
-27.2118 42.9426 127.198
-24.475201 41.9883 124.39
-24.157499 41.1157 124.031
-27.1045 42.068401 126.968
-29.618 42.667 130.29401
-28.8141 15.8562 154.32401
-28.048401 14.6586 158.826
-27.683599 16.6632 136.689
-26.4254 17.553301 132.218
-28.2857 15.7584 140.894
-29.225901 22.242001 159.12801
-29.6507 25.309401 159.101
-29.1028 21.135099 159.03799
-28.3064 15.8268 158.57899
-28.469101 16.8979 158.685
-28.3452 20.013599 135.812
-29.121799 19.2654 140.05499
-26.8643 20.636801 131.446
-28.9489 20.058201 158.92799
-28.3766 13.5559 149.78999
-27.9811 28.128599 130.46899
-25.503 28.408701 126.342
-25.9126 31.643801 126.176
-28.417101 31.401501 130.263
-27.8251 27.017799 130.534
-25.3608 27.3081 126.401
-29.777 27.683001 134.702
-29.608801 26.564899 134.76401
-30.2332 30.980801 134.47501
-28.475401 14.7319 145.18401
-29.3062 17.1649 149.22099
-29.0791 17.027201 154.285
-29.7777 26.367201 159.144
-29.892599 27.511801 159.146
-30.268101 30.9391 158.97501
-30.3808 32.0905 158.96201
-30.485399 33.1964 158.92
-30.8472 36.418201 158.61301
-29.403 18.315901 144.474
-29.320101 18.1628 154.26601
-27.0294 21.6945 131.231
-28.5807 21.1436 135.578
-29.407801 20.435801 139.84399
-30.942801 37.507099 158.563
-30.391001 32.097198 134.42599
-28.567101 32.5121 130.20799
-26.0511 32.7439 126.125
-30.972601 38.504601 158.515
-30.036699 21.5163 154.05
-30.5261 33.176102 134.41901
-28.699699 33.588402 130.192
-26.179899 33.8097 126.098
-27.1984 22.7717 131.09599
-28.7997 22.242901 135.42799
-29.659 21.5574 139.702
-29.0721 36.711498 130.146
-30.8967 36.312099 134.366
-26.5532 36.8964 126.034
-29.400299 25.466 134.901
-30.359501 24.857599 139.15401
-27.6602 25.934299 130.65601
-29.6129 18.364401 149.10001
-30.268101 22.644501 154.03
-26.673901 37.866699 126.129
-29.1959 37.777302 130.13901
-31.0233 37.379398 134.367
-29.883301 19.5221 149.00301
-30.4578 23.737101 153.991
-29.7129 19.506901 144.308
-26.764601 38.742699 126.307
-29.287399 38.7864 130.166
-31.1157 38.384201 134.396
-31.020599 26.9172 153.686
-31.358601 41.252998 134.457
-29.5368 41.666801 130.256
-27.022301 41.2141 126.806
-30.6721 22.949301 148.53799
-30.598301 25.975401 139.022
-29.9809 20.651899 144.18201
-31.438801 42.247398 134.494
-30.7911 27.0958 138.953
-31.471901 43.214699 134.55901
-31.199301 28.0033 153.64301
-30.743799 24.036301 143.64101
-31.320499 30.4002 138.668
-31.3503 29.1327 153.584
-31.813801 32.494701 153.21201
-30.930599 24.0986 148.44299
-31.5 31.517099 138.612
-31.957899 33.6241 153.147
-31.139099 25.2101 148.36099
-30.9984 25.174601 143.519
-32.080799 34.699402 153.09399
-31.635799 32.597698 138.595
-31.7365 28.473101 147.94901
-32.462898 37.8279 152.76801
-32.000301 35.748199 138.47
-31.2027 26.2917 143.439
-31.7743 29.580601 143.07001
-32.574799 38.887901 152.714
-32.125401 36.817902 138.459
-32.627998 39.8619 152.674
-31.9321 29.5802 147.871
-32.222198 37.827499 138.468
-32.476299 40.716999 138.429
-32.091301 30.691999 147.798
-31.9657 30.6936 142.998
-32.551201 33.9767 147.407
-32.560902 41.716099 138.442
-32.593102 42.681599 138.47301
-32.117599 31.791 142.948
-32.5373 35.011299 142.67
-32.701401 35.083 147.33501
-32.8228 36.126301 147.29201
-32.6782 36.0998 142.623
-33.170799 39.141899 147.021
-32.7826 37.1189 142.60699
-33.061298 40.044498 142.45599
-33.279301 40.171001 146.978
-33.1525 41.0513 142.442
-33.192699 42.0145 142.436
-33.3237 41.129902 146.953
25.2194 26.2335 126.507
24.8244 23.107201 126.875
24.681499 22.043699 126.997
24.111601 40.268101 123.948
24.551001 21.0396 127.182
23.9149 37.9492 123.564
24.221399 18.157801 127.817
23.8458 37.126099 123.427
23.7381 36.2547 123.293
23.392099 33.6814 122.873
