# .PCD v.7 - Point Cloud Data file format
VERSION .7
FIELDS x y z
SIZE 4 4 4
TYPE F F F
COUNT 1 1 1
WIDTH 1689
HEIGHT 1
VIEWPOINT 0 0 0 1 0 0 0
POINTS 1689
DATA ascii
-17.085199 -50.021599 113.758
-17.1989 -18.1849 154.87399
-16.698999 -15.147 157.612
-16.0795 -9.7484798 160.455
-15.8884 -0.051936999 160.203
-16.215599 -50.433498 128.98599
-16.316299 -22.9848 157.241
-18.530399 -19.069 154.03799
-15.3282 -48.8806 140.72301
-16.428101 -47.375801 141.172
-15.953 -4.9836001 160.492
-16.9305 -8.1593704 159.483
-17.231199 -50.3978 124.845
-17.917 -15.181 156.965
-16.874201 -2.7970901 159.302
-16.312201 -49.031601 136.407
-16.7369 2.1604199 159.466
-17.545099 -47.6572 110.327
-16.889999 -22.619101 156.11501
-18.1544 -50.315201 120.101
-17.161501 -48.848499 132.44701
-19.8559 -19.4718 153.405
-18.005301 -23.2428 154.98
-17.265699 -45.525299 141.88
-18.881599 -14.0087 156.77
-16.980801 -4.8551002 159.11
-16.899599 -0.151669 159.30901
-17.683399 -47.492599 137.133
-18.181299 -48.618698 128.629
-17.5007 -26.4331 155.72099
-18.8547 -49.267101 115.397
-19.296301 -23.8888 153.267
-17.378201 -8.1708298 158.711
-17.9447 -44.054298 142.603
-19.1292 -48.476398 125.283
-18.1474 -26.695499 154.336
-18.966499 -47.2808 132.506
-20.5977 -24.3113 151.591
-18.679701 -45.4939 138.134
-18.1448 -29.2314 154.392
-20.778799 -19.2346 152.95399
-19.542801 -0.118994 155.839
-19.5942 2.14994 155.957
-21.3039 -24.391001 150.401
-19.3899 -27.243799 152.677
-18.462099 -42.903999 143.75
-19.4977 -2.5390999 155.668
-19.5165 -4.4988499 155.243
-19.7118 -7.4795499 154.758
-19.951 -10.7985 154.783
-20.0217 -48.482899 121.87
-21.958099 -24.2659 149.811
-18.3496 -30.2335 153.88699
-20.339399 -46.836102 128.43401
-19.3708 -43.879902 139.067
-18.7356 -32.115002 152.92999
-19.616899 -12.4527 155.74699
-18.8866 -29.844999 152.716
-18.876699 -41.687599 145.002
-19.1831 -34.609001 151.20799
-20.257799 -45.399899 133.74699
-21.0676 -27.753599 150.3
-20.761999 -47.934898 117.612
-19.2696 -40.2724 146.261
-19.813801 -42.620998 140.345
-20.304899 -30.187099 150.55701
-19.442301 -37.419498 148.976
-20.9377 -46.8923 125.292
-19.605499 -32.236801 150.95599
-19.3794 -38.952499 147.52901
-22.8965 -23.702801 149.086
-20.127199 -41.4002 141.716
-20.0882 -34.688499 149.02
-21.137899 -43.7146 135.222
-20.9863 -32.462101 148.578
-22.232 -18.8286 151.938
-22.943701 -16.971701 151.229
-20.3755 -40.081501 143.29401
-21.500099 -46.923599 121.983
-21.694901 -45.119701 129.638
-20.3272 -37.2883 146.623
-22.34 -27.5516 148.412
-20.386999 -38.812801 144.89999
-21.9498 -30.3186 147.912
-21.676901 -42.293499 136.703
-22.0056 -6.4198198 150.11301
-21.9841 -2.98704 150.864
-22.216299 -0.023165001 151.16499
-21.915899 -9.2217798 150.035
-22.447201 2.6793101 151.38
-21.4862 -34.616199 146.567
-22.8176 -14.3493 150.715
-22.4552 -12.6165 150.409
-22.065599 -10.7648 150.21001
-22.050301 -41.029999 138.064
-22.055 -46.612801 118.59
-21.928101 -37.1026 143.614
-22.2897 -39.799 139.65601
-22.6726 -32.444099 145.60201
-22.2075 -38.640202 141.485
-22.896799 -43.196201 130.722
-22.564699 -45.159698 125.026
-22.218201 -45.126999 127.658
-22.913601 -27.3951 147.19901
-24.6964 -23.0567 147.353
-22.9 -45.355701 121.991
-23.2068 -34.387501 143.217
-23.4049 -30.036501 145.431
-23.4284 -41.835602 132.41901
-23.5569 -27.378401 146.325
-23.7644 -36.508499 140.065
-24.0399 -40.1092 133.47099
-23.4268 -43.3381 127.716
-24.5264 -12.9113 144.291
-24.6332 -14.1771 144.44701
-24.2945 -11.2213 144.513
-24.0453 -8.4536896 144.922
-24.134199 -37.893902 137.54201
-24.304701 -32.003799 142.403
-24.513 -27.231899 145.2
-23.955601 -3.36499 145.83299
-23.8412 -6.6929202 145.278
-24.167999 0.052669 146.08
-25.1943 -15.516 144.561
-24.1761 -38.8601 135.66
-24.522301 3.8078001 146.717
-25.799101 -20.7607 145.924
-23.8018 -43.587002 124.977
-24.0863 -29.7724 144.013
-25.784901 -17.5511 145.049
-23.9496 -43.980499 122.21
-24.7878 -33.6367 139.886
-23.8137 -0.94281399 116.52
-22.784201 -1.1557 113.102
-21.5296 -1.48191 109.507
-23.9202 0.302248 116.287
-22.859501 0.368698 112.925
-21.5464 0.24954399 109.356
-23.008499 4.7420402 111.854
-24.2055 3.8656001 115.249
-21.4769 5.2609601 108.5
-26.3442 -26.0114 143.02699
-24.761101 -29.669901 143.00301
-23.9856 -41.650902 130.222
-24.512501 -41.716099 127.756
-25.3428 -35.3759 136.743
-24.8965 -31.629 140.93201
-24.7724 -42.246601 125.249
-24.871599 -40.0541 130.319
-25.758301 -29.394899 141.659
-25.559999 -36.6059 134.29601
-24.463699 -1.17506 119.465
-24.586399 -0.165079 119.3
-24.7449 -42.734699 122.506
-25.528099 -9.48318 139.505
-24.998199 -7.0750198 139.877
-25.1192 -3.7634301 140.207
-24.952101 2.8173299 118.613
-25.551701 0.223602 140.65601
-25.492001 -40.057701 128.34
-26.041901 -12.3644 139.601
-25.434601 -37.582401 132.879
-25.4263 -38.438702 131.26801
-25.596901 -38.9911 129.97099
-25.5144 -31.406799 139.778
-25.9736 4.7895098 142.371
-25.105499 3.8619399 118.465
-24.3396 5.03895 115.017
-23.099899 6.1181202 111.465
-26.315901 -15.5719 139.679
-26.1889 -14.0303 139.74001
-25.542 -32.935699 138.161
-25.3221 5.1243 118.318
-24.531 6.38763 114.785
-23.206301 7.5689402 111.105
-24.8549 -1.6249501 122.33
-24.9729 -0.71469498 122.233
-27.4242 -27.6437 139.246
-25.4006 -41.623402 122.726
-26.364 -16.718201 139.623
-25.041401 10.5685 113.832
-25.945299 9.0296402 117.65
-23.4142 12.0028 109.805
-25.5844 -40.980598 125.513
-25.335699 1.91097 121.768
-26.718 -17.799801 139.808
-27.3974 -23.2771 141.09801
-26.443001 -30.8692 138.423
-26.0387 -34.5187 135.05099
-25.084101 -2.1999199 125.384
-25.195299 -1.37038 125.351
-26.078899 -32.5802 137.138
-25.483 2.8543899 121.684
-25.539301 0.97511703 125.09
-25.3762 -6.1025801 135.60001
-25.4508 -3.80439 136.51401
-25.598301 -7.9730802 135.22301
-26.276199 -10.3108 135.252
-25.243299 11.9333 113.61
-23.523701 13.4129 109.493
-26.176201 10.3127 117.522
-25.966299 -40.667999 122.804
-25.261299 -2.8322001 128.599
-25.250099 -3.5159299 128.478
-25.3062 -5.3786201 128.09599
-25.366699 -2.0567901 128.623
-25.700001 4.0162902 121.609
-25.794901 -0.64056802 137.36
-25.5944 -6.6643901 127.596
-27.346901 -19.8552 140.028
-25.6903 0.119726 128.573
-25.461 13.2647 113.454
-23.655199 14.7501 109.309
-26.436899 11.6029 117.434
-25.410299 -3.37767 131.90199
-25.373501 -3.9641099 131.798
-25.3311 -5.8548398 131.54401
-25.500799 -2.71662 131.96201
-25.5361 -7.5075898 130.931
-26.3447 7.57586 121.189
-25.479601 -3.7375801 135.146
-25.677799 1.83758 125.06
-26.1877 -35.692001 133.03
-25.806801 -0.55595398 132.12399
-26.540501 -8.1276703 126.606
-26.245199 -36.672901 131.526
-26.1896 -37.848801 130.03799
-25.8675 -0.53352201 135.64
-26.0355 17.312599 112.791
-27.176901 15.5436 116.946
-23.9573 18.797899 108.609
-26.2306 -39.953201 125.419
-25.882401 2.90852 125.035
-26.308599 -38.9515 128.015
-26.941401 -31.8731 136.11
-27.002399 -13.6219 136.061
-26.372499 -9.0359802 130.08501
-25.817499 0.92171699 128.59399
-26.5639 -33.806999 134.196
-26.1348 1.67079 138.27
-26.7351 6.0238199 139.62199
-26.6127 -39.566101 123.023
-25.997 1.86684 128.627
-25.9095 0.121677 132.181
-26.4939 6.1355 124.805
-28.0345 -29.034 135.97
-26.2589 1.70591 136.009
-26.042601 0.85368502 132.258
-26.462999 3.14993 132.552
-26.527599 4.6475902 128.631
-26.579 8.7641001 121.136
-26.7451 -39.069901 125.252
-26.786301 -34.938099 132.12399
-27.164801 -15.7089 136.756
-27.375401 -32.858601 133.017
-26.3703 2.36549 136.213
-26.5193 3.2255199 136.42101
-27.027 6.2274299 137.14301
-27.2372 -38.431599 122.323
-26.8629 10.0162 121.11
-26.8743 -35.880402 130.73599
-27.2138 -17.048599 137.049
-26.887699 -36.881401 129.433
-26.8941 -38.0089 127.546
-26.621 3.9797101 132.694
-27.460501 -12.8174 131.039
-27.225 -10.6031 128.345
-27.860901 -15.4114 133.071
-27.239599 -18.076099 137.10699
-28.063101 -25.111099 137.367
-26.716801 7.2340002 124.807
-27.427099 -19.285299 137.533
-26.837 4.9906702 132.87199
-27.7027 13.8469 120.811
-28.202499 -30.1366 133.614
-26.7244 5.6217299 128.69901
-27.496599 8.06355 133.29201
-27.5376 -34.073799 131.056
-27.0026 8.4275999 124.834
-26.988701 6.7329102 128.79201
-27.8312 -37.175598 121.845
-27.787001 -37.076302 124.382
-27.1548 -38.338501 124.969
-27.6605 -21.111401 138.476
-27.1565 7.09306 137.55901
-27.4547 -37.086498 126.98
-27.560699 -35.008301 129.88901
-27.790899 10.1038 128.907
-27.864799 12.0659 124.72
-27.528799 -35.907501 128.683
-28.3913 -31.5306 131.276
-27.891399 -17.249201 134.093
-27.725599 9.1164503 133.479
-27.976999 -12.9801 125.707
-27.885099 -18.515499 134.438
-27.4396 16.821501 116.87
-26.2486 18.616899 112.654
-27.994101 15.0988 120.795
-28.134001 -35.7966 126.131
-27.950199 -19.7215 134.42799
-28.2862 -15.232 127.894
-28.120399 -20.9783 134.703
-28.352699 -35.7155 123.666
-28.418301 -32.920601 129.466
-28.3937 -23.002199 135.08701
-28.6371 -26.9184 134.224
-28.275 -34.6675 127.471
-28.4951 -17.660801 129.62199
-28.0679 11.2357 129.01199
-28.3654 -33.820599 128.41901
-27.9699 -14.6543 124.058
-28.1618 13.2671 124.761
-28.666599 -34.4198 125.103
-28.618999 -19.578899 130.474
-28.4856 -20.3916 131.47099
-28.6005 -21.7103 131.22
-28.656601 -34.5186 122.939
-28.7083 -22.9512 131.616
-28.2696 -16.5119 126.355
-28.432699 -17.440901 125.323
-28.973801 -28.5557 131.58299
-28.908199 -25.1572 132.703
-28.865801 -24.166 132.049
-28.8265 -33.360199 126.149
-28.8004 -19.2267 123.21
-29.0618 -30.2684 129.356
-28.720699 -33.582001 122.336
-28.4827 -18.594299 128.34801
-28.6668 -19.3818 127.076
-28.920401 -32.609402 126.881
-28.619699 -27.631399 117.39
-28.629999 -28.4193 116.996
-28.753901 -25.991699 118.159
-28.9984 -31.7472 127.745
-28.877001 -33.244801 124.102
-28.7656 -29.0669 116.553
-28.7139 -32.901402 121.821
-28.9419 -21.1749 124.633
-28.6 -20.1273 129.715
-28.8248 -21.214001 127.993
-28.646099 -21.201401 130.293
-28.7244 -32.225399 121.114
-28.8689 -22.899 119.908
-28.764099 -31.473301 119.882
-28.9202 -22.730101 128.431
-29.0543 -24.3505 127.998
-29.102501 -25.4629 128.513
-28.8953 -26.835899 120.36
-28.7283 -28.3241 119.553
-28.6924 -29.0735 119.089
-28.764799 -29.853201 118.582
-29.241501 -27.273399 130.01801
-28.8382 -32.379799 123.282
-28.9914 -32.265301 124.972
-29.0711 -22.8524 125.832
-28.732201 -30.59 120.555
-28.695801 -29.8762 121.065
-28.7687 -29.127399 121.519
-28.7248 -31.275 121.814
-28.7185 -30.5075 122.359
-28.791901 -29.754801 122.846
-29.191099 -26.3652 129.084
-28.7514 -31.802601 122.592
-28.7663 -30.952101 123.221
-28.8197 -30.223 123.708
-28.961399 -27.776699 122.262
-28.9009 -31.3771 124.093
-29.031799 -24.0767 122.053
-28.909401 -30.618099 124.358
-28.9694 -28.563999 123.567
-28.9494 -29.1812 124.409
-28.9928 -29.674101 125.01
-29.122499 -24.0996 126.805
-29.0665 -31.616899 125.617
-29.1408 -25.316799 123.778
-28.9799 -30.9254 124.777
-29.0667 -30.1122 125.53
-29.149099 -30.801901 126.395
-29.1796 -26.3925 124.979
-29.135 -27.158701 125.804
-29.138599 -27.893299 126.359
-29.2623 -29.276199 127.878
-29.196199 -28.531799 126.939
24.0868 20.1036 108.44
21.643999 21.083099 104.998
21.5835 19.800301 105.118
21.501301 15.6628 105.757
21.4452 14.2668 105.956
21.427401 12.7562 106.367
21.5116 8.1141596 107.88
21.496401 6.5889602 108.333
19.676701 21.686399 102.826
19.665001 20.086901 103.131
19.7115 15.9704 103.702
20.060699 -3.56848 105.175
20.050501 -1.51178 105.606
19.8771 4.7990799 105.849
19.8661 6.7838602 105.975
19.8598 8.39991 105.662
19.709101 13.0599 104.289
19.7003 14.575 103.899
17.388 -3.7167301 101.19
17.378201 -1.36701 101.87
17.2292 4.91364 103.56
17.226601 7.0058899 103.886
17.232401 8.5431805 103.526
17.1215 13.1598 102.337
16.9627 22.119699 100.506
17.039801 20.148899 101.121
17.124599 16.0516 101.759
17.120701 14.6633 101.987
14.5107 -2.78125 98.3312
14.44 -0.11334 99.280899
14.12 6.5535498 101.557
13.9984 7.77178 101.404
13.9971 8.9319496 101.366
13.9325 13.3923 100.358
13.9345 14.8649 100.033
13.9118 16.2313 99.789803
13.7101 20.2619 99.1185
12.8626 22.5632 97.834602
11.8136 -0.224907 97.036903
11.7667 2.52953 98.256897
11.4946 7.3972502 99.269997
10.7724 8.7048597 98.841202
10.8548 9.9132004 99.002998
11.1367 13.7947 98.766403
11.262 15.2309 98.530701
11.4376 16.538601 98.409203
11.9679 20.3717 98.195396
8.1798601 23.093599 95.540802
8.0033197 20.617399 96.5028
7.6719398 17.076 96.734802
9.0408602 2.97139 96.874001
9.2785997 4.2778201 97.240501
9.9898796 7.8133101 98.164803
7.5505099 15.852 96.861801
7.41469 14.4149 97.085899
7.0486798 10.8545 96.805702
6.9077401 9.7124205 96.604401
6.6458602 8.5692596 96.358398
5.99822 5.0037498 95.5541
5.7775402 3.8078799 95.2509
3.9438701 23.5462 94.250397
3.8782799 21.0109 95.3386
3.7485499 17.534901 95.597504
4.32231 -45.5821 98.8936
3.7107601 16.348 95.737801
3.622 15.0246 95.891899
3.41571 11.4888 95.6577
4.0506701 -44.8414 98.077301
3.3513401 10.3395 95.543198
3.2286899 9.1435099 95.429398
3.9965401 -43.998299 96.465599
2.9051099 5.4150901 94.823997
2.8080599 4.2042298 94.561996
3.2060101 -38.831902 93.434601
3.6137099 -41.9412 94.588699
2.6576099 2.86658 94.297203
2.1672499 -2.2004099 94.051201
2.74491 -34.498299 93.2155
2.0337 -43.128799 99.127701
1.60691 -6.5688 94.1082
2.27649 -28.8773 94.237297
1.93797 -42.374599 98.189003
1.7932 -41.421001 96.626297
1.8685499 -38.402199 93.628403
1.83416 -40.017799 94.9076
0 23.7288 93.8647
0 21.173401 94.947403
0 17.848 95.1847
0 16.6003 95.339104
0 15.2887 95.445503
0 11.7976 95.309502
1.80222 -35.7435 92.851799
1.43914 -9.3046904 94.519897
0 10.5681 95.233498
0 9.3109303 95.151604
0 5.6569099 94.664902
1.73443 -31.8496 93.278801
1.32917 -11.6326 95.125298
0 4.3722801 94.406403
0 3.0123999 94.156799
1.23017 -13.9265 95.875801
0 -1.89732 93.940697
1.04705 -17.2349 97.034798
1.03925 -21.3806 96.272797
0.98730898 -24.818001 95.3601
0.59838301 -28.952299 93.468201
0 -6.47931 94.093903
0.63694602 -40.556499 98.528603
0.45920199 -39.244701 96.585701
0.52571899 -37.010601 94.246399
0.495727 -35.277802 93.195801
0.57302397 -32.835499 92.671204
0 -9.3319998 94.456703
0 -11.765 95.049202
0 -14.1427 95.832199
0 -17.3074 97.138
0 -21.3584 96.740303
0 -24.8431 95.733002
0 -29.0413 93.8881
0.002504 -39.668301 98.682297
0 -38.306099 96.513496
0 -32.390999 92.843201
0 -34.442402 93.205299
0 -35.894501 94.159698
-0.63252997 -39.941101 98.319504
-0.459113 -38.7742 96.449997
-1.23017 -13.9265 95.875801
-1.04705 -17.2349 97.034798
-1.03925 -21.3806 96.272797
-1.32917 -11.6326 95.125298
-1.43914 -9.3046904 94.519897
-0.98730898 -24.818001 95.3601
-1.60691 -6.5688 94.1082
-2.1672499 -2.2004099 94.051201
-2.6576099 2.86658 94.297203
-0.52571899 -36.567501 94.151901
-2.8080599 4.2104602 94.554398
-2.9051099 5.4300799 94.806602
-3.2286799 9.1879301 95.383499
-3.9438701 23.5462 94.250397
-3.3513401 10.394 95.488899
-3.8782799 21.0816 95.283096
-3.7485499 17.620701 95.525497
-3.41571 11.5524 95.596298
-3.622 15.1158 95.811501
-3.7107601 16.438801 95.659798
-0.59838301 -28.952299 93.468201
-0.495727 -34.950901 93.141197
-0.57302397 -32.590401 92.644997
-1.7932 -39.882198 96.121399
-1.93576 -40.769402 97.5933
-1.83416 -38.404099 94.4599
-1.8685499 -36.7453 93.249603
-1.80222 -34.1838 92.599899
-1.73443 -30.5172 93.184196
-2.27649 -27.1819 94.248199
-2.02882 -41.491501 98.469299
-2.74491 -31.955799 92.909103
-3.2060101 -35.843201 92.774101
-3.9965401 -40.670601 95.242203
-4.0506701 -41.642399 96.7715
-3.6137099 -38.7327 93.621101
-4.32231 -42.2785 97.453598
-5.7775402 3.8229201 95.232697
-5.99822 5.0377898 95.514702
-6.6458602 8.6663704 96.259003
-6.9077401 9.83255 96.485901
-7.0486798 10.9956 96.671402
-7.41469 14.605 96.921204
-7.5505099 16.0306 96.711197
-7.6719398 17.244301 96.596298
-8.0033197 20.753599 96.398201
-8.1798601 23.093599 95.540802
-9.0408602 3.0058401 96.833
-9.2785997 4.3471599 97.162102
-9.9898796 7.9851298 97.994003
-10.7724 8.9278698 98.628799
-10.8548 10.1687 98.768402
-11.1367 14.0633 98.5411
-11.262 15.4796 98.327599
-11.4376 16.768999 98.2258
-11.9679 20.5462 98.066704
-12.8626 22.5632 97.834602
-11.8136 1.04286 97.866699
-11.7667 3.14433 98.553497
-11.4946 7.6161199 99.056503
-13.9984 8.1303501 101.079
-14.12 6.8832202 101.249
-13.9971 9.3233604 101.022
-13.9325 13.7005 100.109
-13.9345 15.1453 99.812202
-13.9118 16.485201 99.594299
-13.7101 20.4415 98.989197
-14.44 1.46617 100.195
-14.5107 -0.554932 99.690399
-16.9627 22.119699 100.506
-17.039801 20.280399 101.032
-17.124599 16.257 101.609
-17.120701 14.896 101.813
-17.1215 13.4204 102.138
-17.232401 8.8951302 103.234
-17.226601 7.3997302 103.566
-17.2292 5.6278 103.538
-17.378201 0.497271 102.938
-17.388 -1.32735 102.616
-19.676701 21.686399 102.826
-19.665001 20.1546 103.087
-19.7115 16.109699 103.606
-19.7003 14.7411 103.782
-19.709101 13.2508 104.151
-19.8598 8.6703396 105.453
-19.8661 7.1227999 105.783
-19.8771 5.4012599 105.905
-20.050501 0.066096999 106.407
-20.060699 -1.6097 106.284
-21.501301 15.7379 105.709
-21.5835 19.809299 105.113
-21.643999 21.083099 104.998
-21.4452 14.3674 105.889
-21.427401 12.8791 106.284
-21.5116 8.3055496 107.742
-21.496401 6.8078499 108.172
-24.0868 20.1036 108.44
14.9153 -42.327 164.42599
14.8201 -44.363899 162.506
14.7052 -40.5602 166.013
14.4978 -45.963402 160.939
14.3464 -47.190102 159.89799
13.8942 -48.917999 158.304
13.3163 -50.383999 156.784
-13.958 -48.958099 158.222
-13.3669 -50.422401 156.705
-14.4246 -47.231602 159.813
-14.5858 -46.005299 160.85201
-14.9219 -44.406799 162.418
-15.0344 -42.370098 164.33701
-14.8388 -40.602798 165.925
18.346901 -38.4562 151.929
18.304001 -36.799702 153.19299
18.085899 -34.2799 154.798
18.328501 -39.9743 150.72701
17.976299 -41.555901 149.439
17.689899 -32.094101 155.94
17.491699 -42.792099 148.35201
17.306999 -30.4431 156.729
16.8113 -43.974201 147.299
17.3964 -39.364201 155.103
17.4188 -41.009899 153.853
17.3603 -37.718899 156.201
17.1362 -42.596901 152.63
17.1003 -35.3932 157.787
17.1019 -29.405001 157.22
16.6653 -33.170898 159.021
16.549 -27.1063 158.215
16.0159 -45.428001 146.369
16.743999 -43.819302 151.55901
16.2579 -31.395399 159.713
15.9914 -44.9319 150.437
16.144501 -40.550098 159.295
16.111 -42.538399 157.80901
15.8211 -44.170101 156.558
15.3894 -23.924999 159.416
16.0875 -39.008701 160.51601
15.8855 -36.668598 162.034
16.1178 -30.2882 160.118
15.1895 -47.1558 145.494
15.4918 -45.494301 155.513
15.6555 -28.162399 160.802
15.4061 -34.342098 163.14
15.1498 -46.216099 149.205
14.8823 -46.8144 154.39
14.9424 -32.467201 163.662
14.5839 -25.1968 161.69701
14.1188 -48.7495 144.589
14.8521 -31.371901 163.99899
13.8052 -20.699301 160.72099
14.4579 -29.5509 164.46001
14.2766 -38.430401 167.603
14.3265 -48.105499 147.508
14.167 -48.231701 153.213
13.6378 -35.931198 168.815
13.4439 -27.005199 165.089
12.9866 -33.957699 169.48199
13.1292 -21.9981 162.623
13.9407 -48.667099 148.994
13.2558 -50.170502 152.017
13.3377 -49.804798 146.13499
12.8391 -32.928799 169.786
12.4894 -31.4272 170.05701
12.1809 -23.936001 165.459
11.7354 -17.210899 162.739
11.6697 -29.2876 170.29401
12.7032 -50.454102 144.076
12.6071 -52.0597 155.172
12.7855 -50.741798 147.698
12.5993 -51.002399 145.21001
12.3763 -51.805801 150.78799
11.4615 -18.2945 163.87399
10.9403 -27.7349 170.547
10.8867 -20.732 166.31
11.8075 -53.568401 153.119
11.144 -52.231201 143.14999
11.4214 -52.834599 144.02499
11.7005 -52.9678 146.856
11.8492 -53.276501 149.994
10.4035 -15.0643 164.513
9.8557901 -24.8475 171.10201
10.7967 -54.862598 148.94501
11.0359 -55.236 152.47099
9.5672102 -17.8843 167.672
10.293 -54.561901 145.688
9.7112799 -54.326801 142.60001
9.7142496 -56.315498 151.42999
8.9679003 -53.705299 140.996
8.5278902 -12.8715 166.24699
8.8047304 -21.587 171.526
9.22925 -55.708099 147.827
7.98669 -15.6852 168.806
8.5313301 -55.205601 144.55299
7.7583799 -54.951401 141.424
8.11658 -56.474499 150.64301
7.41114 -19.1499 172.16499
6.8773999 -54.303501 139.345
7.5693998 -55.5695 146.994
6.9408498 -11.5707 167.547
6.7901101 -54.893501 143.64101
6.51228 -13.9919 169.677
7.0353899 -56.809502 149.97501
5.9081101 -54.6749 140.383
6.3699899 -55.630798 146.258
6.0026202 -17.469801 172.86099
4.9608798 -53.9902 137.26199
5.5316901 -54.878899 142.935
5.1688499 -10.5514 168.864
5.9932199 -57.313702 149.39101
4.7894602 -12.8313 170.70399
4.6432099 -56.164501 145.16499
4.31248 -16.417 173.774
4.6107101 -54.5112 139.39999
3.73265 -55.358299 142.159
4.7652302 -58.102402 148.54201
3.6939499 -53.642899 135.617
3.7509401 -9.9356499 170.036
3.03057 -54.210602 137.80701
3.64011 -12.0633 171.442
3.62146 -58.6483 147.95399
3.5239401 -15.7996 174.446
3.5090401 -56.6721 144.61099
2.46861 -53.148399 133.90199
2.20664 -9.4896603 171.15401
2.22844 -11.0445 172.20599
2.29318 -14.9341 175.45599
1.7344 -55.716301 140.923
1.8663599 -57.135799 143.90401
1.43819 -54.0159 136.40401
1.93367 -59.105301 147.244
1.14621 -52.7104 132.271
-0.134627 -14.2957 176.093
-0.130859 -10.4691 172.96001
-0.130017 -8.80758 171.869
0.016661 -59.318298 146.91299
0.024156 -57.406101 143.453
0.031101 -55.917 140.384
0.037236001 -53.9743 135.661
0.040708002 -52.356098 131.422
-2.5567701 -14.9411 175.442
-2.4839799 -11.0513 172.192
-2.4604299 -9.4963903 171.14101
-1.90288 -59.110802 147.233
-1.82146 -57.141102 143.894
-1.67593 -55.721199 140.91299
-1.36597 -54.0256 136.39101
-1.06592 -52.7286 132.259
-2.3901601 -53.161201 133.65601
-2.9625199 -54.2188 137.778
-3.6824901 -55.3689 142.13699
-3.46963 -56.682098 144.591
-3.5961599 -58.658699 147.933
-3.61745 -53.680302 135.133
-3.9967899 -9.9468098 170.013
-3.88816 -12.0741 171.41901
-3.7790301 -15.8102 174.424
-4.5475402 -54.519402 139.356
-4.8867898 -54.076199 136.571
-5.4874701 -54.894699 142.90199
-4.7449598 -58.1161 148.51401
-4.60852 -56.177799 145.138
-4.56179 -16.429701 173.748
-6.80688 -54.484699 138.39101
-5.0309 -12.8455 170.675
-5.84935 -54.691799 140.34801
-6.3432698 -55.649101 146.22
-5.4059501 -10.5667 168.83299
-6.2434502 -17.487499 172.82401
-6.7442498 -14.011 169.638
-6.75 -54.912998 143.601
-5.9802299 -57.331001 149.355
-7.0272799 -56.8298 149.933
-7.7049499 -54.973701 141.37801
-7.16717 -11.591 167.505
-7.5471902 -55.591202 146.94901
-7.6429701 -19.1716 172.12
-8.4956903 -55.230202 144.50301
-8.9025402 -53.995499 139.839
-8.2085896 -15.7085 168.758
-8.1133699 -56.497898 150.595
-9.2115402 -55.7346 147.77299
-8.7427197 -12.8963 166.19501
-9.6665802 -54.354801 142.543
-9.0257301 -21.6127 171.47301
-9.7161303 -56.343498 151.373
-9.7760201 -17.912201 167.61501
-10.2659 -54.591499 145.627
-10.6017 -15.0946 164.451
-10.788 -54.8937 148.881
-10.0649 -24.8762 171.043
-11.0941 -52.601799 142.147
-11.3894 -52.8675 143.957
-11.047 -55.267799 152.40601
-11.0792 -20.763599 166.244
-11.1378 -27.766701 170.48199
-11.6848 -53.001499 146.787
-11.6466 -18.327801 163.806
-11.8612 -29.321501 170.22501
-12.6733 -31.4634 169.98199
-11.8512 -53.3106 149.924
-12.3591 -23.971399 165.38699
-11.8273 -53.602402 153.049
-11.9169 -17.2449 162.66901
-13.017 -32.966099 169.71001
-12.6665 -50.814499 143.259
-13.1597 -33.995399 169.40401
-12.5795 -51.0387 145.136
-13.2961 -22.0362 162.545
-13.611 -27.044201 165.008
-12.7813 -50.778599 147.62199
-12.6434 -52.0961 155.097
-13.8013 -35.970798 168.73399
-12.3873 -51.841499 150.715
-13.9646 -20.7393 160.63901
-13.2788 -50.208801 151.938
-14.614 -29.592699 164.37399
-14.4257 -38.471699 167.51801
-13.95 -48.707199 148.912
-14.7362 -25.239 161.61
-14.2026 -48.272499 153.129
-14.0926 -49.0732 143.94299
-13.3269 -49.843201 146.05701
-15.0001 -31.4149 163.91
-14.3287 -48.146801 147.423
-15.0853 -32.510399 163.573
-15.5405 -34.3867 163.048
-15.1675 -46.259701 149.11501
-15.1775 -47.375702 145.112
-15.5318 -23.969601 159.32401
-14.9289 -46.8573 154.30099
-15.7939 -28.207701 160.709
-16.006701 -36.7146 161.94
-15.5489 -45.539001 155.42101
-16.018 -45.5247 146.2
-16.0201 -44.9781 150.342
-16.1929 -39.055199 160.42
-15.8882 -44.215698 156.464
-16.246 -30.334801 160.02299
-16.1903 -42.5849 157.713
-16.674999 -27.1541 158.116
-16.2383 -40.596699 159.19901
-16.782499 -43.867599 151.46001
-16.3804 -31.4424 159.617
-16.7787 -33.219101 158.92101
-16.823299 -44.205299 146.89101
-17.200001 -35.4426 157.685
-17.184601 -42.6464 152.528
-17.2155 -29.4545 157.118
-17.478901 -41.0602 153.74899
-17.4438 -37.769001 156.09801
-17.5124 -43.201599 147.72501
-17.4687 -39.414398 154.99899
-17.4146 -30.493099 156.62601
-17.788099 -32.145199 155.834
-18.1695 -34.5527 154.589
-18.006201 -42.103901 148.714
-18.369499 -37.297901 152.78799
-18.369801 -40.622398 150.009
-18.399799 -39.052502 151.36501
13.9572 -37.184601 168.211
15.6458 -35.505199 162.58701
16.882799 -34.2822 158.40401
17.887899 -33.187 155.369
15.9692 -25.5156 158.815
15.1197 -26.6798 161.24899
13.9509 -28.278099 164.77499
12.0796 -30.3575 170.17599
9.3302603 -23.2173 171.314
10.227 -19.3083 166.991
10.9325 -16.679501 164.194
11.0496 -16.105499 163.65199
6.0548501 -11.0611 168.20599
5.6508698 -13.4116 170.19099
5.1575499 -16.943399 173.31799
-17.979099 -33.305901 155.237
-16.9893 -34.330898 158.30299
-15.7736 -35.550499 162.494
-14.1135 -37.224998 168.127
-12.2672 -30.392599 170.103
-14.1125 -28.318501 164.69099
-15.265 -26.723499 161.159
-16.103399 -25.5618 158.72
-11.2397 -16.1376 163.586
-11.1242 -16.711201 164.129
-10.4276 -19.337999 166.92999
-9.54529 -23.244499 171.258
-5.4026198 -16.958599 173.286
-5.8875799 -13.4282 170.157
-6.2865601 -11.0788 168.16901
-2.14275 -44.788101 196.61099
-1.38392 -66.170097 162.336
-2.82777 -65.753899 163.43401
-2.86271 -44.9519 195.416
-3.6425099 -45.147701 194.65199
-4.1185799 -65.099098 164.15601
-4.6614599 -45.246101 193.873
-4.81039 -64.609802 164.69501
-5.9465199 -45.8255 192.457
-5.7540302 -63.8022 166.021
-6.4257698 -63.097599 167.272
-7.7425299 -47.522202 189.996
-7.2319102 -62.238899 169.026
-8.5040598 -61.200001 170.65601
-8.9723902 -49.386101 187.724
-9.82586 -60.087299 172.834
-9.62502 -51.159801 186.071
-9.9433699 -52.626499 184.673
-10.4064 -58.580399 175.383
-10.1812 -53.091301 184.19901
-10.6299 -53.803902 183.618
-10.8398 -54.9631 181.992
-10.9348 -57.0611 178.912
-0.019192001 -66.604599 162.55901
-0.15319601 -44.670898 197.131
10.7718 -57.0299 178.976
10.6525 -54.932098 182.056
10.4296 -53.773602 183.67999
9.97542 -53.062302 184.259
10.2687 -58.550598 175.444
9.73349 -52.598202 184.731
9.4026403 -51.132401 186.127
9.7076197 -60.0592 172.892
8.7351198 -49.3606 187.77699
8.4019604 -61.175701 170.70599
7.1424799 -62.218201 169.06799
7.4864602 -47.500301 190.041
6.3492298 -63.079201 167.31
5.6869302 -63.785702 166.05499
5.67102 -45.8088 192.492
4.7535 -64.596001 164.72301
4.3759298 -45.233101 193.89999
4.0663099 -65.087303 164.17999
3.3520999 -45.1376 194.673
2.56723 -44.944099 195.43201
2.7816899 -65.745796 163.45
1.34558 -66.1661 162.34399
1.83973 -44.782398 196.623
13.4854 -46.2621 167.744
12.0814 -48.185501 173.272
12.1037 -46.511398 175.069
13.5733 -44.321301 169.741
13.422 -42.281601 171.571
11.9502 -44.358101 176.879
13.334 -47.6334 166.022
12.1758 -49.179901 171.85699
12.2212 -50.136299 170.909
13.36 -48.643299 164.989
12.9296 -50.2644 163.028
12.2745 -51.498699 169.07201
12.4095 -51.994999 161.12801
11.9991 -53.177601 166.51199
11.3881 -51.763901 177.76801
11.4542 -53.126999 175.853
11.0845 -50.925201 178.51601
10.9508 -50.344101 179.089
10.6336 -48.597599 180.681
10.1504 -46.782398 183.07899
11.1224 -54.868801 172.746
11.2478 -41.698898 178.567
8.9723196 -44.675999 185.60899
12.7669 -39.890202 173.196
10.9654 -56.748402 169.38
11.4555 -55.0065 163.592
11.8499 -53.7775 158.95399
10.7468 -56.599602 161.35899
10.3374 -58.2729 166.66901
11.1707 -55.447102 156.46001
11.8771 -37.388901 174.20399
9.99823 -38.804199 179.68401
8.0545502 -40.231602 184.998
9.6184397 -57.7654 159.64301
9.3561401 -59.456799 164.638
9.8554296 -56.9967 155.368
7.4061499 -37.7033 184.68201
9.0349998 -36.565701 180.26199
11.0548 -35.300301 174.84
7.7919798 -58.41 158.401
7.9364901 -60.037701 163.468
8.1529398 -57.435501 154.403
6.2368898 -42.4161 189.951
6.2401199 -40.792801 188.895
6.0634499 -38.6618 187.90199
7.24893 -59.335999 157.489
6.8482499 -61.057201 162.121
7.30581 -58.0368 153.739
6.0246 -37.7211 187.46899
7.24687 -36.743999 184.561
8.7943401 -35.615898 180.45599
7.1669798 -35.783699 184.312
5.9562802 -36.866299 187.06799
8.6398401 -34.544102 180.479
6.1346302 -61.8218 161.058
6.4207902 -60.2131 156.606
6.3523402 -58.7612 153.08099
5.1368799 -62.770699 159.856
5.46696 -61.186001 155.739
5.4701099 -59.648399 152.36099
4.8175602 -42.0019 191.371
4.6781301 -39.6954 190.15199
4.7954998 -38.410702 189.33299
4.7891698 -35.180199 187.43201
5.95964 -34.203098 185.381
7.0098701 -33.470798 183.211
4.8832002 -33.388599 186.01601
6.0493698 -33.186298 184.56
4.93577 -60.075199 152.105
4.83108 -61.709599 155.396
4.45403 -63.2784 159.39301
3.5583301 -34.169701 187.658
3.5142601 -36.370499 189.2
3.5868001 -39.9883 191.24699
3.4985099 -42.4884 192.87801
3.1684 -63.8536 158.72
3.53544 -62.325802 154.911
3.6853499 -60.673199 151.57401
2.7383599 -40.708099 192.707
2.8287599 -37.747601 190.79401
2.9681101 -35.053501 189.116
2.69629 -42.952202 194.168
1.71428 -62.7453 154.506
1.42558 -64.2285 158.189
1.8819 -61.1544 151.14999
2.25195 -35.342602 190.65601
2.1826999 -38.206001 192.377
3.10833 -32.378502 187.07001
3.6027 -31.9144 185.98599
2.32214 -32.438301 188.679
2.1189799 -40.993801 194.168
2.04843 -42.866798 195.435
-0.14974 -35.623402 191.565
-0.151169 -38.537601 193.464
-0.14857601 -32.544399 189.675
-0.15200301 -40.646599 194.771
-0.152733 -42.645401 195.99001
-0.00023200001 -62.939201 154.37601
-0.0089600002 -64.418602 158.04201
0.0078309998 -61.379299 150.896
-2.34993 -42.873199 195.422
-2.41837 -41.000401 194.15401
-2.4795001 -38.2127 192.364
-2.5467999 -35.349499 190.642
-2.6136401 -32.4454 188.664
-1.71604 -62.750301 154.496
-1.44489 -64.232597 158.17999
-1.86834 -61.159801 151.138
-3.54076 -62.335999 154.89
-3.19189 -63.862801 158.701
-3.6756499 -60.6838 151.552
-2.99002 -42.9604 194.151
-3.0298901 -40.7164 192.69
-3.1174901 -37.756199 190.776
-3.2546501 -35.0625 189.09801
-3.39046 -32.387798 187.05099
-3.7859199 -42.498901 192.85699
-3.8717401 -39.9991 191.22501
-3.7974899 -36.381001 189.17799
-3.8387699 -34.180401 187.636
-3.87973 -31.9252 185.963
-4.48314 -63.291199 159.367
-4.8410201 -61.723499 155.367
-4.9309201 -60.089401 152.075
-4.9573998 -39.709301 190.123
-5.0974102 -42.016201 191.342
-5.0736198 -38.4249 189.304
-5.06533 -35.194401 187.403
-5.1561298 -33.403 185.98599
-5.4804201 -61.201698 155.70599
-5.1701798 -62.785599 159.826
-6.5087399 -40.811199 188.85699
-6.3323398 -38.679699 187.86501
-6.2936401 -37.7388 187.433
-6.5071001 -42.434502 189.91299
-5.4679999 -59.6642 152.32899
-6.22541 -36.883801 187.032
-6.22644 -34.220699 185.345
-6.31423 -33.204102 184.52299
-6.1777601 -61.8395 161.021
-6.4421802 -60.231602 156.56799
-6.3570299 -58.779499 153.04401
-7.4228601 -35.804798 184.26801
-7.2659001 -33.491402 183.168
-7.5014701 -36.765202 184.517
-6.8998699 -61.077 162.08
-7.27806 -59.356899 157.446
-7.65869 -37.724998 184.63699
-8.3016596 -40.2551 184.94901
-9.2102404 -44.702202 185.55499
-7.3164601 -58.0578 153.69501
-7.8291602 -58.432499 158.354
-7.9990001 -60.0606 163.42101
-8.1692305 -57.459 154.354
-9.2645998 -36.592098 180.20799
-9.0278301 -35.641602 180.40401
-8.8765602 -34.569302 180.42799
-10.2179 -38.833302 179.62399
-9.6648102 -57.793201 159.586
-9.4272404 -59.483898 164.58299
-9.8786802 -57.025101 155.30901
-11.4526 -41.731602 178.5
-12.1372 -44.392799 176.808
-10.3672 -46.812 183.01801
-10.8066 -56.6306 161.295
-10.424 -58.302799 166.60699
-11.2049 -55.479301 156.394
-12.9449 -39.9272 173.12
-12.0684 -37.423401 174.133
-11.2559 -35.3325 174.774
-10.831 -48.628502 180.617
-12.2738 -46.546501 174.99699
-11.5331 -55.0396 163.52299
-11.0723 -56.780102 169.314
-11.9036 -53.811798 158.884
-11.1337 -50.3759 179.02299
-12.2361 -48.2206 173.2
-11.2547 -54.9011 172.67999
-12.0993 -53.212299 166.44099
-12.3192 -49.215099 171.784
-11.2623 -50.957298 178.45
-11.5591 -51.796902 177.7
-12.3563 -50.1717 170.836
-12.3947 -51.534199 168.99899
-11.61 -53.160198 175.785
-13.5836 -42.320499 171.491
-12.4812 -52.0308 161.054
-13.0175 -50.301701 162.951
-13.7181 -44.3606 169.66
-13.6128 -46.301102 167.664
-13.4473 -47.672001 165.942
-13.4642 -48.681999 164.909
10.831 -34.3237 175.10699
10.5678 -33.046299 175.26601
9.7077999 -30.733999 175.60201
8.9217796 -28.6782 175.714
8.1450396 -32.100399 180.047
8.1785803 -25.5436 175.49699
7.4381399 -30.282101 180.399
7.9071002 -27.2815 177.27499
6.8698502 -23.1658 176.08
6.6331701 -25.7768 178.39101
7.3225598 -30.995199 181.157
6.4332399 -28.4541 180.673
6.2966199 -30.2619 182.231
5.5588198 -21.5322 176.567
6.23278 -31.0338 182.84
5.3474798 -24.6042 179.10699
5.1939602 -27.4083 181.343
5.0714402 -29.586599 183.09801
4.9890499 -31.283199 184.40601
3.99545 -20.244699 176.965
3.8415 -23.826 179.80499
3.7441001 -26.7197 182.073
3.64696 -29.5378 184.29401
3.3975501 -19.789 177.567
3.3327301 -23.5406 180.44501
3.29074 -26.5756 182.76199
3.2486 -29.5275 185.004
2.3968201 -18.858 178.513
2.40734 -22.858801 181.60201
2.3996601 -26.1716 184.15601
2.39237 -29.4041 186.545
-0.144345 -25.926901 185.02901
-0.141357 -22.403099 182.30701
-0.13779899 -18.179001 179.052
-0.146652 -29.390301 187.492
-2.67996 -29.4114 186.53
-2.68242 -26.1789 184.14101
-2.6845 -22.8661 181.58701
-2.6672201 -18.865299 178.498
-3.6596301 -19.7992 177.54601
-3.5267 -29.537201 184.98399
-3.6010599 -23.5506 180.424
-3.56405 -26.585501 182.742
-3.92081 -29.5487 184.271
-4.0128999 -26.7309 182.05
-4.1051998 -23.8375 179.78101
-4.2526398 -20.2565 176.94
-5.2585101 -31.297899 184.37601
-5.3380299 -29.601601 183.067
-5.45643 -27.423599 181.311
-5.6047802 -24.620001 179.075
-5.8099098 -21.548599 176.534
-6.49365 -31.052099 182.802
-6.5561099 -30.280399 182.19299
-6.6887002 -28.473 180.634
-6.8828101 -25.796301 178.351
-7.1133199 -23.1859 176.03799
-7.5735502 -31.016701 181.11301
-7.6866899 -30.3039 180.354
-8.1457796 -27.3046 177.228
-8.4117203 -25.567499 175.448
-8.3862495 -32.124298 179.998
-9.1471596 -28.7043 175.66
-9.9265804 -30.7623 175.54401
-10.7779 -33.077 175.203
-11.0365 -34.355202 175.043
12.322 -38.6437 173.702
10.1378 -31.8941 175.436
8.3931303 -27.950399 176.52699
8.5501804 -27.1108 175.606
4.7771301 -20.8885 176.76601
-12.5067 -38.679501 173.629
-10.3522 -31.923599 175.375
-8.7794399 -27.135799 175.554
-8.6254396 -27.974899 176.47701
-5.03128 -20.9027 176.737
-2.0473399 -48.529598 198.78
-1.11159 -69.114304 167.696
-3.0320799 -67.805901 168.957
-2.0968001 -68.398102 168.44701
-2.9925399 -48.8297 197.68201
-3.7404499 -49.113899 196.907
-4.18962 -67.189903 169.383
-4.4946899 -49.2169 196.433
-4.82267 -66.731697 169.80701
-5.4493499 -49.962898 195.53799
-5.6781998 -65.899902 171.045
-6.4145098 -65.062897 172.383
-6.67416 -51.0299 193.94501
-7.2304001 -63.9842 174.21201
-8.4902096 -63.0718 175.886
-7.71698 -52.348499 192.097
-9.5379696 -61.916698 177.826
-8.3757 -53.640499 190.505
-8.7980003 -54.807899 189.218
-10.2234 -60.589699 180.33099
-9.0441399 -55.233799 188.83299
-9.5628004 -55.894299 188.40199
-9.5593004 -64.092903 182.06799
-8.5595303 -65.156197 180.323
-10.2422 -62.654499 184.132
-7.3804698 -66.309601 178.524
-6.7565899 -67.015602 177.185
-5.8689699 -67.930397 175.616
-5.0858402 -68.600998 174.467
-4.4714499 -68.9925 174.07001
-3.3454599 -68.937897 173.638
-2.54162 -68.779099 173.136
-1.69056 -68.379204 172.043
-0.80704099 -68.117203 171.573
-2.1010101 -51.643299 200.632
-3.07634 -52.097301 199.71201
-3.9709401 -52.552502 198.787
-4.9372501 -53.3811 197.97701
-6.0189199 -54.417198 196.76601
-6.8073502 -55.2952 195.282
-7.2630501 -56.001202 194.23
-7.6465998 -57.097801 192.98599
-7.9281502 -57.461601 192.584
-8.4833202 -57.906101 192.27
-10.0594 -56.880501 187.108
-9.06604 -58.516201 191.27901
-10.331 -57.7985 185.883
-9.5417604 -59.198799 190.388
-10.0846 -60.064701 188.752
-10.448 -59.307301 182.968
-10.38 -61.434502 186.30099
-2.2899301 -62.328701 206.229
-2.2708499 -59.261002 204.85899
-2.1821699 -57.2645 203.77499
-2.01875 -54.713001 202.485
-0.92009199 -66.986198 173.42999
-1.12888 -66.2314 173.576
-1.4941601 -65.554199 172.98801
-10.0624 -69.0411 193.19099
-10.1296 -69.237198 194.27901
-10.3135 -69.083 191.67999
-10.0153 -69.047798 190.039
-10.0815 -67.166496 193.05099
-9.9914503 -66.133499 194.286
-10.228 -67.784401 191.39101
-10.2582 -63.355099 189.131
-10.1225 -64.594299 187.254
-9.9548502 -61.812401 191.436
-9.8537302 -67.522301 189.686
-10.2568 -65.157799 191.601
-9.8021603 -63.548199 193.804
-10.0058 -66.594597 189.604
-9.7831297 -68.062302 196.30099
-9.7277203 -67.665001 187.92101
-9.6155701 -65.939499 185.235
-9.5436602 -69.184898 188.798
-9.3553896 -67.330299 188.332
-9.3712301 -64.966698 195.823
-9.1493797 -68.109596 186.483
-9.14501 -60.880001 193.002
-8.8062 -67.005096 183.627
-8.7943401 -62.370701 195.50301
-8.6608295 -67.231598 187.104
-8.9565601 -66.628502 198.09801
-8.4117203 -60.0616 194.188
-8.2405901 -63.531799 197.448
-8.0223198 -67.889702 184.86
-7.8591499 -61.634602 196.549
-7.7938499 -59.555199 194.91499
-7.7670102 -65.345596 199.798
-7.6001101 -68.105301 182.086
-7.3921099 -67.536201 183.23199
-7.3649702 -62.9412 198.44
-7.21768 -59.190498 195.295
-7.1918001 -61.232498 197.149
-7.17451 -67.836197 182.631
-6.9411802 -68.526199 180.60201
-6.95154 -64.968399 200.686
-6.9516902 -58.815498 195.69701
-6.76371 -67.339302 181.549
-6.7300301 -62.6269 198.994
-6.6586299 -60.913101 197.51801
-6.4051099 -67.719002 180.80901
-6.4360199 -57.855099 197.248
-6.3684702 -60.641499 197.99001
-6.3540802 -64.751701 201.16499
-6.2094402 -62.340801 199.34399
-6.1398201 -67.208099 180.118
-6.1205702 -68.364799 178.99001
-5.9505 -62.015301 199.787
-5.9475999 -59.806801 199.27901
-5.8766899 -64.506798 201.459
-5.7014599 -67.6362 179.47701
-5.6229501 -64.228302 201.85699
-5.61306 -61.326698 200.862
-5.5250401 -67.089401 179.161
-5.56037 -56.699699 198.771
-5.3455 -68.264297 177.875
-5.3190598 -63.521702 202.75301
-5.2045298 -58.9827 200.57201
-4.9991999 -67.548203 178.746
-4.9772801 -60.6245 202.017
-4.7473202 -66.911102 178.082
-4.7100501 -68.189102 177.35899
-4.7618198 -62.972599 203.701
-4.5458598 -55.9538 199.88699
-4.0804701 -67.461601 177.94299
-3.9502101 -66.620796 176.776
-3.9964299 -55.598301 200.429
-3.96243 -58.092899 201.646
-3.91734 -60.045399 202.99001
-3.8165801 -62.599602 204.45399
-3.5260701 -68.088997 176.692
-3.2527699 -67.250099 176.86501
-3.2370801 -57.528999 202.89799
-3.3123801 -59.5397 204.03999
-3.2906899 -62.327099 205.431
-3.0757 -55.0965 201.505
-2.8522501 -67.890602 176.02299
-2.76947 -65.944801 174.533
-2.33061 -66.642097 174.834
-2.07605 -67.344299 174.31799
-0.050976999 -65.426399 172.716
-0.051897001 -66.136101 173.37199
-0.050492998 -66.917999 173.278
-0.156036 -54.514099 202.87601
-0.156546 -57.114201 204.312
-0.15689 -59.084999 205.38699
-0.15633599 -62.406101 206.814
-0.154964 -51.352402 200.97701
-0.043336999 -68.069901 171.422
-0.030160001 -69.405197 167.623
-0.154447 -48.406799 199.37
1.97008 -67.338402 174.33
2.2195599 -66.635498 174.84801
2.65819 -65.936996 174.549
2.7377501 -67.882599 176.039
2.77336 -55.088001 201.52299
2.98592 -62.318001 205.45
3.0078199 -59.530602 204.05901
2.9335001 -57.5201 202.916
3.1314199 -67.240898 176.884
3.40816 -68.079002 176.71201
3.5183699 -62.5891 204.476
3.62044 -60.0345 203.013
3.66787 -58.081902 201.66901
3.7019 -55.5872 200.452
3.8275599 -66.609596 176.799
3.95333 -67.449997 177.967
4.2555499 -55.941101 199.91299
4.46913 -62.959301 203.728
4.58845 -68.175797 177.386
4.6177502 -66.897598 178.11
4.6877999 -60.6106 202.045
4.8675299 -67.533997 178.77499
4.91887 -58.968102 200.60201
5.0335498 -63.506802 202.784
5.2210498 -68.2491 177.90601
5.27879 -56.684101 198.80299
5.3895702 -67.0737 179.194
5.3324199 -61.310902 200.894
5.34477 -64.212502 201.89
5.56569 -67.620003 179.50999
5.6016798 -64.490303 201.493
5.6719499 -59.790001 199.314
5.6782098 -61.9986 199.82201
5.9897799 -68.347298 179.026
5.9990101 -67.190697 180.15401
5.9407001 -62.323299 199.38
6.0815001 -64.733803 201.202
6.10286 -60.623501 198.02699
6.16678 -57.837002 197.285
6.2616701 -67.700699 180.847
6.3965902 -60.894299 197.55701
6.46418 -62.607899 199.033
6.61479 -67.32 181.589
6.6943998 -58.795799 195.737
6.6824098 -64.9487 200.72701
6.80128 -68.506401 180.64301
7.0205998 -67.815697 182.673
6.9328499 -61.2122 197.19099
6.96383 -59.169998 195.33701
7.1033001 -62.9203 198.48199
7.2337699 -67.515099 183.27499
7.4502001 -68.083702 182.131
7.50421 -65.323601 199.843
7.5433002 -59.5331 194.96001
7.6049099 -61.612301 196.595
7.85534 -67.866798 184.907
7.9864802 -63.508499 197.496
8.1669197 -60.037701 194.237
8.7075005 -66.603104 198.14999
8.4786396 -67.206902 187.155
8.5483904 -62.345798 195.554
8.6439695 -66.980003 183.679
8.9095802 -60.854 193.056
8.9734001 -68.083504 186.537
9.1308603 -64.940102 195.877
9.1661997 -67.303596 188.38699
9.3570499 -69.1577 188.854
9.4407101 -65.912003 185.29201
9.5419197 -67.637199 187.978
9.54883 -68.0345 196.358
9.8069801 -66.566002 189.66299
9.5696497 -63.520302 193.86099
10.042 -65.128601 191.661
9.6570702 -67.494202 189.744
9.73137 -61.784 191.494
9.9317904 -64.565399 187.313
10.0528 -63.325901 189.19099
10.022 -67.755203 191.451
9.7635298 -66.105103 194.345
9.8638897 -67.137802 193.11
9.8209295 -69.019203 190.09801
10.1095 -69.053596 191.741
9.9106903 -69.208397 194.338
9.8493299 -69.012398 193.25
1.39094 -65.550003 172.996
1.02413 -66.228302 173.58299
0.81838101 -66.983704 173.435
1.70952 -54.7076 202.496
1.87265 -57.258701 203.787
1.96066 -59.254902 204.871
1.98046 -62.322498 206.241
10.1858 -61.4049 186.362
10.2675 -59.2775 183.02901
9.8720102 -60.0359 188.811
9.3169699 -59.1717 190.44299
10.1289 -57.769001 185.94299
8.8340101 -58.490501 191.332
9.8472996 -56.851898 187.16701
8.2436705 -57.882 192.32001
7.68537 -57.439098 192.63
7.4004002 -57.076199 193.03101
7.00634 -55.980598 194.272
6.5423799 -55.276001 195.32201
5.74264 -54.400299 196.8
4.6508298 -53.367298 198.005
3.67735 -52.5415 198.81
2.77599 -52.088902 199.729
1.79392 -51.637699 200.64301
0.719594 -68.114998 171.577
1.60107 -68.374496 172.05299
2.44678 -68.771896 173.151
3.24809 -68.928398 173.657
4.3716502 -68.979797 174.09599
4.9825501 -68.586502 174.496
5.7569199 -67.913696 175.64999
6.6325898 -66.9963 177.22501
7.24649 -66.288498 178.56799
10.0644 -62.625301 184.19299
8.41154 -65.131699 180.37399
9.3978901 -64.065598 182.12399
9.34025 -55.8671 188.45799
8.8171396 -55.208099 188.886
10.0622 -60.560501 180.39101
8.5675097 -54.782902 189.269
8.1342201 -53.616699 190.554
9.3954201 -61.8894 177.882
7.4623699 -52.326698 192.142
8.3625097 -63.047501 175.936
7.1152701 -63.963501 174.255
6.40481 -51.011101 193.98399
6.3133402 -65.044502 172.42101
5.5873899 -65.883698 171.078
5.1675301 -49.947601 195.57001
4.7416101 -66.718002 169.83501
4.20543 -49.2043 196.459
4.1124001 -67.177902 169.407
3.4481101 -49.1035 196.92799
2.6947999 -48.821499 197.69901
2.0286601 -68.392197 168.459
2.9591801 -67.797203 168.97501
1.04998 -69.111198 167.703
1.74226 -48.524101 198.791
-1.02136 -93.834999 143.201
-1.19412 -94.431801 143.959
-1.06467 -93.208298 142.62801
-1.48913 -94.635902 145.231
-2.1791799 -68.0298 207.59599
-2.1423099 -70.981903 207.71899
-2.2372899 -65.034599 207.047
-2.03585 -73.447998 207.685
-1.99367 -76.3694 207.302
-1.99485 -79.191597 206.526
-1.91009 -81.827698 205.539
-1.82919 -83.767097 204.666
-1.7565399 -85.594704 203.711
-1.67461 -87.717903 202.271
-1.60092 -89.616501 200.94
-1.55009 -91.440102 199.716
-1.57302 -92.897903 198.214
-1.8868999 -94.184196 196.291
-0.226567 -95.155197 195.026
-2.10675 -94.842499 194.912
-0.54083103 -95.559898 193.823
-1.00876 -95.891602 192.284
-1.39847 -96.188103 191.028
-1.90143 -96.4692 189.509
-2.7700701 -96.913498 187.334
-1.56926 -97.425301 185.032
-0.60279 -97.8377 182.168
-1.23387 -97.976196 179.603
-2.25335 -97.82 181.96201
-0.651604 -98.107903 176.646
-0.51302898 -98.560997 172.877
-0.38901401 -99.342499 167.73199
-2.88097 -72.578201 180.564
-3.28582 -70.688499 180.23801
-2.9519601 -75.904404 179.03101
-4.90798 -82.181297 176.70599
-3.1256399 -69.550301 178.802
-0.340992 -99.920898 164.3
-2.42781 -69.578499 176.737
-2.1517701 -73.692299 171.347
-4.1947899 -85.069397 172.446
-2.2590699 -76.001099 166.20399
-3.5309701 -87.284103 166.063
-0.29636201 -100.49 160.94701
-2.02791 -78.212196 162.299
-1.87648 -66.625603 171.765
-1.64071 -68.023903 170.304
-2.3940201 -89.207703 162.24001
-1.31103 -69.585197 168.675
-1.50929 -79.974503 159.338
-1.07125 -71.120201 166.91299
-0.838108 -73.481499 163.65601
-0.55221897 -74.576698 161.82001
-1.85729 -90.584 159.742
-0.39214 -75.6558 160.05901
-1.67465 -91.4813 157.564
-1.22042 -80.995903 156.849
-0.79873401 -101.26 155.67999
-0.89426798 -101.615 152.505
-0.79156798 -100.896 158.306
-0.78415602 -100.531 160.93201
-1.10285 -101.73 150.91299
-1.68973 -92.084 155.627
-0.38583401 -76.762802 158.3
-1.74858 -92.512703 153.97501
-0.408005 -77.965401 156.338
-1.10701 -81.7789 154.672
-1.13256 -101.806 149.80901
-1.84597 -92.839302 152.63
-0.445768 -80.153801 153.442
-1.11981 -101.785 148.606
-1.7546901 -93.237396 151.466
-1.0589 -101.502 147.02699
-0.45456401 -82.228203 150.66
-1.69728 -93.638496 150.17599
-0.94853801 -101.015 145.576
-1.65418 -94.039703 148.661
-0.41389 -83.790199 148.496
-0.82539999 -100.349 144.41
-1.59077 -94.394501 146.99899
-0.75048298 -99.542297 143.48199
-0.41148201 -83.892998 147.153
-0.71925402 -98.597801 142.64
-1.9665999 -84.555 147.817
-1.73751 -84.964798 145.562
-0.42307499 -83.753502 146.216
-0.71367103 -97.836197 141.97701
-0.44676599 -83.535896 145.364
-0.94262499 -85.171402 144.108
-1.73025 -85.6502 143.95
-0.70966297 -97.288597 141.451
-0.474269 -83.462997 144.41299
-0.69713598 -96.779701 140.868
-0.87189299 -86.598297 142.263
-0.48692399 -83.647102 143.60201
-0.69882101 -96.263603 140.21001
-0.31889501 -93.020897 142.34599
-1.02703 -92.943001 142.39799
-0.99315399 -87.2864 141.744
-0.70487499 -95.671204 139.67
-0.475793 -84.150703 142.82899
-0.130146 -92.875099 142.134
-0.63005698 -92.7342 142.164
-0.29603699 -92.749901 141.80901
-0.38806701 -92.654503 141.293
-0.51643801 -87.998398 141.304
-0.43746901 -92.337402 140.804
-0.76984203 -94.8936 139.41
-0.46096 -91.784798 140.478
-0.44710299 -85.015297 142.086
-0.312967 -91.1408 140.185
-0.38222399 -88.261398 141.14
-0.382442 -88.475998 140.972
-0.84462601 -94.094597 139.349
-0.44543001 -85.896599 141.433
-0.14197899 -88.6875 140.686
-0.49204001 -90.266197 140.44701
-0.56655902 -90.688599 140.237
-0.368907 -89.483498 140.485
-0.20564499 -89.042297 140.506
-0.56674498 -90.604599 139.93201
-0.93054098 -93.401199 139.347
-0.43376401 -86.738197 140.84399
-1.0775501 -90.497498 139.89301
-1.13968 -91.001999 140.242
-0.567303 -90.388 139.64
-1.00357 -92.788902 139.353
-1.01404 -90.439102 139.66299
-1.03385 -90.528099 139.46899
-0.440734 -87.807602 140.304
-1.05683 -92.115799 139.338
-0.562599 -89.424599 139.662
-1.08048 -91.348999 139.312
-1.05711 -90.766502 139.395
-0.52986097 -88.803497 140.078
-12.5768 -91.615402 182.041
-12.7497 -91.600403 181.987
-12.6859 -91.1008 181.97501
-12.5309 -91.109299 182.011
-12.6956 -91.570503 181.85001
-12.6425 -91.0672 181.855
-12.7992 -92.437302 181.914
-12.7329 -92.3675 181.76199
-12.6095 -92.443199 182.035
-12.5989 -92.319397 181.64301
-12.5788 -91.584396 181.74001
-12.5367 -91.076897 181.76199
-12.6661 -92.965797 181.619
-12.5249 -92.894501 181.479
-12.6538 -93.076103 181.765
-12.4996 -93.165298 181.881
-12.4431 -90.271103 181.771
-12.4588 -90.242302 181.85001
-12.37 -90.331596 181.91299
-12.3589 -90.318497 181.71001
-12.372 -91.0728 182.369
-12.3056 -90.475197 182.211
-12.3525 -90.339996 182.45799
-12.433 -91.022903 182.638
-12.4602 -91.759598 182.785
-12.3857 -91.790604 182.459
-12.3959 -91.7314 183.01199
-12.369 -90.997101 182.825
-12.3182 -90.304901 182.562
-12.4166 -92.615402 182.875
-12.3157 -92.615799 183.127
-12.3467 -92.505798 182.51199
-12.2909 -91.1269 182.207
-12.3173 -91.754997 182.298
-12.2585 -90.468102 182.07899
-12.2983 -92.473999 182.31
-12.2695 -89.830803 181.616
-12.2352 -89.855202 181.69901
-12.2753 -89.880096 181.589
-12.2813 -91.137604 182.082
-12.2547 -90.468102 181.97701
-12.2908 -91.723297 182.14
-12.2555 -90.965103 183.226
-12.4406 -90.911301 183.66701
-12.368 -91.725502 183.808
