# .PCD v.7 - Point Cloud Data file format
VERSION .7
FIELDS x y z
SIZE 4 4 4
TYPE F F F
COUNT 1 1 1
WIDTH 1686
HEIGHT 1
VIEWPOINT 0 0 0 1 0 0 0
POINTS 1686
DATA ascii
18.8808 -37.602402 129.69501
17.8305 -38.698898 129.96899
17.190901 -39.2924 130.42
16.9326 -39.513802 130.714
16.496799 -39.815102 131.54401
16.2883 -40.008999 132.235
16.261801 -40.0966 132.89999
16.365299 -40.064301 133.72701
16.5418 -39.957699 134.474
16.6397 -39.9781 135.00301
16.880699 -39.8512 135.694
17.194401 -39.626301 136.43201
17.4517 -39.410702 136.875
17.9121 -38.967899 137.53999
18.3571 -38.542099 138.026
18.8466 -38.0919 138.384
19.178801 -37.7952 138.55701
19.469299 -37.5522 138.63499
19.719101 -37.331001 138.636
20.0788 -36.985401 138.547
19.796 -35.583698 138.136
19.425301 -34.891499 138.078
18.988899 -34.031502 138.117
18.4107 -33.087601 138.259
17.6702 -32.083 138.397
17.0042 -30.8939 138.399
16.304501 -29.563299 138.353
15.4822 -28.079201 138.16
13.6775 -25.238001 137.60699
12.6617 -37.101799 134.45599
10.9166 -35.280201 135.158
7.5145202 -31.3183 137.463
9.4043503 -33.016899 137.67
8.3610296 -30.8125 138.069
6.6477098 -31.806299 136.082
13.3787 -31.3776 130.062
12.4862 -30.484699 130.06
10.3066 -28.704 129.994
14.0127 -30.8666 130.554
13.0188 -30.055 130.508
10.8885 -28.2188 130.41701
11.6612 -32.638302 129.366
10.7373 -31.8333 129.42599
8.5102396 -30.0938 129.57401
13.6113 -27.669901 138.494
14.0241 -27.200399 138.26199
15.3839 -25.8188 133.78799
15.4493 -25.661301 134.614
15.3817 -25.6777 136
15.0837 -26.0707 137.18201
10.6394 -30.2437 129.65199
9.6853399 -30.9944 129.537
8.6747398 -31.786699 129.91701
7.75176 -32.506901 130.78
7.1230798 -33.0014 132.056
11.4487 -29.5902 130.041
12.9038 -28.341999 131.054
12.4588 -28.751301 130.827
14.0037 -27.290899 131.27499
13.4003 -27.8638 131.13499
14.6327 -26.713301 131.77499
15.1187 -26.207399 132.69
8.8254204 -31.906099 137.886
9.7505999 -31.247601 138.28101
6.9429202 -33.189999 133.71899
7.1806002 -33.066898 134.967
10.595 -30.6327 138.45
11.2428 -30.0849 138.603
11.7627 -29.6525 138.808
12.2389 -29.1931 138.918
12.7984 -28.594801 138.901
13.259 -28.085199 138.739
7.4570398 -32.874001 135.73
14.5732 -26.6042 137.87601
7.7100601 -32.694698 136.44501
8.1113701 -32.407101 137.21201
11.9951 -29.147301 130.47501
24.9324 -37.415501 137.554
24.270201 -37.0812 137.23199
24.398001 -36.897701 136.15601
25.0338 -37.128201 136.42101
25.268499 -36.864101 132.424
25.243 -36.7556 133.841
24.748301 -36.617298 132.23
24.7365 -36.486099 133.659
25.127199 -36.860401 134.964
25.081699 -37.012901 135.92599
24.616199 -36.585098 134.729
24.5089 -36.722099 135.54401
20.283199 -42.719101 137.291
20.7999 -42.300999 138.183
21.3195 -41.3489 139.13
22.0924 -39.830799 139.75
23.145599 -38.479198 139.375
23.643101 -37.885799 138.866
24.0394 -37.400101 138.16299
24.669901 -37.815498 138.53999
21.0949 -41.804901 138.74899
21.5189 -40.916599 139.42599
21.7486 -40.398399 139.661
22.580601 -39.1674 139.664
23.407101 -38.2868 129.629
23.948 -37.223499 130.474
23.6705 -36.469002 135.741
23.639 -36.6539 136.78799
24.1238 -36.594002 131.269
24.141399 -36.2663 132.091
24.102699 -36.088799 133.36099
23.9475 -36.1124 134.39
23.811001 -36.2598 135.041
23.4601 -36.956299 137.735
22.5968 -37.998299 139.047
21.517799 -39.261101 139.465
23.094101 -37.423901 138.49699
21.1308 -39.759701 139.40199
22.026699 -38.650398 139.355
22.3685 -40.441799 129.66499
22.9048 -39.289001 129.396
20.8197 -40.205101 139.23199
20.544901 -40.636799 138.97301
14.8391 -38.8578 134.088
14.6711 -38.964401 133.22701
15.0797 -38.794102 134.79401
15.2616 -38.815201 135.30299
15.5867 -38.725399 135.88
14.675 -39.024399 132.48
19.792101 -40.3792 138.522
19.539301 -39.845001 138.513
19.1598 -40.274502 138.06799
18.758499 -40.830101 137.39
19.4447 -40.893101 138.03799
19.112 -41.420101 137.313
20.301901 -41.115501 138.601
19.9666 -41.576099 138.082
19.586399 -42.019699 137.282
17.6724 -41.715401 132.166
17.747999 -41.433399 131.323
17.9851 -41.345501 130.936
18.631399 -41.248199 130.47
19.339199 -41.228401 130.246
20.100401 -41.233002 130.16499
20.574301 -41.289299 130.12601
18.8855 -43.064999 131.82401
19.066799 -42.7705 131.276
18.684299 -42.4543 131.255
18.525499 -42.720901 131.886
19.106199 -42.391998 130.899
19.8009 -42.546398 130.786
18.108999 -42.289001 132.00101
18.202299 -41.910301 131.194
18.7258 -41.8806 130.726
19.212999 -41.886501 130.549
20.0166 -41.876701 130.42
18.7342 -43.077301 132.244
18.477301 -42.845501 132.633
18.175301 -42.439201 133.05099
19.2358 -42.298 136.342
18.656099 -42.478699 134.23599
18.975901 -42.390202 135.20799
18.401899 -42.479599 133.825
42.959099 -50.2551 135.26401
44.0387 -50.718498 135.39301
44.213402 -50.0051 135.537
43.2658 -49.485802 135.495
44.7957 -51.041 135.467
44.932899 -50.3535 135.57001
44.138599 -53.428398 138.12399
43.240398 -53.179298 138.08501
43.254398 -52.783901 139.035
43.349602 -53.212299 137.433
43.888199 -50.426601 142.101
44.1544 -49.701801 142.17999
25.67 -37.730598 137.745
25.879 -37.341499 136.509
21.110001 -43.825699 136.351
20.6397 -43.537201 136.353
21.733299 -44.231499 136.414
22.184299 -42.054298 139.284
23.2204 -42.795898 139.43201
22.4645 -43.391701 138.75
21.643499 -42.943199 138.36099
21.964899 -44.169998 137.37399
21.2131 -43.490501 137.315
44.346699 -49.306099 136.339
43.417801 -48.7798 136.27
44.443298 -48.9258 136.69701
43.459099 -48.4772 136.57899
44.535999 -48.489399 137.46201
43.445599 -48.020199 137.317
44.457901 -48.197701 138.32201
43.3951 -47.7033 138.13901
44.275101 -47.994099 139.368
43.2551 -47.492001 139.08701
43.726601 -52.916698 136.52499
43.7131 -51.303001 135.54401
44.546501 -51.622898 135.638
44.2164 -52.3647 136.04601
42.011101 -48.018101 135.966
45.022099 -49.668098 136.34
45.118698 -49.256401 136.75
45.1959 -48.326302 139.54601
44.946602 -48.4035 140.57899
44.709301 -48.6185 141.325
44.3932 -49.1717 141.944
45.273102 -48.521198 138.427
45.247101 -48.792999 137.543
42.0653 -47.4105 136.89101
42.079102 -47.055302 137.69099
41.723801 -48.859001 135.23
43.157398 -49.225899 142.02699
43.428699 -48.689201 141.72501
43.720299 -48.23 141.08701
43.971901 -48.000401 140.33
42.060699 -48.645802 141.795
42.317799 -48.089001 141.438
42.604198 -47.6745 140.79201
42.938801 -47.504002 140.02699
40.651199 -47.812099 141.455
40.973701 -47.325802 141.017
41.312801 -46.959801 140.33701
41.683498 -46.7939 139.47301
41.948299 -46.833599 138.564
41.395199 -49.6535 134.99899
39.424801 -47.0093 141.174
39.712399 -46.5257 140.689
39.980099 -46.188099 139.94501
40.259899 -46.077099 138.823
40.417099 -46.131001 137.85201
40.4897 -46.430199 136.888
40.504398 -46.748798 136.31
40.452801 -47.284901 135.603
40.227501 -48.209702 134.89101
39.882401 -49.073898 134.63699
37.426498 -45.73 140.726
37.776199 -45.255501 140.149
38.1161 -45.043098 139.33
38.463699 -45.060101 138.217
38.6385 -45.240799 137.158
38.686501 -45.600601 136.12399
38.630699 -45.971401 135.423
38.511501 -46.578201 134.666
38.240398 -47.453098 134.146
37.851398 -48.320599 134.03101
35.803799 -44.532799 140.367
36.193298 -44.090401 139.661
36.498798 -43.914101 138.7
36.722 -44.017899 137.543
36.918598 -44.194302 136.464
36.981098 -44.326199 136
37.006302 -44.6758 135.14799
36.990601 -45.1283 134.435
36.810101 -45.799801 133.814
36.385799 -46.743301 133.481
35.9459 -47.6978 133.543
33.9692 -49.982201 137.10001
36.064999 -50.631699 137.217
33.8592 -49.665901 138.131
35.911598 -50.3368 138.198
38.110298 -51.133301 138.282
38.280701 -51.357101 137.325
39.602402 -51.740299 138.246
39.748402 -51.894501 137.369
41.158699 -52.383099 138.231
41.313202 -52.4314 137.39799
34.108398 -48.135101 139.74001
36.0952 -49.002998 139.84801
38.356701 -49.929901 139.94901
39.7906 -50.598099 140.032
41.355 -51.404301 140.037
42.352402 -52.845699 137.355
42.246201 -52.831902 138.12601
42.338001 -52.428699 139.05299
42.446098 -51.935902 139.987
43.3983 -52.306198 139.97701
43.262501 -52.016602 135.93401
42.747299 -52.59 136.39799
42.199001 -51.612 135.73599
41.685001 -52.252399 136.297
34.304199 -47.421001 140.052
36.304401 -48.328602 140.23801
38.535301 -49.331299 140.444
39.9575 -50.054501 140.60899
41.464401 -50.875599 140.717
42.538101 -51.400501 140.718
43.550098 -51.8759 140.685
34.7789 -46.309299 140.60201
36.691399 -47.346802 140.826
38.8256 -48.515999 141.05299
40.192299 -49.2971 141.28
41.624298 -50.118999 141.429
42.6637 -50.689899 141.478
43.7216 -51.101002 141.58
35.243599 -45.354401 140.758
37.088902 -46.4758 140.985
39.144402 -47.6991 141.366
40.456799 -48.5168 141.604
41.826 -49.365898 141.858
42.862801 -49.932598 141.991
40.1269 -51.795601 136.19
38.627102 -51.3438 136.049
36.459099 -50.675701 135.836
34.3353 -50.058601 135.716
40.658401 -51.048302 135.47501
39.121899 -50.5191 135.21001
36.9706 -49.9007 134.83701
34.962299 -49.384499 134.608
42.6404 -50.855999 135.37
41.111401 -50.294601 135.073
39.549198 -49.715401 134.75
37.447399 -49.016701 134.245
35.4827 -48.486 133.903
27.7143 -38.486198 133.321
27.669201 -38.303299 133.707
26.118799 -37.2906 132.938
26.0839 -37.466801 132.349
27.4998 -37.996601 134.739
26.0895 -37.148499 134.14301
25.2498 -37.106899 131.65199
24.7227 -36.899101 131.433
27.4069 -37.870499 135.967
25.9916 -37.126701 135.34599
27.291901 -37.986 136.94099
27.0828 -38.419899 138.153
21.7544 -42.294498 130.34399
21.072901 -42.716499 130.605
21.119699 -43.119499 130.82201
21.7167 -43.078499 130.688
21.030899 -43.743801 131.244
21.575199 -43.916698 131.224
20.914 -44.262901 131.799
21.467199 -44.544899 131.827
22.9674 -41.436001 129.97
22.9051 -42.744301 130.423
22.419399 -44.126499 131.16499
22.137199 -44.780201 131.758
23.527901 -40.314999 129.644
23.778601 -41.4604 130.00101
27.504101 -40.962502 130.677
25.7318 -40.498699 130.101
25.1315 -41.627399 130.168
26.9895 -42.089699 130.50101
24.3486 -43.267502 130.528
26.303101 -43.6558 130.689
23.577299 -44.475101 131.13699
25.5632 -44.900002 131.19701
23.189899 -45.152199 131.774
25.0837 -45.567299 131.76801
24.3452 -40.308998 129.765
23.893499 -39.275501 129.54601
24.246201 -38.360298 129.87801
24.7432 -39.359001 129.79201
24.956699 -38.501499 130.16901
25.9813 -39.583599 130.375
26.067301 -38.850601 130.76401
27.764 -40.0023 131.257
27.840401 -39.585899 131.677
24.6064 -37.451 130.63901
25.1611 -37.6451 130.858
26.112101 -37.970402 131.56599
27.876801 -38.9842 132.494
20.208099 -43.434898 131.27901
20.014799 -43.807098 131.819
20.6064 -43.095299 130.909
20.594601 -43.598202 131.27699
20.477301 -44.049099 131.79401
20.8922 -43.9034 135.38699
21.563499 -44.344101 135.494
21.0396 -44.395199 134.33501
21.4109 -44.642101 134.355
21.952801 -45.240601 133.422
22.1497 -45.0373 134.476
22.1549 -44.750401 135.554
22.198601 -44.568501 136.48599
22.765499 -44.820202 137.407
22.839899 -44.9673 136.562
23.9394 -45.572201 137.524
24.1078 -45.679501 136.687
23.0867 -43.781601 138.88
24.2782 -44.429901 139.117
24.5376 -43.559399 139.644
22.928499 -40.353699 140.03
23.997601 -41.0499 140.28799
25.2742 -41.939301 140.52
23.800501 -38.948002 139.68201
24.481701 -39.395 139.94299
25.883101 -40.3055 140.358
24.278799 -38.3363 139.209
24.948601 -38.748299 139.511
26.3253 -39.676102 139.985
25.366501 -38.2117 138.847
26.721001 -39.0485 139.33501
20.1446 -44.042301 132.155
19.808201 -43.903099 132.355
20.658899 -44.327099 132.217
20.2502 -44.209301 132.623
19.785601 -43.901901 132.868
21.168301 -44.627998 132.265
20.8932 -44.631699 132.84599
20.415899 -44.307701 133.119
19.9118 -43.859901 133.528
22.9785 -45.558899 132.42599
24.841999 -45.905998 132.175
21.9991 -45.154499 132.519
21.375601 -44.911098 132.726
21.3032 -44.941898 133.142
21.0641 -44.7869 133.416
20.7862 -44.5854 133.446
20.6369 -44.458698 133.35699
20.5165 -44.2187 133.864
20.2791 -43.477699 135.272
19.9916 -43.645802 134.258
20.5506 -44.076 134.33501
24.1322 -46.028099 135.76801
22.964701 -45.303398 135.646
24.2633 -46.3535 134.51401
22.941999 -45.530102 134.548
24.4203 -46.382099 133.295
22.889099 -45.7561 133.452
29.392099 -39.512901 134.159
29.302401 -39.193699 135.444
29.212299 -38.9394 136.951
29.1362 -38.9748 137.61
28.750799 -39.3536 138.789
29.183599 -41.413502 131.17999
28.688499 -42.580299 130.716
28.0791 -43.8508 130.826
27.361401 -45.084999 131.291
26.7659 -45.953201 131.925
29.455099 -40.405899 132.315
29.5002 -39.902302 133.269
35.037899 -42.843399 136.804
35.210098 -43.106098 135.717
34.565701 -42.6422 139.07001
34.813202 -42.622501 137.91299
35.301102 -43.32 135.158
35.3325 -43.801201 134.155
35.220501 -44.363098 133.43401
34.966801 -45.0965 132.92
34.424099 -46.104099 132.76601
33.8871 -47.071098 132.965
32.324299 -40.855701 138.263
32.546398 -40.919899 136.983
32.632999 -41.289299 135.674
32.7201 -41.642399 134.629
32.753399 -41.9739 133.875
32.694199 -42.648899 132.752
32.461899 -43.547401 131.94501
32.025902 -44.541 131.657
31.4839 -45.5709 131.881
30.947399 -46.4785 132.31
31.0065 -40.007999 137.593
31.2341 -40.252399 136.28799
31.415199 -40.590302 135.07401
31.5016 -40.981998 134.12
31.564699 -41.3638 133.267
31.4347 -42.076401 132.12399
31.040899 -43.182999 131.386
30.513599 -44.293098 131.23599
29.8731 -45.369999 131.541
29.270901 -46.264301 132.078
34.188202 -43.116501 140.013
31.919201 -41.1894 139.54401
30.9105 -39.958698 138.12601
30.559601 -40.3736 139.302
25.5882 -46.6898 136.67
27.459499 -47.760899 136.77901
25.519699 -45.8055 138.73399
28.8717 -48.106098 137.908
28.8944 -48.418598 136.955
31.702299 -49.136398 137.662
31.753 -49.4207 137.073
27.8787 -45.845901 139.479
31.810499 -48.451401 138.994
26.5548 -42.673302 140.57201
28.391399 -44.528702 140.13699
29.4613 -45.7159 139.7
32.132599 -47.3204 139.707
29.1793 -42.903599 140.63499
30.1036 -44.202702 140.437
27.896299 -40.657398 140.34
29.7297 -41.8265 140.586
30.891001 -42.782001 140.618
33.371201 -44.475101 140.582
28.2806 -40.019001 139.84
30.125999 -41.1366 140.158
31.3384 -41.9827 140.302
33.742001 -43.791 140.5
32.133701 -49.568802 135.774
29.0912 -48.697498 135.84399
27.51 -47.996899 135.808
25.552 -47.038399 135.849
32.693199 -49.002399 134.45599
29.5481 -48.384701 134.409
27.9286 -47.9314 134.37801
25.5814 -47.103298 134.51401
33.356899 -47.9282 133.45
30.205 -47.5131 133.187
28.5285 -47.3064 133.12601
26.036501 -46.8657 133.203
26.519899 -37.6278 136.673
28.1998 -38.446701 137.28799
29.949499 -39.444099 137.862
33.323799 -41.625599 138.65401
26.3291 -38.064602 137.89101
27.896099 -38.844101 138.476
29.564501 -39.828899 139.032
32.952499 -42.045898 139.74899
32.491798 -42.7533 140.34399
32.021801 -43.524101 140.619
28.767401 -41.189098 140.455
29.1129 -40.524399 140.015
27.4821 -39.520699 139.595
27.085501 -40.157501 140.183
25.604601 -39.201302 139.75301
26.021 -38.638699 139.084
26.6567 -37.510502 135.57401
28.2985 -38.388802 136.45799
30.066401 -39.437801 137.257
33.602798 -41.661701 137.41701
33.726799 -41.958698 136.202
30.2309 -39.693699 135.841
30.366301 -40.055099 134.577
28.5112 -38.9221 134.039
28.5476 -39.0284 133.763
28.4091 -38.596298 135.118
26.758801 -37.553699 134.40401
26.8344 -37.734402 133.34599
26.850901 -37.937099 132.881
28.4203 -39.299301 132.789
26.6737 -38.2696 131.93401
30.412399 -40.3773 133.655
33.827099 -42.301399 135.134
25.1448 -39.798698 140.161
26.658701 -40.777699 140.50101
31.112801 -45.2696 140.15199
44.1068 -53.058399 139.043
45.022202 -50.253201 142.27901
44.984798 -52.653999 136.12801
46.1105 -48.645 139.70599
45.865101 -48.722401 140.55299
44.337399 -52.136002 140.774
44.2113 -52.5662 140.037
44.834 -50.7631 142.187
45.3535 -49.415298 142.02499
46.025398 -50.1259 136.299
46.169399 -49.714401 136.795
46.287701 -48.856899 138.619
47.158901 -49.135201 138.867
45.354099 -53.767799 137.668
45.223598 -53.747799 137.866
44.666801 -53.4296 138.584
44.680698 -53.1716 139.168
45.198002 -53.683102 137.245
45.355099 -53.731098 137.39301
45.384998 -53.565399 136.892
44.938099 -53.734299 137.617
45.095001 -53.718399 138.06
46.108501 -52.262901 135.666
46.970501 -50.461601 136.349
45.723099 -50.520901 142.38901
45.999599 -49.829601 142.27699
44.740299 -53.645199 138.10699
45.001598 -52.356701 140.869
45.5121 -51.049301 142.254
46.640701 -48.923599 140.758
46.865002 -48.865398 139.94299
47.199001 -49.5149 137.888
47.087799 -50.0434 136.924
46.6595 -50.948299 135.562
46.372501 -51.536301 135.392
45.859798 -53.071098 136.181
45.492199 -53.4156 136.631
44.199699 -53.495998 137.416
44.514198 -53.630001 137.839
44.607399 -53.643101 137.464
44.855301 -53.6376 137.24001
45.5117 -51.258999 135.438
45.816601 -50.702801 135.567
44.711201 -53.460701 136.903
44.643299 -53.267601 136.61501
45.239498 -51.9119 135.65601
46.306 -49.191502 137.701
44.6078 -51.460899 141.658
21.9259 -42.447701 138.922
22.7481 -43.059399 139.105
23.252399 -43.374001 139.19901
24.4384 -44.039001 139.399
22.3771 -41.614399 139.586
23.402201 -42.3974 139.75
24.6455 -43.234798 139.922
22.6071 -41.032799 139.886
23.650499 -41.7677 140.10899
24.891399 -42.627201 140.302
22.306499 -43.662102 138.35699
22.8829 -44.185299 138.43401
24.0578 -44.976299 138.571
24.6682 -40.4673 140.34399
25.414801 -40.994202 140.53101
26.129299 -41.417702 140.623
27.080601 -41.952599 140.649
23.3055 -39.629902 139.953
24.048401 -40.075199 140.189
25.573 -46.5471 136.94501
27.4652 -47.543999 137.201
28.9051 -48.162399 137.424
25.4646 -46.485901 137.617
27.392799 -47.471298 137.728
25.6826 -44.7314 139.526
25.648199 -45.134201 139.258
27.506201 -46.795101 138.811
28.9951 -47.4268 138.944
25.9373 -43.980801 139.976
28.089701 -45.278599 139.662
26.1779 -43.420601 140.328
25.816601 -44.3167 139.718
28.100401 -42.459 140.655
27.5249 -41.269798 140.60001
28.461201 -41.770901 140.651
29.503901 -42.258801 140.68401
30.585899 -43.294399 140.589
28.7512 -43.769501 140.47
31.496099 -44.428398 140.483
32.825802 -45.520802 140.37399
32.357101 -46.6213 139.866
33.888699 -49.127701 138.94701
31.686001 -49.037201 138.15601
33.901199 -49.766399 137.701
29.2962 -46.367599 139.506
29.714899 -45.027599 140.112
30.7959 -46.1007 139.761
30.563999 -46.8307 139.599
30.261499 -47.9142 138.989
30.1423 -48.588001 138.06799
30.185801 -48.649799 137.59599
30.238501 -48.9202 137.004
30.5518 -49.178501 135.87
31.0861 -48.701401 134.44
31.8251 -47.646301 133.246
32.428902 -46.653099 132.571
32.924301 -45.7649 132.25
33.513199 -44.737598 132.218
33.830799 -43.921101 132.64301
33.932301 -43.240002 133.44701
33.901501 -42.598598 134.481
41.179199 -52.422501 137.985
39.638 -51.816898 137.952
38.1819 -51.225101 137.87
35.969799 -50.443298 137.761
35.920101 -49.861 138.963
38.166 -50.702099 139.01801
39.6479 -51.2761 139.077
41.259701 -51.934898 139.121
42.0322 -47.811199 136.27299
42.0667 -47.554199 136.66299
43.459301 -48.216 136.963
44.500801 -48.6796 137.07401
47.163898 -49.759399 137.429
46.259602 -49.424099 137.274
45.187099 -48.994099 137.15401
43.430401 -48.706902 136.332
44.3792 -49.179501 136.43401
45.055698 -49.514198 136.46899
46.089001 -49.956501 136.48399
47.018902 -50.3046 136.55099
42.091202 -47.215302 137.257
43.433102 -47.8932 137.593
44.527699 -48.374802 137.735
45.27 -48.685799 137.80901
46.313801 -49.0625 137.996
47.198299 -49.363899 138.22099
47.171101 -49.274799 138.528
46.2901 -48.9809 138.302
45.2616 -48.620399 138.116
44.485298 -48.3111 138.009
43.405399 -47.820999 137.85699
42.070301 -47.157299 137.478
40.486 -46.329601 137.155
42.066299 -46.975101 137.912
43.374401 -47.5961 138.427
44.416901 -48.0965 138.65199
45.272598 -48.415199 138.79201
46.256401 -48.754101 138.953
47.0844 -49.012501 139.187
46.960701 -48.9002 139.60201
46.185001 -48.666901 139.399
45.237099 -48.350399 139.226
44.341099 -48.0327 139.058
43.311901 -47.527302 138.804
42.008099 -46.884899 138.255
40.454102 -46.2019 137.54401
38.6581 -45.3507 136.785
30.4184 -40.838501 132.791
30.318001 -41.712299 131.60699
29.855801 -42.877701 131.008
29.249201 -44.0695 130.964
28.546 -45.227402 131.342
27.9624 -46.1106 131.963
27.229 -47.117401 133.159
26.710199 -47.543201 134.455
26.49 -47.498001 135.851
26.4457 -47.2379 136.715
26.4289 -47.065701 137.05299
26.4314 -46.324402 138.763
26.730301 -45.556301 139.364
26.8274 -45.2747 139.55299
27.334499 -44.005901 140.246
27.6738 -43.269798 140.52699
26.3699 -46.993301 137.625
27.076 -44.551998 139.912
26.966 -44.8563 139.67999
44.798698 -52.749599 140.062
44.7215 -53.013802 139.51601
45.233898 -51.841202 141.592
45.295601 -51.662601 141.789
46.305302 -49.247101 141.73801
46.4529 -49.0798 141.377
45.848999 -50.211102 142.36501
45.562099 -49.037102 141.535
45.6693 -48.895699 141.192
45.1189 -49.979599 142.235
44.908199 -52.537399 140.507
45.5709 -50.91 142.3
46.1059 -49.59 142.142
45.415501 -49.282001 141.90401
46.174599 -49.445801 142.011
44.641399 -48.7248 141.47501
45.4991 -49.1297 141.713
46.23 -49.3503 141.88499
45.2719 -49.5881 142.123
46.736401 -50.826599 135.672
46.450199 -51.379002 135.425
45.936199 -52.8349 136.022
21.294399 -41.5014 130.136
19.430401 -43.4361 131.812
19.693199 -43.07 131.202
20.204901 -42.705399 130.787
20.705 -42.137402 130.414
19.268 -43.550701 132.41499
19.189199 -43.463699 132.91499
19.1143 -43.2332 133.494
19.329 -43.070499 134.222
19.5616 -42.911598 135.17599
19.8402 -42.905602 136.314
53.372002 -53.948898 145.08701
52.694099 -54.265598 145.78799
53.468601 -53.614101 144.91701
53.6567 -53.212101 143.92999
53.6404 -53.5471 144.09599
53.398499 -53.380199 143.052
53.457298 -53.673199 143.211
46.242699 -53.799198 137.78
46.640099 -54.110401 137.851
47.049702 -54.4464 137.972
47.310699 -54.312199 136.85001
48.995098 -49.732101 139.05299
48.791302 -50.1012 138.283
49.688999 -50.858299 138.26199
49.840199 -50.561401 138.953
50.3773 -51.594501 138.72501
50.363098 -51.274399 139.14799
50.801201 -52.173599 139.446
49.5709 -51.192101 137.55499
48.594299 -50.486599 137.284
48.293301 -50.885899 136.243
53.3992 -56.733101 144.205
54.086498 -56.182201 143.922
48.997799 -53.107899 135.52499
48.446602 -52.552898 135.44901
47.865299 -53.198299 135.686
48.343201 -53.666901 135.72301
47.254299 -53.731602 136.15401
47.7089 -54.167301 136.228
46.945301 -53.950298 136.76801
46.9063 -54.397301 139.407
46.5056 -53.983002 139.82401
46.93 -54.256302 140.054
46.591 -53.726002 140.623
47.022301 -54.014301 140.84
46.677299 -53.254902 141.40601
47.09 -53.550201 141.61
46.802399 -52.6362 142.13
47.244499 -52.8451 142.40401
46.9744 -51.799099 142.77299
47.384701 -52.048901 143.013
47.142399 -51.140499 143.076
47.524899 -51.3829 143.384
47.584999 -50.150299 143.261
47.947201 -50.2379 143.634
50.191002 -54.373199 144.87
49.372898 -53.523499 144.293
49.974201 -53.697601 144.88
50.4869 -54.256001 145.155
50.550598 -53.709099 145.23399
50.9104 -54.223301 145.47501
51.5135 -53.497601 145.444
51.546799 -53.971901 145.68201
52.401699 -53.1059 145.119
52.372398 -53.617599 145.409
53.114399 -52.747398 144.653
52.958698 -53.3279 145.054
53.7467 -52.249199 144.14799
53.483299 -53.0051 144.703
54.039299 -51.560398 143.478
53.805698 -52.701401 144.30099
47.2379 -50.084702 142.882
48.000198 -48.9669 141.77901
48.4221 -48.912399 142.339
48.2575 -49.014 140.769
48.8591 -48.840401 141.44099
48.5909 -49.317402 139.76801
49.403999 -49.210899 140.185
49.259701 -49.112499 143.476
48.801102 -48.9604 142.867
49.220501 -48.7365 142.089
49.672001 -48.741299 142.839
49.893799 -48.897499 141.20799
50.3148 -48.746498 141.99699
50.528999 -49.506401 140.728
50.920898 -49.255299 141.397
51.059399 -50.1842 140.625
51.366501 -49.9062 141.099
51.535099 -50.978298 140.679
51.7939 -50.740601 141.002
51.968601 -51.628799 140.929
52.195099 -51.3624 141.196
52.626202 -52.009701 141.617
49.631599 -55.7201 142.726
48.696499 -55.131001 141.845
48.847198 -54.5793 142.657
49.723301 -55.401199 143.293
50.565102 -56.114899 143.746
50.479401 -56.421799 143.29201
50.648399 -55.678398 144.67
50.622002 -55.817799 144.299
49.863602 -54.947201 144.09801
51.009201 -56.162998 144.42999
51.139702 -57.311699 143.405
50.9459 -56.7934 143.57201
51.423401 -56.912102 143.83299
51.285301 -54.9893 145.62399
51.272099 -55.358299 145.619
51.118599 -55.8204 145.36
50.952599 -55.094398 145.39799
50.7948 -55.221298 145.194
51.587601 -54.777802 145.789
52.6534 -55.398102 137.62801
52.835899 -55.655701 137.718
52.742901 -55.5933 138.74001
52.575298 -55.3367 138.687
51.055599 -56.285702 136.73199
51.314301 -56.556198 136.85201
51.9949 -56.175499 136.60899
51.765701 -55.898201 136.491
52.333599 -55.601601 136.819
52.540699 -55.855499 136.927
49.542801 -49.1161 140.474
49.877701 -50.4879 139.077
51.687401 -54.3013 137.257
51.980801 -54.427898 138.412
51.830299 -54.233601 138.36301
51.601501 -54.183601 137.25999
52.2836 -54.3246 141.196
52.103298 -54.050999 141.05901
52.027802 -54.114101 140.8
52.212101 -54.3769 140.925
52.9687 -55.4202 141.22301
53.056801 -55.3941 141.49699
52.8708 -55.153599 141.444
52.777 -55.1898 141.16701
53.506401 -54.977299 143.11301
53.659801 -54.673 143.78799
53.403702 -54.769299 143.07001
52.696499 -55.577999 139.588
52.486 -55.294399 139.56
51.914299 -54.1763 140.345
51.753899 -54.187099 139.35899
51.939301 -54.461102 139.40401
52.07 -54.425701 140.366
52.474201 -53.816898 141.897
52.582699 -54.169899 142.131
53.262699 -55.253601 142.299
53.152901 -55.0103 142.26401
52.565399 -55.240898 140.423
52.749599 -55.4827 140.42799
50.087002 -49.943001 139.81
50.199902 -49.7803 140.084
50.679501 -50.605701 139.95
50.784 -50.436699 140.172
51.182999 -51.3792 140.24001
51.2976 -51.181099 140.424
51.628799 -52.044899 140.597
51.757999 -51.832901 140.755
52.162998 -52.940601 141.187
50.3857 -51.223202 139.231
50.815899 -52.112598 139.513
51.101002 -52.804901 139.776
51.649899 -53.431198 140.52699
51.544899 -53.525501 140.23199
51.440899 -53.612999 139.565
50.8941 -52.614601 139.153
51.079601 -52.851898 139.688
50.878502 -52.59 139.186
50.386902 -52.191002 137.867
50.317299 -52.004398 138.013
51.052399 -54.162899 136.35201
50.494999 -54.582199 135.99899
51.137901 -54.254501 136.377
53.353199 -55.8918 141.39301
52.480598 -56.7318 136.78799
52.842701 -57.164299 136.946
53.369099 -56.7752 137.455
52.994801 -56.388302 137.19299
51.803501 -57.0154 136.963
52.228802 -57.4361 137.069
51.3279 -57.271301 137.369
53.559101 -57.2145 139.155
53.579399 -56.930401 137.76801
53.839001 -57.130402 141.16299
53.7911 -57.3951 139.657
53.868301 -56.808102 138.77299
53.800301 -57.1026 140.30499
54.024601 -56.625999 141.782
54.122299 -56.189602 142.438
54.179298 -56.0508 143.16
54.114201 -55.6217 144.134
54.167702 -55.0704 145.35201
54.031101 -54.927898 145.267
50.966301 -57.5144 138.287
50.634201 -57.154499 138.821
50.974701 -57.468201 138.80299
50.600498 -57.074902 138.265
50.198002 -56.705799 138.174
50.154301 -56.7663 138.825
50.634399 -57.331501 139.548
50.534599 -56.600498 137.22301
50.860802 -56.929699 137.37
51.000198 -57.572498 139.38
50.196701 -56.8969 141.037
50.159199 -56.902401 140.431
49.308498 -56.2659 139.87
49.327099 -56.175098 140.702
50.5588 -57.3573 140.636
50.568001 -57.283501 141.12801
51.017399 -57.713799 141.188
50.943802 -57.7831 140.739
51.547199 -57.899399 141.77299
51.060902 -57.680801 141.69901
46.806301 -50.8745 142.795
46.895401 -53.3186 136.11
47.344601 -52.778198 135.68201
47.804401 -54.490002 141.298
47.7477 -54.7099 140.84599
54.0518 -56.117699 143.59599
53.509602 -56.830799 144.01801
53.720798 -57.514599 139.242
50.007599 -52.191601 136.755
50.614799 -52.882599 136.89101
50.832901 -52.732601 138.039
47.734699 -52.026402 135.396
47.995499 -51.3629 135.59399
49.541698 -52.535801 135.90199
48.973999 -52.025101 135.79401
49.708099 -53.821701 135.74001
50.225601 -53.293201 136.108
51.405602 -53.6026 139.091
51.438499 -53.6492 138.215
51.2924 -53.780201 137.123
51.1577 -55.266998 136.242
51.665001 -54.8876 136.577
52.011299 -54.643902 137.368
53.100399 -56.078098 139.547
53.1651 -56.0742 138.802
53.162102 -56.0172 140.39101
53.2505 -56.143299 137.98801
53.6478 -56.479401 138.32001
53.466801 -56.902699 139.01199
53.4263 -56.542999 138.948
53.639801 -57.2243 139.41701
53.499001 -56.672699 139.436
53.673 -56.976002 140.269
53.5294 -56.618698 140.308
53.8214 -56.8582 141.11301
53.614201 -56.460499 141.073
53.748699 -51.498199 142.92599
53.6861 -52.6618 143.59399
53.629398 -54.5196 144.60201
53.5228 -54.525501 145.33
54.077 -55.066399 144.485
54.2598 -55.2192 144.675
53.195099 -51.708302 142.22501
53.337502 -52.923801 142.77499
54.026199 -55.240299 143.964
54.089802 -55.4086 144.03
54.2103 -55.820099 143.789
54.014801 -55.900501 143.353
53.823898 -55.841801 143.189
54.095001 -55.667198 143.645
53.9655 -55.391701 143.636
53.668701 -55.538601 143.09599
53.4491 -55.7318 142.39999
53.7225 -56.104698 142.42799
53.9855 -56.2402 142.46201
53.678501 -56.327301 141.496
53.888599 -56.572102 141.709
53.717499 -56.8326 141.46899
53.750702 -56.647099 141.40601
46.5807 -51.558701 142.545
48.1213 -51.955299 143.78799
48.310398 -52.589802 143.48199
48.142601 -53.537399 142.783
48.677502 -52.751301 143.666
48.989899 -54.145802 143.323
46.3745 -52.400002 141.901
46.257702 -52.986198 141.22501
47.9548 -54.052299 142.07001
46.160801 -53.448002 140.418
49.567299 -55.915798 142.35899
50.381901 -56.723202 142.85899
52.242199 -54.5327 145.92999
53.253601 -54.725399 145.908
53.833 -51.667301 143.76401
53.1898 -52.272301 144.35001
49.009602 -54.376598 135.929
46.5952 -53.633999 136.717
46.098801 -53.843899 138.98801
46.080002 -53.714901 139.61
47.7304 -54.813499 140.505
48.623901 -55.372898 141.36301
48.579102 -55.420799 140.97501
49.479698 -56.1451 141.86501
49.3811 -56.1362 141.396
50.340302 -56.984402 142.25301
50.2351 -56.902 141.709
47.760399 -54.931599 140.02901
48.566898 -55.541401 140.38
47.7724 -55.050598 139.362
48.553902 -55.6688 139.608
50.1408 -56.894199 140.086
47.877399 -55.0686 138.37399
48.679798 -55.657101 138.52499
49.409302 -56.191601 138.679
48.4202 -54.841099 136.465
49.199001 -55.496201 136.76601
49.938301 -56.096699 137.006
50.3027 -56.673698 137.599
49.775501 -55.089401 136.215
50.5079 -55.746601 136.505
53.067001 -57.336201 137.099
51.084801 -56.1418 145.007
51.2267 -56.287601 144.85001
51.456001 -56.459702 144.40199
50.987099 -56.3881 143.927
51.438301 -56.605099 144.07401
51.9566 -56.773602 144.14301
52.6535 -56.995499 144.17799
50.820999 -57.213402 143.116
51.0947 -57.733398 142.20599
50.5368 -57.197201 141.72501
50.8153 -57.5294 142.22501
50.983501 -57.800098 139.806
50.577999 -57.399502 140.243
50.977501 -57.925301 140.47099
50.984901 -57.930099 140.185
50.7019 -57.4174 142.509
50.707802 -57.032299 137.689
51.0839 -57.452801 137.739
48.407799 -50.316399 144.084
48.740799 -49.702099 143.936
53.3223 -52.402901 142.54401
53.735001 -52.074402 143.243
53.961498 -52.083099 143.85001
53.007 -52.497299 142.132
52.792099 -51.421799 141.80099
52.638699 -56.855099 144.33501
53.435501 -56.7798 144.15401
54.045101 -56.116402 143.8
54.030499 -55.803799 143.547
53.805901 -56.996101 141.353
53.6418 -57.270599 141.47301
53.0438 -57.893299 141.65601
52.391899 -57.955299 141.62199
51.954102 -57.942299 141.506
53.019699 -58.2803 139.323
53.4352 -57.956001 139.30701
53.646702 -57.397598 139.203
53.606998 -57.097099 139.16901
48.673698 -50.318199 137.737
48.437901 -50.6931 136.67799
46.964699 -54.193699 140.38
46.540199 -53.897598 140.147
46.1022 -53.620602 139.93401
49.723202 -56.172401 137.51199
48.990299 -55.564899 137.233
48.137402 -54.996101 137.02299
49.5434 -56.195801 138.097
48.806099 -55.620201 137.83501
47.992802 -55.046902 137.59
47.162399 -54.389 137.40401
50.145802 -56.834 139.507
49.347301 -56.2383 139.308
48.611099 -55.667099 139.08501
47.8195 -55.0588 138.886
46.952499 -54.446098 138.627
46.543999 -54.128201 138.55499
46.511398 -54.122398 139.06
46.9114 -54.430302 139.14301
46.127102 -53.830502 138.47701
50.738899 -55.366402 145.041
50.021801 -54.6628 144.50301
49.1623 -53.855701 143.808
47.292702 -52.543499 142.634
46.869701 -52.2976 142.39
46.453499 -52.061501 142.179
48.353199 -53.097 143.243
48.2061 -53.041 143.14999
46.445801 -53.699501 137.11301
46.832199 -54.0009 137.129
47.230801 -54.351101 137.138
48.083698 -55.016602 137.19701
48.032501 -55.0345 137.407
48.916199 -55.587299 137.465
48.864101 -55.6026 137.63
49.664101 -56.180698 137.69501
49.599998 -56.188999 137.901
50.2742 -56.682701 137.75301
50.2383 -56.693501 137.94901
50.624298 -57.058498 138.077
50.8437 -57.215099 137.702
50.7495 -57.2827 138.224
50.598 -57.3881 140.01801
50.133598 -56.8857 139.895
50.6171 -57.373798 139.82201
50.136501 -56.8643 139.7
49.3116 -56.267899 139.683
49.322899 -56.2593 139.49699
48.567402 -55.678699 139.43201
48.585499 -55.6786 139.258
47.7826 -55.066399 139.187
47.797199 -55.0667 139.035
46.916 -54.4445 138.966
46.9324 -54.452702 138.79601
46.511101 -54.1385 138.886
46.5214 -54.1343 138.718
46.098999 -53.8535 138.814
46.108299 -53.852501 138.64301
50.787899 -57.638699 139.82899
50.775299 -57.719898 140.168
46.120499 -53.562599 140.09399
46.144001 -53.506901 140.256
46.554798 -53.840099 140.30499
46.573101 -53.7831 140.465
46.982201 -54.136398 140.536
47.002701 -54.075001 140.69
47.756901 -54.6474 141.00999
47.782299 -54.563099 141.16701
48.644501 -55.3069 141.532
48.6716 -55.219601 141.69
49.500301 -56.093102 142.032
49.538101 -55.999699 142.211
50.324699 -56.902302 142.47701
50.340801 -56.820801 142.64301
50.714901 -57.3526 142.702
50.752899 -57.2854 142.89999
51.0476 -57.7015 142.696
51.115601 -57.5397 143.146
48.182098 -53.2402 143.007
49.038399 -54.046398 143.492
49.0979 -53.948002 143.66
49.9021 -54.861401 144.231
49.957199 -54.762199 144.373
50.666901 -55.582401 144.813
50.6964 -55.480499 144.923
51.068199 -56.040699 145.12601
51.0867 -55.933399 145.254
48.938599 -49.4561 143.765
47.662201 -49.436901 142.62399
48.0084 -49.474499 143.006
48.271301 -49.664001 143.466
48.639198 -49.876801 143.98599
47.815601 -49.185902 142.37199
48.163601 -49.220402 142.799
48.503899 -49.313702 143.24899
48.848099 -49.563301 143.851
46.994801 -50.475899 142.858
47.370499 -50.559101 143.22501
48.1903 -51.046299 144.058
47.672901 -50.8601 143.571
46.602798 -54.118999 138.069
46.167198 -53.822399 138.207
48.765499 -55.632099 138.03799
47.9347 -55.063202 137.97301
46.202301 -53.8144 137.981
47.960999 -55.055401 137.789
47.081902 -54.4272 137.772
47.120998 -54.411499 137.57401
46.687698 -54.077801 137.634
46.2967 -53.7691 137.57401
46.736599 -54.051201 137.459
49.316101 -56.231499 140.186
48.5592 -55.615501 139.938
47.7715 -55.000301 139.673
50.762501 -57.0093 137.565
50.377998 -56.6562 137.466
49.7976 -56.154999 137.32899
46.992802 -54.455601 138.284
46.567799 -54.1269 138.311
46.5023 -54.087399 139.321
46.088902 -53.780499 139.3
48.746399 -54.9519 142.11501
47.857399 -54.3325 141.58099
47.046902 -53.834099 141.149
46.620701 -53.569 140.895
46.1964 -53.285702 140.70399
51.182999 -55.6134 145.48399
48.095402 -53.664398 142.61099
47.149502 -53.2673 141.96001
46.711399 -53.062901 141.649
46.276501 -52.884399 141.351
47.183701 -53.1273 142.119
46.303398 -52.740002 141.524
46.741798 -52.920502 141.813
48.1628 -53.3839 142.90601
47.213001 -53.003799 142.25999
46.775101 -52.7645 141.992
46.348598 -52.530701 141.75301
50.0933 -54.513302 144.68401
49.2411 -53.708698 144.015
49.820499 -55.087601 143.853
48.9398 -54.297901 143.093
48.036999 -53.825401 142.38901
47.111 -53.4314 141.772
47.103298 -51.2859 143.009
46.696098 -51.188202 142.689
48.135101 -51.483101 143.96001
47.464901 -51.7286 143.209
47.024502 -51.5952 142.87
47.569199 -51.1954 143.46001
46.742199 -51.047699 142.742
48.1609 -51.255001 144.015
47.201099 -50.957901 143.13699
47.617599 -51.017502 143.526
46.865799 -50.735401 142.821
47.255199 -50.809502 143.17799
48.226601 -50.881302 144.077
47.786201 -50.5938 143.61099
48.280201 -50.643902 144.10201
46.913898 -54.332199 139.741
46.503899 -54.021999 139.63499
47.7314 -49.9119 143.20599
48.0886 -49.987301 143.57001
48.5504 -50.040401 144.024
47.401402 -49.854099 142.836
48.190201 -49.810902 143.51401
47.835201 -49.754501 143.145
47.513802 -49.690498 142.765
47.920601 -49.624699 143.092
47.589298 -49.5625 142.69901
48.3661 -49.516998 143.397
53.8591 -56.570301 143.778
51.298698 -56.946098 137.14101
51.865299 -56.592602 136.752
51.540298 -56.767101 136.916
50.931999 -56.619701 137.058
51.079899 -56.768002 137.104
51.031799 -57.2407 137.53101
51.131901 -57.111301 137.358
51.7369 -57.345699 137.22099
51.535 -57.1427 137.16901
53.238701 -58.147701 139.299
51.581299 -53.937302 139.343
51.674301 -53.931801 139.908
51.606998 -53.925598 139.52699
51.191299 -53.1908 139.353
51.383999 -53.5952 139.336
51.6572 -53.983898 138.78999
51.598701 -53.943199 139.15601
51.299999 -57.518101 143.367
51.225899 -57.7327 142.992
51.2612 -57.6367 143.2
51.0387 -57.394199 143.23199
51.163399 -57.458698 143.30299
51.251701 -57.108898 143.618
51.3069 -57.3517 143.50101
53.709099 -56.553101 141.26401
53.790501 -56.817402 141.302
53.763901 -56.702099 141.276
53.728901 -56.467899 141.493
53.719398 -56.497398 141.401
53.503399 -56.171501 141.33
53.637501 -56.3913 141.272
53.653301 -56.744499 140.713
53.737099 -56.667702 141.06
53.5639 -56.041199 141.95
53.548801 -56.133099 141.528
53.424599 -56.281101 140.804
53.474201 -56.220501 141.153
53.796902 -56.706902 141.561
53.7584 -56.579399 141.51601
53.8409 -56.361198 141.99899
53.794498 -56.4403 141.63901
52.9174 -55.751499 139.98
53.326099 -56.365898 139.91499
53.116402 -56.055401 139.95
53.0658 -55.671501 140.884
52.963299 -55.708 140.41299
52.6092 -55.434299 140.007
52.712101 -55.541901 140
52.902599 -55.800999 139.177
52.901299 -55.787899 139.571
51.605701 -57.163799 143.776
53.773998 -56.522499 144.007
53.798302 -56.458401 143.897
53.812901 -56.472698 143.963
53.044998 -56.852402 144.32201
53.362 -56.764301 144.164
53.699799 -56.5695 144.08299
53.702099 -56.527599 144.019
54.116699 -55.888302 143.73399
54.085201 -56.190899 143.886
54.1012 -55.977299 143.405
54.0896 -56.0355 142.85899
54.096401 -55.962898 143.20799
54.202702 -56.1348 143.41299
54.165501 -56.0718 143.416
54.0219 -55.892799 143.586
54.015701 -55.915298 143.517
53.158798 -57.103699 144.08501
52.345901 -57.124802 144.05901
52.730099 -57.164799 144.119
53.1539 -56.987202 144.129
53.546001 -56.941601 143.981
54.138401 -55.529301 143.85899
54.094898 -55.743698 143.918
54.148602 -55.605499 143.896
54.0783 -55.3326 143.989
54.050098 -55.3885 143.793
54.083302 -55.458199 143.80099
54.101799 -55.766499 143.64301
54.166401 -55.743698 143.73399
53.8601 -55.0317 143.817
54.008598 -55.3097 143.797
53.863602 -55.597301 143.373
54.040699 -55.5457 143.61501
53.769199 -55.177898 143.448
53.8321 -55.091099 143.685
53.849602 -54.875801 144.237
53.8806 -54.9758 143.97701
53.566101 -54.778599 143.433
53.634998 -54.865002 143.452
53.453701 -55.366299 142.752
53.582401 -55.2551 143.11
53.822201 -55.4575 143.388
53.329601 -55.023399 142.72301
53.3787 -55.1152 142.72501
53.278999 -55.5639 141.89301
53.343498 -55.4781 142.35001
53.6217 -55.8139 142.795
53.539101 -55.6357 142.77699
51.623798 -51.408199 140.666
51.852901 -51.7421 140.82899
51.999599 -52.324699 140.97
53.102299 -55.257301 141.83501
53.175301 -55.351299 141.854
53.195 -55.6092 141.383
53.225899 -55.5938 141.521
53.4095 -55.8186 141.93201
52.620399 -53.886299 142.16901
53.662601 -54.8279 145.631
53.498402 -54.919701 145.897
52.850201 -54.630901 145.979
53.1194 -54.814899 146.026
52.8027 -52.6842 144.737
51.9795 -53.0905 145.22501
52.409 -52.875999 144.995
52.8396 -52.3941 144.58501
52.839199 -52.4795 144.612
53.499401 -52.242401 144.22099
53.163502 -52.484798 144.478
52.724899 -53.181801 145.043
52.776299 -52.9272 144.88699
51.407501 -53.301601 145.367
51.573101 -53.258099 145.355
51.9701 -53.528702 145.44099
51.9851 -53.304798 145.32899
53.547199 -53.0411 143.327
53.3694 -53.1744 142.922
53.717999 -53.0256 144.216
53.673901 -52.959999 143.77901
53.521599 -52.505199 143.02299
53.5243 -52.774101 143.16701
53.553101 -53.377399 143.524
53.554798 -53.256699 143.46201
48.439899 -52.041401 135.517
48.1483 -51.672298 135.52299
48.2108 -51.839199 135.49699
47.8741 -52.634998 135.50101
48.139702 -52.301399 135.42599
48.990398 -52.5154 135.58299
48.720699 -52.268799 135.549
48.73 -51.8507 135.728
53.353401 -57.5718 141.631
53.303299 -58.253502 139.366
52.705502 -58.250198 139.38901
53.041698 -58.335999 139.37601
53.5975 -57.693501 139.271
53.470402 -57.996201 139.32401
53.271599 -58.1992 139.334
54.205101 -56.131001 142.80901
54.2206 -56.1115 143.14301
54.068699 -56.2173 143.582
54.106899 -55.893799 144.011
53.811901 -56.767799 141.59399
54.104 -56.4174 142.089
54.034302 -56.645401 141.797
53.818001 -56.723598 141.578
53.719601 -57.035 141.446
53.6772 -56.8918 141.483
53.373199 -57.626801 141.53101
53.834099 -57.185799 141.35699
53.687901 -57.3269 141.43401
52.718102 -57.968399 141.535
53.053101 -57.897099 141.571
53.376598 -57.602001 141.578
53.8708 -57.021198 141.224
53.874298 -57.108299 141.282
53.8811 -57.240299 141.286
53.859901 -57.234798 141.315
53.768398 -57.108398 141.405
52.1012 -58.007401 139.40401
52.386501 -58.113499 139.39799
52.780602 -58.220001 139.263
52.719398 -58.223999 139.30901
53.672501 -57.759701 139.28799
53.735699 -57.424801 139.37601
53.742599 -57.530998 139.293
53.643799 -57.7173 139.27699
53.033298 -57.592201 137.19099
53.355301 -57.103802 137.343
53.197102 -57.369701 137.187
52.7132 -57.492199 137.028
52.860699 -57.5728 137.112
53.168999 -57.035301 137.181
52.9394 -57.286598 137.01601
52.364498 -57.124802 136.871
52.549702 -57.3241 136.94299
52.275002 -57.683998 137.23801
52.428902 -57.605499 137.123
52.359402 -56.729401 144.436
52.698002 -56.8326 144.40601
53.2654 -56.835602 144.41299
53.1175 -56.820999 144.373
53.0825 -56.9193 144.246
53.043701 -56.909401 144.291
52.092602 -57.936501 141.66299
52.1842 -57.937302 141.69901
52.714199 -57.993401 141.77499
52.4459 -57.963902 141.741
53.053902 -57.8908 141.743
52.711601 -57.978199 141.659
50.827099 -57.361599 138.52299
50.7201 -57.250702 138.483
50.901402 -57.390099 137.989
51.127201 -57.6231 138.041
51.008301 -57.500099 138.00999
50.9627 -57.3339 137.72501
50.807598 -57.280499 137.97301
50.854698 -57.401901 138.26401
51.1059 -57.608299 138.55499
51.091702 -57.6301 138.311
51.329601 -57.527302 137.589
51.208801 -57.584099 137.778
51.495998 -57.448399 137.429
51.186798 -57.374699 137.539
50.902599 -57.140202 137.539
51.9328 -57.521099 137.254
51.864899 -57.932999 139.414
51.1031 -55.051601 145.52
51.179501 -55.194099 145.57001
51.563702 -55.337101 145.757
51.3167 -55.210499 145.64301
51.033501 -55.325901 145.425
51.095299 -55.234299 145.505
51.8074 -55.1021 145.851
51.253502 -57.844398 142.505
51.211102 -57.805 142.742
50.930901 -57.4888 142.91299
51.096001 -57.630199 142.96001
50.908798 -57.624001 142.409
50.877499 -57.557201 141.94901
50.9161 -57.6175 142.18201
50.583302 -57.2869 142.19
50.745602 -57.475498 142.33501
50.874401 -57.583401 142.58299
51.077 -57.744598 142.452
51.3214 -57.834 142.002
51.304798 -57.8433 142.259
50.707802 -57.403 142.01199
50.424198 -57.078499 142.009
50.516102 -57.2019 142.38699
50.8806 -57.8022 139.994
50.858799 -57.593102 139.644
50.8806 -57.7262 139.812
50.7873 -57.698002 139.98599
50.9077 -57.877998 140.293
50.883598 -57.8419 140.16299
51.094601 -57.959202 140.028
50.980202 -57.882 140.00101
50.806702 -57.725601 140.41499
50.8652 -57.823002 140.351
51.1092 -58.0354 140.38
50.992298 -57.9534 140.34399
50.737701 -57.585999 140.58501
50.763599 -57.635399 140.51401
51.0951 -57.963799 140.65401
50.948799 -57.8559 140.58299
50.699402 -57.597698 140.23599
51.101898 -58.0201 140.528
51.1777 -57.876999 140.994
51.111 -57.905399 140.79601
50.753101 -57.5509 140.877
50.738499 -57.568802 140.711
50.5658 -57.384602 140.42101
50.815201 -57.367199 139.144
50.824799 -57.469799 139.44501
50.750801 -57.522701 139.70799
51.145901 -57.770599 139.62601
50.997601 -57.673901 139.60201
51.097099 -57.874401 139.832
51.181099 -57.618099 139.11301
51.1898 -57.683102 139.396
50.992001 -57.497002 139.10201
50.814701 -57.3279 138.808
50.641102 -57.225498 139.14301
51.606499 -57.843399 139.341
51.749401 -57.925201 141.584
51.290401 -57.827801 141.472
51.532501 -57.903198 141.519
51.677299 -57.944698 142.049
51.7486 -57.9263 141.786
51.942402 -57.928101 141.636
51.761101 -57.955101 141.332
51.756001 -57.940701 141.425
50.8022 -57.489498 141.37399
51.042801 -57.688099 141.438
50.788502 -57.515499 141.158
50.5714 -57.269199 141.263
50.827301 -57.4916 141.69701
51.0835 -57.707401 141.95599
51.543499 -57.916599 142.028
51.310101 -57.818901 141.73399
50.9967 -57.160099 143.377
50.650299 -56.784901 143.22099
50.835602 -56.9865 143.315
51.0774 -57.088699 143.505
50.990501 -57.281898 143.278
50.976299 -57.399899 143.13901
50.438499 -56.5462 143.121
50.749298 -56.386002 143.66901
50.701698 -56.599499 143.43401
50.594299 -56.9636 142.994
51.6749 -56.823002 144.00101
51.187 -56.6525 143.856
51.424 -56.735802 143.944
51.694099 -56.597599 144.258
51.685398 -56.6912 144.116
51.925701 -56.8927 144.041
51.658699 -56.975201 143.90601
50.964298 -56.5425 143.758
51.222401 -56.400299 144.19901
51.2071 -56.504002 144.009
51.1931 -56.8512 143.73199
50.540798 -56.2118 143.59399
50.801399 -56.0966 144.13901
50.774601 -56.2551 143.83701
52.297699 -56.7957 144.27
52.330502 -56.748001 144.37
51.4506 -56.513302 144.231
51.653599 -56.507599 144.521
51.678001 -56.535 144.403
51.969898 -56.679401 144.274
51.007301 -56.258701 144.175
51.282902 -56.3437 144.614
51.244499 -56.3456 144.407
50.605301 -55.9184 144.10699
50.814701 -55.948799 144.47501
50.804798 -55.9897 144.353
50.9944 -56.089001 144.755
51.128201 -56.2244 144.66701
51.364201 -56.3741 144.91
51.326801 -56.363201 144.78799
51.448002 -56.437599 144.57401
50.9011 -55.956699 144.85001
51.277302 -56.291302 145.062
51.145599 -56.212502 144.93401
50.855999 -55.9659 144.591
51.3162 -56.335201 144.974
51.236301 -56.2425 145.138
51.338299 -55.8815 145.554
51.290501 -55.9697 145.48599
51.148102 -55.727402 145.42
51.4291 -55.630299 145.685
51.3825 -55.759701 145.62199
53.937099 -57.042 139.049
53.636002 -56.693802 138.108
53.511398 -56.864399 137.658
53.2477 -57.071701 137.239
53.490799 -57.1614 137.494
53.4487 -57.1301 137.444
53.5047 -57.517399 139.21201
52.973598 -56.792702 137.041
53.0965 -56.954102 137.121
53.792702 -57.493099 139.5
51.1609 -55.831402 136.459
51.527901 -56.229401 136.62199
51.402901 -56.0909 136.565
51.789501 -55.4347 136.476
51.503899 -55.613701 136.384
50.4991 -55.1838 136.19099
50.844299 -55.511101 136.327
50.5271 -56.215698 136.87
50.818802 -56.045502 136.632
50.836399 -54.929901 136.11501
49.747398 -54.477798 135.909
50.1329 -54.841202 136.05299
49.931999 -55.691399 136.632
50.195599 -55.463902 136.38
50.389999 -53.9417 135.994
50.1008 -54.203899 135.873
48.999199 -53.737999 135.65401
49.363201 -54.104401 135.77499
49.183701 -55.0508 136.356
49.435299 -54.781399 136.08701
50.212002 -55.933601 136.743
50.263199 -56.363201 137.123
50.775902 -56.450802 136.972
49.474098 -55.3008 136.467
49.765202 -55.945999 136.948
48.3936 -54.305 136.061
48.7029 -54.616901 136.173
48.990398 -55.3237 136.687
47.773499 -53.678101 135.92
48.023602 -53.918499 135.95399
48.1772 -54.6152 136.375
48.669102 -54.018902 135.81
47.560001 -52.411701 135.49899
47.3442 -53.280899 135.901
47.618801 -52.981701 135.67999
48.4142 -53.114399 135.526
48.161999 -52.872601 135.51199
49.619202 -53.1735 135.74699
49.332802 -53.464401 135.62601
48.676701 -53.403099 135.571
52.053299 -54.152802 145.81599
52.481899 -54.411499 145.899
53.150902 -54.407501 145.638
53.001801 -54.520901 145.86301
52.326698 -54.877399 146
52.631302 -54.746101 146.01601
51.543098 -54.392601 145.752
51.811798 -54.2654 145.823
51.982899 -53.796501 145.586
52.440701 -53.973301 145.63901
52.8414 -53.7714 145.407
52.671501 -53.475601 145.237
53.527 -51.889198 144.04601
53.530201 -52.010899 144.078
54.023899 -51.5112 143.567
53.797501 -51.9226 143.924
53.3437 -52.819 144.625
53.435299 -52.5271 144.42
54.032799 -51.2202 143.494
54.045502 -51.262798 143.437
53.968399 -51.100101 143.007
54.0863 -51.1954 143.255
53.942699 -51.993099 143.89101
53.974499 -51.813801 143.76601
53.588902 -53.253601 144.75
53.471802 -53.361198 144.883
53.1105 -54.052898 145.416
53.1455 -53.960701 145.369
53.166698 -53.580601 145.19299
53.227501 -53.189098 144.89799
53.058201 -54.199799 145.533
53.5438 -54.0742 144.785
53.336601 -54.259998 145.27499
53.401299 -54.615398 145.658
