# .PCD v.7 - Point Cloud Data file format
VERSION .7
FIELDS x y z
SIZE 4 4 4
TYPE F F F
COUNT 1 1 1
WIDTH 1903
HEIGHT 1
VIEWPOINT 0 0 0 1 0 0 0
POINTS 1903
DATA ascii
11.3772 16.9771 122.134
11.5671 17.056101 121.449
11.5511 17.052799 121.497
11.564 17.0502 121.418
11.6764 17.184 121.425
11.6353 17.114401 121.429
11.6893 17.0676 121.272
11.597 17.0455 121.338
11.9817 17.005899 121
11.9592 17.032101 121.062
11.9708 17.0156 121.022
11.9478 16.9755 120.999
11.9985 17.001301 120.975
12.8754 17.981501 121.689
12.8919 18.048901 121.683
12.7526 18.006701 121.947
12.8192 18.012199 121.81
12.086 16.9653 120.882
12.1772 16.921301 120.787
12.18 16.955799 120.832
12.0632 17.0056 120.985
12.044 17.004299 120.954
11.9189 17.0138 121.068
11.9937 17.043699 121.058
11.9576 17.0625 121.101
11.9669 18.002399 123.375
12.0964 18.245199 123.342
12.4126 18.0072 122.841
12.4464 18.2703 122.977
12.382 18.131399 123.012
12.8531 17.9049 121.728
12.7387 17.9508 121.943
12.8063 17.9603 121.813
12.3419 17.406 122.51
12.427 17.496099 122.423
12.7644 17.5504 121.849
12.6029 17.466101 122.073
12.6744 17.4564 121.954
12.2645 17.1924 122.36
12.2603 17.252701 122.472
12.1327 16.9863 121.935
12.1735 16.9879 121.96
11.8698 16.942801 121.034
12.1101 16.982401 120.935
12.0848 17.004299 121.024
12.035 17.025999 121.025
12.1861 16.989401 121.535
12.0738 17.012899 121.87
12.1357 17.0208 121.677
12.1644 17.024401 121.408
12.1347 17.0753 121.335
12.1411 17.059601 121.334
12.1389 17.030399 121.263
12.0854 17.093 121.214
12.0934 17.0679 121.21
12.0631 17.054199 121.12
12.0854 17.048401 121.151
12.04 17.054199 121.093
11.4578 17.018999 121.577
11.3316 16.969999 122.059
11.3037 16.959801 122.173
12.5218 18.151501 122.711
12.9789 18.194799 121.693
13.102 18.3633 121.713
12.9718 18.294901 121.838
17.1502 24.579399 123.851
17.534201 24.3985 123.736
17.778099 24.034401 123.584
18.214899 24.635201 123.643
18.056299 24.4174 123.632
16.5389 23.599899 123.625
16.8528 23.424601 123.535
17.0364 23.0378 123.368
17.3281 23.438101 123.458
16.576799 24.882299 123.974
16.821501 24.750601 123.928
16.965099 24.226801 123.782
17.0497 24.400299 123.818
17.4394 25.003799 123.893
17.2903 24.780899 123.875
16.092699 23.866899 123.733
16.277599 23.7617 123.693
16.1425 23.182301 123.544
16.372 23.396299 123.584
16.7789 23.9275 123.71
16.6752 23.7784 123.669
16.381201 24.987 124.008
16.307301 24.565399 123.924
16.442301 24.704599 123.952
16.8564 25.3104 124.02
16.7125 25.084999 123.999
15.8055 24.0065 123.779
15.655 24.08 123.8
15.4588 23.5355 123.648
15.6518 23.806 123.726
15.9547 23.9352 123.756
16.0539 24.3039 123.863
15.9331 24.161301 123.822
16.2201 22.0485 123.319
16.155899 22.5476 123.414
16.048599 22.317801 123.397
15.7614 22.1705 123.373
13.6584 19.491899 121.658
13.6145 19.189699 121.596
13.3349 19.1332 121.995
13.4235 19.0737 121.822
13.4174 18.8311 121.691
12.9444 18.853701 122.465
13.0308 19.027399 122.44
13.2385 19.185301 122.182
13.6929 20.412399 122.041
13.4897 20.155399 122.243
13.8798 20.804001 122.063
13.7074 20.6014 122.204
14.1192 21.129601 122.061
13.9408 20.9937 122.165
14.3821 21.349501 122.151
14.2019 21.2819 122.189
14.8732 21.6763 122.765
14.719 21.7812 122.836
14.8169 21.7297 122.819
14.708 21.622101 122.622
14.9136 21.6203 122.675
14.292 21.4347 122.343
14.4715 21.4632 122.322
14.5611 21.569599 122.504
14.0173 21.186899 122.261
13.7547 20.815399 122.299
13.5177 20.3685 122.357
13.2706 19.8888 122.501
12.8897 19.4732 122.903
12.7296 19.313101 123.028
12.7056 19.128 123.002
12.67 18.7416 122.868
12.517 18.4142 122.933
12.6853 18.5555 122.718
14.0349 21.6598 122.607
13.9853 21.586901 122.581
13.7798 21.309299 122.548
13.5166 20.8909 122.594
13.2379 20.378401 122.739
12.9654 19.8827 122.919
12.5666 19.165001 123.136
12.7473 19.4986 123.041
12.2398 18.5212 123.28
12.3979 18.840599 123.21
14.9663 22.0177 123.12
14.8629 22.0872 123.121
15.0195 22.4657 123.323
14.8614 22.2967 123.221
14.5793 21.9363 122.914
14.6546 22.0336 123.008
15.7326 22.719601 123.461
15.9301 22.9512 123.507
15.3736 22.8839 123.478
15.535 22.7971 123.468
15.5571 22.503799 123.423
15.9417 22.626699 123.444
15.0914 23.0242 123.491
14.9297 22.805799 123.413
15.2252 22.957701 123.487
15.2628 23.2612 123.567
14.9674 23.084101 123.496
16.482401 22.979601 123.461
16.6422 22.914101 123.415
16.797501 22.567499 123.287
16.399401 22.459801 123.362
16.585199 22.142099 123.263
14.675 22.662201 123.315
14.8838 22.534901 123.315
13.0054 18.505699 122.046
12.9131 18.532 122.229
12.8679 18.695 122.477
13.2404 18.560801 121.724
13.0883 18.4855 121.871
11.9917 16.999399 122.044
12.0539 17.0403 121.828
12.0988 16.9911 121.907
11.7951 16.996201 122.237
11.4841 17.0746 122
11.5094 17.127899 122.043
11.4953 17.0888 122.058
11.5318 17.1416 121.905
11.7862 17.0786 121.216
11.7428 17.210501 121.293
11.7303 17.133801 121.29
11.6446 17.013399 121.261
11.9638 17.214199 121.143
11.8735 17.181801 121.185
11.9242 17.177999 121.157
11.9523 17.1408 121.142
12.0795 17.1458 121.225
12.1065 17.1273 121.28
12.0815 17.176901 121.233
12.0524 17.1625 121.183
12.0804 17.1157 121.219
12.1178 17.1525 121.346
12.1297 17.0931 121.336
12.0089 17.157801 121.748
12.0189 17.106001 121.764
11.8746 17.2244 121.188
11.806 17.197599 121.233
11.8692 17.130301 121.181
11.7152 17.3396 121.283
11.7273 17.274401 121.304
11.7003 17.1961 121.363
11.6735 17.328199 121.431
11.6858 17.2491 121.433
11.6519 17.1726 121.493
12.1975 16.9562 120.923
11.9347 17.1394 121.898
12.0216 17.218201 121.742
12.0701 17.1605 121.601
11.7052 17.094601 122.152
11.7803 17.089199 122.109
11.8675 17.1728 121.994
11.5835 17.097799 122.165
11.6397 17.0928 122.168
11.7254 17.1674 122.103
11.6995 17.040501 122.208
11.5515 17.1005 122.149
11.6127 17.178801 122.115
11.5626 17.046499 122.211
11.5163 17.1126 122.088
11.5617 17.177 122.085
11.5175 17.1628 121.982
11.5234 17.203501 122.018
11.5387 17.2868 121.891
11.6834 17.344101 121.347
11.6471 17.435499 121.422
11.6669 17.3134 121.505
11.7827 17.303801 121.239
11.7031 17.443399 121.226
11.9459 17.251801 121.147
12.1047 17.1901 121.292
12.0567 17.2208 121.187
12.1205 17.180599 121.407
12.1849 16.9764 121.719
12.0664 16.983999 122.116
11.5618 16.940201 122.495
11.6114 17.0096 122.269
12.1153 17.0786 121.273
12.0607 17.1047 121.175
11.919 17.0909 121.138
11.5132 16.9417 121.287
11.4045 16.8624 121.264
14.6499 21.4774 122.335
15.3258 22.3484 123.362
15.1785 22.4119 123.343
15.412 22.117901 123.307
16.313499 22.765499 123.432
15.7523 23.3967 123.612
15.9295 23.312099 123.585
16.3479 23.0511 123.494
14.8077 21.8503 122.936
14.8725 21.9265 123.016
14.6961 21.891001 122.927
15.4982 22.2789 123.375
15.1938 22.658701 123.408
15.5511 23.1236 123.55
15.3197 23.603399 123.661
15.6035 23.4657 123.633
15.0873 21.937799 123.116
15.9401 23.6537 123.681
16.3283 24.1682 123.818
16.2092 24.0268 123.775
19.188999 28.155199 123.288
18.663 27.9669 123.554
18.865801 27.4417 123.564
18.2756 27.745701 123.741
12.8605 18.128099 121.814
16.071899 24.902201 124.009
16.468399 25.525101 124.076
16.3279 25.291901 124.06
15.3742 23.9429 123.758
15.6323 24.3095 123.861
15.0113 23.385401 123.58
14.7123 22.924999 123.418
14.4496 22.532499 123.208
14.2281 22.2157 122.984
14.0948 21.996599 122.813
13.9851 21.813999 122.691
14.459 21.9755 122.896
14.5238 21.868601 122.835
14.2406 22.0511 122.889
14.6564 21.677 122.686
14.5448 21.7665 122.749
13.9887 21.6947 122.633
14.7501 21.570101 122.537
18.9533 25.8125 123.582
17.999001 25.9261 123.894
18.395901 25.739201 123.771
18.5243 25.1038 123.65
18.6681 25.3409 123.634
18.330999 26.504101 123.834
18.1441 26.177799 123.876
17.650101 26.0996 123.979
17.733801 25.473 123.909
17.8696 25.7034 123.904
17.1387 25.7862 124.035
17.268801 26.0159 124.033
17.713499 26.8179 123.985
17.532499 26.4881 124.012
18.3332 27.3328 123.788
18.525 26.846201 123.761
17.9072 27.1625 123.926
17.303699 24.054501 123.681
17.548901 23.7318 123.524
16.5439 24.422501 123.875
16.687201 24.3678 123.845
16.875799 24.073299 123.747
16.4436 24.475599 123.897
16.4363 24.2913 123.849
16.1292 24.6581 123.955
16.1765 24.4377 123.898
15.8495 24.6057 123.94
15.8953 24.3827 123.886
16.2006 24.231701 123.839
16.504101 24.077101 123.779
17.104 23.762899 123.614
11.6268 17.4107 121.581
11.6488 17.223499 121.571
11.5824 17.101601 121.571
12.5202 18.2642 122.828
12.3631 18.2854 123.117
12.2365 18.3477 123.265
12.8213 17.7586 121.798
12.7034 17.853701 122
12.7752 17.8514 121.868
12.1461 16.9786 121.018
12.0792 17.0249 121.089
12.0497 17.0825 121.143
12.0367 17.1376 121.162
12.0373 17.199699 121.171
13.0654 19.66 122.734
12.923 19.664 122.921
13.1445 18.773199 122.063
13.234 18.734501 121.878
13.0496 18.8144 122.255
12.8419 18.886499 122.669
12.6794 18.9361 122.955
12.555 18.9802 123.113
11.4428 16.9429 122.387
11.3595 16.9569 122.241
12.4175 17.326401 122.288
12.3642 17.3302 122.387
12.7301 17.660999 121.931
12.4529 17.408501 122.291
12.5389 17.482599 122.192
12.3698 17.254101 122.281
12.4699 17.318399 122.179
12.2657 17.1336 122.257
12.683 17.9858 122.098
12.6637 17.853001 122.082
21.819201 24.8972 120.642
21.814199 24.354 120.315
22.046801 24.333599 119.783
21.3673 23.668699 120.53
21.5182 23.884899 120.476
21.2038 23.9247 120.992
21.2183 23.462099 120.576
21.473 23.446699 120.104
21.414301 25.4443 121.487
21.3193 24.6486 121.315
21.4781 24.9132 121.204
21.156601 24.413099 121.396
20.7103 23.758699 121.516
20.8543 23.964899 121.493
21.0303 25.3932 121.97
21.521099 22.841999 118.949
22.0306 23.3374 117.772
22.052601 23.5235 118.3
22.094 23.843201 118.939
21.542101 23.0632 119.352
20.4382 23.3715 121.541
20.5711 23.5611 121.532
19.973301 23.750099 122.292
20.2111 23.5758 121.938
20.1898 23.011801 121.546
20.309999 23.187599 121.546
20.7876 22.920099 120.688
20.634899 23.1451 121.113
20.923901 23.0881 120.656
20.662001 22.7586 120.711
20.8953 22.724501 120.311
20.8841 21.774401 118.797
20.984501 22.2698 119.525
20.8241 21.926001 119.32
20.695 21.3876 118.496
20.8563 22.373699 119.979
21.5168 24.3773 120.864
20.3922 22.8055 121.135
20.6469 22.4079 120.372
20.6469 21.5557 119.091
20.721701 22.0182 119.755
19.9559 23.190399 121.936
20.077101 22.838699 121.542
19.8363 23.5404 122.289
17.1099 16.1362 116.634
17.6196 16.674801 117.097
18.4639 17.7724 117.765
18.610201 17.9851 117.842
18.1038 17.266001 117.481
19.9258 22.103701 121.147
20.1598 21.7334 120.429
20.254801 21.216801 119.542
20.097799 20.681101 118.875
19.786501 20.0371 118.429
19.5184 19.5249 118.192
19.329901 19.1458 118.086
19.426399 19.3381 118.135
16.787901 15.7315 116.15
16.580999 15.3015 115.525
19.0098 18.590599 117.972
19.093 18.7274 118
19.8599 22.498899 121.528
18.6094 18.6311 118.779
18.299801 18.5912 119.079
18.660601 18.4275 118.489
18.887699 18.588301 118.26
19.147301 18.611099 117.639
18.919201 18.446899 117.94
13.9734 20.1511 121.391
13.7144 19.824499 121.674
12.568 17.377701 122.069
12.7458 17.974899 121.941
12.7655 18.0546 121.951
12.7293 17.922701 121.959
12.6301 17.562099 122.076
12.8453 18.2216 121.961
12.9517 18.400299 122.012
13.4554 19.3552 121.909
13.2326 18.937799 122.046
13.0719 18.6367 122.05
12.6691 17.763201 122.057
19.819099 19.1357 113.607
20.1446 19.533899 113.753
16.3232 14.3564 112.258
16.7029 14.8456 112.039
17.8018 16.3032 112.315
17.277 15.5926 112.039
18.993601 18.145901 113.127
19.423901 18.6696 113.357
18.4764 17.377899 112.849
18.2656 17.0277 112.691
18.450399 18.271799 118.648
18.3146 18.3748 118.91
18.656401 18.222601 118.193
18.0973 17.332899 111.274
18.064301 17.536301 110.998
18.030399 17.6541 110.665
18.1154 17.0933 111.692
18.076099 16.7969 112.222
14.7289 15.4501 118.619
14.6673 15.5109 118.709
14.5567 19.5924 120.746
14.8742 19.295401 120.617
15.2695 19.0142 120.504
15.6642 18.8176 120.391
16.0091 18.714399 120.282
16.355499 18.675501 120.167
16.704901 18.702801 120.051
17.059601 18.7761 119.936
17.407801 18.900999 119.831
17.6409 19.0494 119.775
17.8225 19.174601 119.743
20.113501 23.9617 122.287
19.7335 23.896099 122.595
19.6376 24.264299 122.864
19.218201 24.173201 123.094
19.074699 24.549 123.307
18.5807 24.472099 123.486
18.3731 24.865601 123.654
17.821501 24.815001 123.781
17.5895 25.237 123.904
17.1059 25.1775 123.972
17.001101 25.5492 124.032
16.656 25.4207 124.052
16.6115 25.768101 124.088
16.288799 25.6259 124.098
16.253 25.9771 124.121
20.908899 23.5105 121.065
20.4862 23.984301 121.927
20.0259 24.3458 122.595
19.525299 24.639799 123.094
18.8895 24.940201 123.48
18.1227 25.2834 123.794
17.391899 25.6483 123.988
16.935699 25.898899 124.065
16.566401 26.112499 124.107
21.094801 24.8981 121.727
20.6348 25.305901 122.393
20.134001 25.6441 122.905
19.5238 25.966101 123.327
18.7369 26.308701 123.696
17.973499 26.6828 123.932
17.5077 26.927999 124.015
17.125401 27.138 124.061
16.1535 17.968599 120.02
16.636101 17.9443 119.871
15.5483 18.0858 120.205
14.9596 18.309401 120.417
17.019899 17.9685 119.721
17.9168 28.910801 123.519
18.336901 29.480499 123.111
19.3675 28.845699 122.924
18.508699 28.5569 123.449
18.8494 28.352699 123.381
20.893499 27.743999 122.245
20.488501 28.073601 122.482
21.721001 26.6954 121.413
21.507 27.0842 121.722
22.226999 26.036301 120.469
22.3678 23.8305 117.507
21.7309 22.733601 117.442
21.3071 22.2047 118.168
21.858299 22.7311 116.513
22.128799 23.110201 116.153
22.3619 23.4487 115.954
21.359501 21.750099 115.924
21.7286 22.2784 115.585
20.7274 20.4471 114.546
21.0797 20.930201 114.041
20.124901 19.514999 114.345
20.207899 19.6262 114.151
20.6649 20.253599 113.204
20.3951 19.8846 113.822
20.5128 20.0487 113.609
18.947701 18.045401 111.788
18.9114 18.0455 111.847
16.6546 20.1791 119.742
16.690701 20.110901 119.765
16.9489 20.065901 119.792
16.877501 20.149099 119.76
16.4603 20.226801 119.734
16.476999 20.159901 119.759
16.176001 20.313 119.727
16.1626 20.2603 119.749
15.8797 20.462 119.743
15.8328 20.429701 119.767
15.6062 20.653799 119.777
15.5287 20.6506 119.798
15.3379 20.8286 119.81
15.2248 20.843599 119.838
15.1351 20.910101 119.84
14.9984 20.9319 119.879
15.0875 20.935699 119.852
14.9482 20.958401 119.898
15.0695 20.9599 119.863
14.9294 20.9788 119.911
15.0623 20.972799 119.87
14.9235 20.9851 119.916
15.0839 20.99 119.877
14.9426 20.9979 119.919
15.1466 21.0238 119.888
15.0104 21.033701 119.929
15.2413 21.056101 119.898
15.1133 21.075199 119.94
15.3485 21.0832 119.911
15.2332 21.109301 119.952
15.4627 21.1152 119.934
15.3626 21.1481 119.974
15.5907 21.162001 119.97
15.5054 21.203501 120.014
15.7789 21.2031 120.013
15.7154 21.249201 120.062
16.057699 21.219801 120.046
16.0261 21.2651 120.104
16.367201 21.200199 120.067
16.373899 21.245501 120.127
16.6287 21.1311 120.068
16.6672 21.1688 120.125
16.851299 21.024599 120.053
16.9203 21.0494 120.112
17.0616 20.8951 120.046
17.1577 20.902 120.108
17.2162 20.760401 120.036
17.3262 20.747 120.098
17.315001 20.629299 120.016
17.4366 20.596201 120.075
17.3682 20.4564 119.968
17.5116 20.402 120.005
17.371901 20.3153 119.916
17.512501 20.254101 119.931
17.373301 20.2068 119.869
17.5112 20.146601 119.871
17.364 20.1915 119.858
17.5007 20.1371 119.863
17.336901 20.191 119.854
17.479099 20.135 119.855
17.2889 20.1854 119.846
17.4272 20.1287 119.853
17.238701 20.181601 119.834
17.369699 20.1189 119.84
17.1721 20.173599 119.819
17.292601 20.1014 119.832
17.014299 20.136999 119.78
17.1042 20.052299 119.814
16.5354 19.714701 120.481
16.8139 19.7069 120.391
16.2745 19.754601 120.53
15.9769 19.870701 120.551
15.6715 20.0968 120.505
15.4251 20.4179 120.346
15.1809 20.653999 120.271
14.9776 20.757099 120.286
14.9133 20.790501 120.314
14.8985 20.7988 120.347
14.8976 20.799101 120.365
14.9091 20.8242 120.337
14.9686 20.8557 120.336
15.062 20.895599 120.332
15.1694 20.9317 120.336
15.2824 20.9564 120.394
15.4089 20.967501 120.5
15.574 20.950701 120.653
15.836 20.871099 120.87
16.141399 20.7826 121.011
16.423599 20.7043 121.034
16.6751 20.589701 121
16.9105 20.4739 120.928
17.101999 20.361099 120.824
17.262199 20.2759 120.685
17.381701 20.1651 120.444
17.4286 20.0825 120.243
17.446199 20.000401 120.091
17.4436 19.962601 120.094
17.424101 19.951 120.104
17.3832 19.930901 120.119
17.316 19.8999 120.152
17.2101 19.843201 120.211
17.018801 19.736 120.3
17.0114 19.711201 120.337
17.190201 19.800301 120.249
17.2871 19.863899 120.191
17.351601 19.9062 120.142
17.393801 19.9282 120.126
17.413799 19.9394 120.12
17.4188 19.9603 120.141
17.402201 20.0467 120.273
17.362 20.1436 120.461
17.2395 20.245199 120.68
17.065599 20.332199 120.829
16.880301 20.443899 120.939
16.652 20.556801 121.015
16.401501 20.6752 121.044
16.123301 20.761 121.014
15.8213 20.845699 120.865
15.56 20.9193 120.661
15.3919 20.9091 120.572
15.2655 20.889099 120.498
15.1582 20.866699 120.446
15.0562 20.833099 120.446
14.9689 20.7988 120.455
14.9136 20.7735 120.451
14.8964 20.7609 120.452
14.8965 20.759701 120.448
14.9178 20.743401 120.429
14.9918 20.702999 120.4
15.1919 20.6119 120.392
15.4117 20.363899 120.457
15.6671 20.076 120.549
15.9595 19.8521 120.585
16.254 19.729799 120.579
16.521601 19.686001 120.53
16.800301 19.677799 120.431
16.914 19.686899 120.383
16.6647 19.679001 120.486
16.386499 19.7031 120.559
16.1101 19.7871 120.585
15.8145 19.9457 120.577
15.5304 20.2328 120.505
15.3014 20.493401 120.418
15.0753 20.666201 120.385
14.9434 20.727301 120.419
14.9019 20.753599 120.446
14.8958 20.760799 120.453
14.9004 20.764 120.451
14.9375 20.783001 120.457
15.0083 20.8148 120.451
15.1074 20.8496 120.443
15.2094 20.880301 120.464
15.3254 20.896799 120.541
15.4698 20.914 120.611
15.6915 20.893101 120.764
15.9667 20.8006 120.949
16.269501 20.724199 121.037
16.5247 20.6201 121.035
16.7726 20.5026 120.984
16.9769 20.3853 120.89
17.153099 20.2829 120.768
17.3106 20.198299 120.57
17.384399 20.0951 120.366
17.412701 19.993299 120.199
17.4196 19.945101 120.122
17.404301 19.933399 120.122
17.3736 19.9186 120.131
17.3249 19.8855 120.169
17.246201 19.8386 120.218
17.1075 19.7495 120.293
12.3421 17.686199 121.588
12.2232 17.4461 121.606
12.0966 17.4216 121.886
12.249 17.643499 121.912
11.9243 17.3881 122.043
12.0624 17.6465 122.072
11.7632 17.421499 122.072
11.8623 17.686399 122.136
11.6347 17.4767 122.046
11.7077 17.7551 122.079
11.5447 17.523899 122.004
11.6607 17.793301 122.022
11.5103 17.572399 121.934
11.6445 17.823 121.97
11.5543 17.660101 121.803
11.6531 17.8829 121.816
11.5959 17.7131 121.657
11.6891 17.930799 121.661
11.6255 17.7402 121.523
11.7216 17.9667 121.531
11.6886 17.7859 121.241
11.7994 18.052999 121.285
11.8774 17.834299 120.923
12.056 18.250299 120.771
12.3019 17.5033 121.312
12.3275 17.6887 120.889
12.2703 17.7437 120.777
12.1552 17.7661 120.778
11.7383 17.9776 121.676
11.7156 17.9361 121.812
11.7669 18.010401 121.546
12.4026 18.195499 120.676
12.4031 18.1245 120.667
12.4482 18.027201 120.805
12.4706 18.132299 120.76
12.2762 18.2642 120.649
12.269 18.211201 120.641
12.0931 18.302 120.764
11.8469 18.0833 121.308
11.7025 17.891701 121.938
11.7207 17.8647 121.999
11.7734 17.8255 122.049
11.8969 17.7698 122.08
12.0697 17.727301 122.025
12.2349 17.7278 121.842
12.3219 17.7528 121.609
12.3659 17.830999 121.341
12.3791 17.774599 121.28
11.5797 17.692801 121.732
12.02 17.7834 120.847
12.222 17.760599 120.761
12.3033 17.7241 120.811
12.3228 17.5849 121.115
12.2692 17.4519 121.482
12.1604 17.4408 121.745
12.0168 17.398899 121.986
11.84 17.395201 122.069
11.6952 17.4505 122.061
11.5755 17.508101 122.023
11.5227 17.541901 121.978
11.5271 17.6087 121.874
11.635 17.740999 121.447
11.7664 17.814899 121.081
11.611 17.732 121.59
16.3671 19.957899 120.198
16.6007 19.9079 120.177
16.876499 19.8815 120.128
17.0597 19.8818 120.095
17.243 19.9697 120.03
17.345501 20.006901 119.995
17.412201 20.036501 119.971
17.454399 20.0495 119.971
17.4744 20.069 119.963
17.483601 20.0832 119.973
17.470301 20.1546 120.098
17.4368 20.2875 120.25
17.344601 20.4317 120.43
17.2286 20.572701 120.493
17.0364 20.6943 120.579
16.809099 20.8416 120.593
16.5483 20.937099 120.656
16.2582 21.012899 120.608
15.9154 21.0371 120.533
15.641 21.085199 120.393
15.4514 21.081499 120.27
15.3197 21.052999 120.181
15.1952 21.013201 120.156
15.0827 20.986 120.129
14.9843 20.945801 120.132
14.9224 20.92 120.114
14.9041 20.9076 120.115
14.9077 20.9023 120.111
14.9269 20.8843 120.093
14.9866 20.8445 120.088
15.1976 20.746901 120.058
15.4692 20.5233 120.097
15.7572 20.267 120.148
16.0688 20.062901 120.192
14.9482 20.772499 120.297
15.0474 20.7225 120.278
15.3342 20.5156 120.313
15.5286 20.2882 120.425
15.8393 19.959 120.546
16.1099 19.8139 120.544
17.4347 20.0425 120.173
17.412901 20.1126 120.33
17.3223 20.239 120.573
17.199499 20.2994 120.755
16.997499 20.424601 120.882
16.816 20.5217 120.965
16.530199 20.657 121.024
16.3013 20.7446 121.027
15.9618 20.8326 120.933
15.7279 20.913601 120.777
15.3529 20.9641 120.45
15.2098 20.9417 120.355
15.1288 20.9182 120.331
15.0013 20.8701 120.335
14.9477 20.8451 120.337
15.4616 20.966 120.555
15.4709 20.9433 120.576
17.1021 19.7796 120.258
17.273899 19.8762 120.176
17.340799 19.9132 120.136
16.4163 19.733299 120.502
16.661301 19.711901 120.441
16.937099 19.715099 120.341
11.5551 17.537901 121.728
11.5958 17.573799 121.582
11.5769 17.5555 121.653
11.5115 17.432699 121.876
11.5324 17.501801 121.801
12.1444 17.540001 120.876
11.9492 17.5357 120.976
11.7072 17.627001 121.143
11.8068 17.613001 121.025
12.0855 17.535299 120.89
12.2195 17.502399 120.952
12.1904 17.529699 120.894
12.2455 17.413401 121.184
12.2481 17.4807 121.019
12.1984 17.3176 121.487
12.2249 17.346201 121.358
12.0846 17.317801 121.745
12.155 17.317801 121.598
11.9373 17.2775 121.996
11.7756 17.2773 122.081
11.6389 17.3162 122.086
11.5653 17.334 122.043
11.521 17.3631 121.984
11.609 17.603001 121.404
12.0153 17.3036 121.884
11.8551 17.262501 122.047
11.6998 17.299101 122.091
11.6083 17.319201 122.073
11.5417 17.3403 122.018
11.5125 17.3843 121.948
11.6542 17.6381 121.225
11.6008 17.5923 121.51
15.8162 19.957399 120.59
15.9638 19.8634 120.6
16.905701 19.683201 120.394
17.1024 19.7463 120.298
17.0068 19.7075 120.348
16.6605 19.6754 120.498
16.7943 19.6752 120.443
16.384199 19.6992 120.572
16.518499 19.6817 120.543
16.1115 19.7904 120.599
16.252701 19.732901 120.594
15.6745 20.0811 120.563
16.261 20.7071 121.015
16.118999 20.743401 120.991
16.511801 20.601299 121.018
16.3866 20.658501 121.022
16.7547 20.485901 120.971
16.639 20.5406 121.004
16.9643 20.364901 120.88
16.863701 20.427299 120.928
17.143801 20.2642 120.752
17.056801 20.308901 120.817
17.2896 20.1793 120.561
17.2227 20.2288 120.667
17.3654 20.075399 120.37
17.340099 20.124201 120.457
17.3992 19.9785 120.213
17.3878 20.0242 120.286
17.403299 19.938601 120.138
17.4041 19.9519 120.159
17.391899 19.927799 120.137
17.3985 19.931999 120.136
17.3627 19.9144 120.142
17.3811 19.9231 120.138
17.311399 19.880699 120.176
17.3402 19.900999 120.154
17.236601 19.8333 120.224
17.2761 19.858999 120.2
17.181 19.795799 120.254
15.5426 20.2293 120.521
15.3033 20.4895 120.431
15.4193 20.3608 120.474
15.0877 20.6577 120.405
15.201 20.604 120.415
14.9547 20.716299 120.443
15.0026 20.6931 120.422
14.912 20.7395 120.478
14.9263 20.7306 120.462
14.9057 20.743601 120.491
14.9056 20.7442 120.487
14.9117 20.7472 120.489
14.9069 20.7432 120.491
14.9483 20.77 120.484
14.9252 20.757 120.487
15.0174 20.7997 120.477
14.9784 20.785 120.481
15.1113 20.8323 120.468
15.0629 20.8162 120.472
15.2141 20.8631 120.486
15.1617 20.8489 120.47
15.3267 20.882799 120.55
15.2677 20.871799 120.516
15.4742 20.9079 120.611
15.3947 20.8979 120.578
15.6916 20.880501 120.748
15.5711 20.907 120.659
15.9684 20.788601 120.936
15.823 20.832701 120.844
12.9003 15.3172 118.018
12.7974 15.1874 117.918
12.701 15.1346 118.085
12.7606 15.2149 118.132
11.8972 16.194599 119.756
12.0265 16.468599 119.762
12.2345 16.3811 119.625
12.0697 16.138599 119.636
12.4647 16.301399 119.473
12.317 16.055901 119.47
12.8222 16.1332 119.224
12.6579 15.8594 119.173
13.0081 16.0072 119.027
12.8253 15.7709 118.979
13.1255 15.8973 118.795
12.9371 15.6504 118.772
13.2049 15.6896 118.407
12.9979 15.5232 118.47
13.0827 15.5188 118.16
12.9155 15.4048 118.282
12.7836 15.2622 118.165
12.7555 15.1335 117.885
12.6501 15.0662 118.051
12.6537 15.0264 117.838
12.5817 14.9898 118.025
12.5453 14.9483 117.846
12.5002 14.9363 118.003
12.4357 14.8724 117.904
12.4359 14.8933 118.044
12.2808 14.7823 118.015
12.3185 14.843 118.165
12.1271 14.7215 118.178
12.1798 14.7933 118.305
11.7939 14.6431 118.454
11.8387 14.7324 118.628
11.4057 14.6589 118.658
11.4683 14.7418 118.815
11.1854 14.7231 118.717
11.2567 14.8041 118.906
10.9705 14.8251 118.802
11.0505 14.9212 118.987
11.0351 16.948999 120.011
10.8817 16.669001 120.033
11.2065 16.872499 119.982
11.0524 16.5933 120.001
11.3054 16.8353 119.966
11.1481 16.5592 119.982
11.4487 16.77 119.951
11.2952 16.496201 119.966
11.6483 16.660601 119.929
11.4996 16.386499 119.938
11.7947 16.5763 119.9
11.6635 16.290001 119.901
10.7418 14.9248 118.88
10.8127 15.0257 119.081
10.4095 15.059 118.97
10.4675 15.1585 119.167
10.275 15.1322 118.999
10.336 15.2346 119.208
10.1079 15.2429 119.03
10.1646 15.3399 119.231
13.1809 15.4966 117.682
13.0264 15.2862 117.518
12.6371 15.0487 118.228
12.6668 15.0935 118.267
12.5696 14.9689 118.211
12.6415 15.1518 118.363
13.3823 15.7652 117.891
13.8854 16.2813 117.087
13.6754 15.9634 116.916
14.1262 16.635401 116.522
13.9403 16.377199 116.379
14.1155 16.6759 116.091
10.8875 15.7954 115.065
10.3559 15.7559 115.43
10.5936 15.5971 115.428
11.3607 15.5942 114.963
10.9825 15.3372 115.424
11.2995 15.1993 115.434
11.5831 15.1752 115.511
11.7217 15.471 115.089
12.5326 15.6737 115.29
12.1263 15.5379 115.222
12.3377 15.3806 115.774
12.6103 15.4027 115.827
12.8747 15.432 115.918
12.9752 15.7639 115.547
14.0011 18.334801 116.782
14.3015 17.712799 116.531
14.0671 17.8943 116.987
14.2051 17.461201 116.881
13.7067 18.844 116.82
13.6951 18.4018 117.276
13.4827 18.6863 117.341
12.8899 18.569099 118.156
13.1691 18.2201 118.157
12.6073 17.4988 119.161
12.4196 17.6562 119.253
12.2512 17.777599 119.29
12.5089 18.7316 118.34
12.2336 18.981701 118.31
12.0118 17.9662 119.307
11.8609 18.097099 119.326
12.1151 17.8727 119.295
13.3136 19.3293 116.364
13.2964 19.218399 116.869
12.8884 19.4653 116.886
12.912 19.5928 116.35
13.7503 18.9417 116.33
14.1004 18.4501 116.241
14.3377 17.829 116.057
14.2795 17.299999 115.843
14.2971 17.138 116.238
14.0819 16.919901 115.652
13.7834 16.641001 115.454
13.8171 16.358601 115.868
13.4057 16.366301 115.226
13.4512 16.0553 115.69
12.9323 16.112301 114.977
12.4519 15.9232 114.719
11.9873 15.8098 114.568
11.6304 15.8557 114.493
11.3427 16.056999 114.484
10.9955 16.344801 114.528
12.6146 19.767401 116.348
12.5849 19.6404 116.897
13.1425 18.999001 117.39
12.7894 19.2544 117.434
13.8581 18.1835 117.191
14.227 16.9914 116.679
13.6333 16.007999 116.226
13.344 15.7116 116.101
13.0541 15.5056 115.984
12.1149 15.3438 115.721
11.8111 15.2416 115.608
10.7748 15.4735 115.426
12.4942 19.448799 117.46
13.4034 18.032499 117.996
13.6437 17.6984 117.842
13.8463 17.368299 117.65
13.9789 17.048901 117.48
14.0047 16.627701 117.257
13.4152 15.5919 116.775
13.2133 15.354 116.672
13.0017 15.2065 116.596
12.8169 15.1223 116.539
12.6222 15.0864 116.499
12.3876 15.0696 116.472
12.0755 15.0011 116.429
11.727 14.9031 116.357
11.4317 14.8437 116.289
11.1295 14.8145 116.265
10.8062 14.8631 116.246
10.5011 14.9827 116.241
10.2764 15.1046 116.246
10.0884 15.2231 116.246
12.7848 17.378 118.996
12.9971 17.202299 118.857
13.2742 16.869301 118.679
13.417 16.6749 118.528
13.5271 16.459 118.345
13.546 16.0578 118.1
12.8899 15.1361 117.406
12.7171 15.0393 117.335
12.547 14.9632 117.309
12.3901 14.9088 117.316
12.217 14.8501 117.349
11.9381 14.7558 117.395
11.5908 14.6843 117.411
11.2984 14.6324 117.456
10.9524 14.4902 117.633
10.6261 14.4907 117.668
10.2333 14.5592 117.64
10.0056 14.6308 117.629
9.82899 14.7394 117.634
11.7192 18.202101 119.344
10.748 15.8423 119.703
10.6385 15.885 119.72
10.8957 15.7821 119.681
11.0894 15.6878 119.648
11.2669 15.5987 119.605
11.4798 15.5387 119.465
11.6241 15.4199 119.319
11.8483 15.3434 119.139
12.14 15.2262 118.892
12.3077 15.1807 118.741
12.4209 15.1603 118.593
12.5258 15.1558 118.477
12.5018 14.9085 118.257
12.4341 14.8912 118.321
12.3317 14.876 118.435
12.2316 14.8925 118.57
12.0002 14.9647 118.793
11.7061 15.0919 119.035
11.5036 15.2062 119.153
11.304 15.3279 119.259
11.08 15.4616 119.362
10.7739 15.6309 119.464
10.6179 15.7255 119.51
10.4442 15.8095 119.532
10.4958 15.95 119.743
11.4044 15.2639 119.206
11.5952 15.1504 119.104
11.8623 15.0236 118.905
12.1271 14.9176 118.688
12.2949 14.8799 118.486
12.3773 14.8788 118.376
12.4642 14.8982 118.288
12.5323 14.9357 118.226
12.6254 15.0368 118.216
12.6655 15.1206 118.3
12.5789 15.1541 118.418
12.4616 15.1581 118.547
12.3757 15.1674 118.656
12.2291 15.1959 118.819
12.0165 15.2763 118.997
11.7229 15.3892 119.241
11.5347 15.4467 119.388
11.3481 15.5229 119.527
11.1599 15.6089 119.622
10.982 15.7206 119.663
10.8143 15.8159 119.693
10.6936 15.8615 119.711
12.6505 15.0637 118.237
10.5649 15.9178 119.732
10.455 15.9701 119.748
10.3915 15.8376 119.539
10.5239 15.762 119.52
10.6814 15.6757 119.49
10.9191 15.5488 119.417
11.2016 15.3892 119.309
11.0761 16.644699 114.155
11.3498 16.393499 114.12
11.6491 16.0928 114.073
11.9731 15.9907 114.133
12.4114 16.0793 114.281
12.8809 16.2906 114.544
13.2543 16.550699 114.818
13.5894 16.819401 115.068
13.87 17.098 115.261
14.0801 17.447001 115.42
14.1537 17.9126 115.551
13.9248 18.467899 115.644
13.5711 18.920799 115.679
13.178 19.305401 115.679
12.8288 19.5788 115.649
12.5419 19.748301 115.645
11.1155 16.723499 113.756
11.3496 16.503401 113.764
11.6794 16.1675 113.757
11.9285 16.069099 113.821
12.3036 16.1493 113.94
12.7186 16.3813 114.16
13.0358 16.633301 114.403
13.2833 16.9405 114.651
13.494 17.2568 114.827
13.6128 17.647301 114.927
13.6082 18.085501 114.958
13.4772 18.501801 114.958
13.2151 18.843599 114.946
12.9236 19.1402 114.915
12.6379 19.3671 114.877
11.0804 16.660999 113.532
11.2964 16.444799 113.504
11.593 16.1462 113.485
11.7711 16.086599 113.521
12.0784 16.149 113.612
12.4159 16.3983 113.754
12.7179 16.641701 113.918
12.9901 16.940901 114.13
13.1952 17.2803 114.301
13.2399 17.650299 114.35
13.1438 18.038099 114.265
13.0427 18.406601 114.241
12.8489 18.6618 114.212
12.6638 18.8332 114.163
12.4344 19.011101 114.133
11.0325 16.559 113.33
11.2475 16.3605 113.323
11.5469 16.1022 113.303
11.6338 16.051201 113.306
11.792 16.044901 113.314
12.0128 16.200399 113.296
12.2398 16.479099 113.323
12.4369 16.785999 113.34
12.5558 17.0096 113.308
12.5882 17.226101 113.217
12.5376 17.489799 113.127
12.4026 17.708599 113.092
12.2818 17.845501 113.073
12.1331 17.983999 113.03
11.9446 18.139799 112.971
10.81 16.153999 113.064
11.0544 16.0035 113.086
11.3685 15.8134 113.106
11.4194 15.7874 113.1
11.4619 15.7688 113.09
11.5934 15.7718 112.939
11.6388 15.8332 112.769
11.6729 15.9215 112.556
11.6875 16.015499 112.351
11.6731 16.105499 112.185
11.6391 16.208099 112.015
11.5605 16.301399 111.915
11.4481 16.385201 111.873
11.2893 16.489799 111.843
11.0901 16.615999 111.815
11.4287 15.2967 119.297
11.6249 15.1898 119.196
11.6748 15.311 119.269
11.4908 15.3704 119.42
11.3286 15.4859 119.585
11.1346 15.5652 119.666
10.9468 15.6586 119.705
10.7698 15.7334 119.73
10.6492 15.7788 119.748
11.5307 15.2429 119.246
11.2237 15.4195 119.401
11.3263 15.3575 119.35
11.7376 15.1352 119.122
11.7982 15.2669 119.165
11.578 15.3427 119.349
11.4021 15.4 119.49
11.2032 15.4835 119.624
11.0461 15.6113 119.687
10.8416 15.6852 119.717
10.7017 15.7578 119.74
10.5191 15.8315 119.77
10.5928 15.799 119.758
10.4091 15.8849 119.786
10.4099 15.8657 119.631
10.5493 15.8023 119.614
10.7022 15.7063 119.583
10.9412 15.5787 119.51
10.4501 15.8638 119.781
10.4659 15.8437 119.625
10.6309 15.7446 119.598
10.7937 15.659 119.558
11.1002 15.4895 119.453
11.8861 15.0719 118.998
12.1795 14.9422 118.738
12.3104 14.8953 118.551
12.39 14.8946 118.444
12.4783 14.9007 118.356
12.5438 14.93 118.311
12.6056 15.0064 118.313
12.597 15.0512 118.358
12.5245 15.08 118.445
12.4144 15.0824 118.557
12.3239 15.095 118.671
12.1961 15.1183 118.823
11.9652 15.2008 119.022
12.0456 15.001 118.856
12.2612 14.9121 118.629
12.3433 14.8915 118.503
12.4406 14.898 118.388
12.5144 14.9107 118.326
12.5633 14.955 118.302
12.598 14.9973 118.301
12.5861 15.078 118.391
12.6083 15.0259 118.331
12.4649 15.08 118.503
12.3707 15.0867 118.61
12.2634 15.1016 118.749
12.1017 15.1489 118.904
12.5929 14.9906 118.29
13.7151 14.1124 111.117
14.7572 14.603 110.374
21.835199 27.257299 121.323
13.0272 17.160801 120.454
13.7252 17.709801 120.592
13.6094 17.609501 120.562
13.5198 17.5529 120.541
13.44 17.516399 120.532
13.3669 17.4935 120.531
13.299 17.473101 120.539
13.236 17.457701 120.547
13.1754 17.443001 120.555
12.2868 17.795 122.936
12.2287 17.800501 123.046
12.5177 17.822599 122.418
12.5858 17.8375 122.259
12.4443 17.805099 122.583
11.7938 16.964701 122.43
15.1598 22.2148 123.281
15.2889 22.173401 123.299
15.4126 22.3165 123.37
15.3245 21.9853 123.223
15.1907 22.0571 123.222
15.0821 22.1371 123.228
15.5426 22.0604 123.312
15.6429 22.2159 123.378
14.9984 21.8482 123.004
14.3231 21.778299 122.696
13.2227 17.236799 120.402
13.2917 17.256901 120.381
13.3538 17.275499 120.372
13.4197 17.297701 120.366
15.0111 21.717899 122.867
13.4902 17.326799 120.367
13.5651 17.367201 120.377
13.6486 17.4238 120.394
13.758 17.492901 120.406
12.3347 17.716801 122.782
11.7446 14.3705 119.164
11.4202 14.3173 119.322
11.7541 14.3452 119.133
16.9014 16.2348 117.628
16.051001 15.6432 117.661
16.434099 15.9194 117.688
16.6539 15.9787 117.43
16.442699 15.7541 117.227
16.079201 15.4803 117.213
17.518101 16.270201 115.146
17.163099 15.92 115.433
17.3008 16.1138 115.61
17.3195 15.8962 114.646
17.189301 15.8688 115.158
17.6786 16.3678 114.574
17.5189 16.1472 114.583
17.873199 16.6355 114.59
17.3396 16.041401 115.129
15.7112 15.2621 117.333
15.7027 15.6515 118.074
15.7145 15.4574 117.743
16.003401 15.8153 118.034
17.148701 16.610001 118.078
17.475599 16.729099 117.71
17.183399 16.4 117.449
17.245899 16.621201 117.913
16.364401 16.0224 117.997
16.754601 16.278799 118.003
15.6928 15.0801 116.872
17.0203 15.8962 115.906
17.326 16.2913 116.41
16.6894 15.866 117.004
17.149099 16.080299 116.156
16.058399 15.3215 116.744
16.486601 15.6604 116.793
16.3312 15.4697 116.534
16.919901 16.117001 117.216
16.9403 15.4323 114.78
17.084999 15.6124 114.726
16.7875 15.2537 114.875
16.882799 15.5543 115.297
16.9065 15.7123 115.669
17.372999 16.2493 115.876
17.7201 16.541 115.35
17.5427 16.3885 115.659
17.8167 16.620899 115.068
17.758801 16.6425 115.809
18.091999 16.953199 115.125
17.5466 16.465401 116.12
17.945299 16.809601 115.497
17.207899 15.6231 114.155
17.9648 16.7048 114.159
17.654499 16.2302 114.129
17.442801 15.9448 114.141
17.800699 16.441 114.128
18.1416 16.9674 114.195
18.0098 16.828199 114.613
18.379499 17.286301 114.256
18.249001 17.131599 114.671
20.354401 21.6915 120.042
20.2201 21.563999 120.13
20.073999 21.4102 120.196
19.9231 21.242701 120.259
19.6982 21.155199 120.585
21.267 22.7321 119.57
21.1273 22.580601 119.686
20.986799 22.4464 119.804
15.6151 15.1709 110.126
16.2591 15.5647 117.044
21.589399 21.5445 112.589
15.6648 15.1999 109.938
16.1852 15.656 109.855
16.6733 16.148001 109.822
16.935699 16.381701 109.862
17.2001 16.675301 109.965
17.498699 17.0968 110.127
17.814699 17.399099 110.304
18.002501 17.660999 110.437
18.3522 17.9769 110.643
18.4828 18.062901 110.685
18.5588 18.103901 110.707
20.886999 20.534201 112.701
20.894899 20.527201 112.631
10.8992 16.6737 121.051
19.9527 19.570101 111.403
19.8988 19.823999 111.576
19.6777 20.2262 111.529
19.990601 19.682501 111.91
20.259399 19.343201 111.772
20.087999 19.994101 111.783
19.892799 20.127199 111.776
19.621201 20.2679 111.655
19.491699 20.0221 111.598
19.6131 19.5749 111.684
19.785101 19.329201 111.729
19.803801 19.263901 111.651
19.808701 19.4893 111.559
19.874399 19.3971 111.469
19.9142 19.313999 111.395
19.926201 19.252199 111.348
19.944201 19.1936 111.312
19.964199 19.143499 111.304
19.8172 19.3507 111.572
19.868601 19.2966 111.499
19.892799 19.227699 111.439
19.907801 19.169001 111.392
19.9189 19.114901 111.356
19.941799 19.080299 111.351
19.859699 19.1208 111.583
19.8547 19.020599 111.546
19.866699 18.9653 111.51
19.8922 18.934601 111.475
19.933701 18.9256 111.453
19.9771 18.9196 111.434
19.9688 19.012501 111.376
19.9753 19.237101 111.275
20.5432 20.0294 111.638
20.477301 19.969801 111.686
20.4095 19.921499 111.737
20.307899 19.903099 111.781
20.1677 19.906 111.852
19.9856 19.9953 111.899
19.7313 20.0847 111.824
19.633101 19.8382 111.789
19.746201 19.476299 111.791
19.883101 19.254 111.763
19.913601 19.1457 111.733
19.888901 19.0228 111.728
19.8239 18.8438 111.727
19.761 18.630301 111.683
19.989599 19.4132 111.298
10.2489 15.6592 120.422
10.3846 15.8882 120.803
10.4509 16.005199 120.872
10.2786 15.7074 120.547
10.3238 15.7835 120.68
10.4192 15.9492 120.844
10.3531 15.8339 120.742
10.2991 15.7416 120.614
10.2626 15.6811 120.485
10.2376 15.6416 120.354
10.5429 16.1714 120.888
11.0394 17.0485 121.404
10.497 16.0881 120.891
10.6496 16.3638 120.911
11.0513 17.0637 121.548
10.5846 16.246901 120.891
10.5183 16.126801 120.888
10.4762 16.0506 120.888
11.0453 17.0564 121.467
11.3283 17.485399 123.361
11.0431 17.032801 121.909
11.0757 17.056499 122.706
11.2278 17.308399 123.243
11.0392 17.016701 122.113
11.0428 17.012501 122.351
11.1482 17.1726 123.05
11.0572 17.0294 122.559
11.0511 17.055401 121.725
11.1053 17.102501 122.877
11.1234 17.1318 122.96
11.0663 17.042601 122.634
11.0485 17.0179 122.464
11.1827 17.230801 123.151
11.0888 17.0765 122.791
11.0402 17.013201 122.231
11.0405 17.023701 122.008
11.0518 17.0606 121.636
11.0475 17.0448 121.816
11.2785 17.3971 123.312
12.133 18.9461 123.31
11.8156 18.3657 123.427
11.5686 17.9172 123.446
11.964 18.636999 123.376
11.4934 17.7812 123.437
11.4185 17.6465 123.413
11.6816 18.122101 123.442
12.0466 18.788099 123.345
11.7477 18.2421 123.437
11.6195 18.009399 123.446
11.3751 17.568701 123.393
11.8869 18.496 123.404
11.4571 17.7159 123.427
11.5284 17.8444 123.443
12.3051 19.2612 123.239
12.4887 19.597799 123.151
12.3938 19.4238 123.2
12.219 19.1035 123.275
8.5123301 12.6014 118.394
8.2353096 12.1187 117.544
8.3087196 12.2544 117.898
8.41257 12.4303 118.175
8.5632296 12.6889 118.502
8.4609203 12.513 118.286
8.3568096 12.3355 118.035
8.2658701 12.1831 117.754
8.5816698 12.7207 118.538
8.5422096 12.6528 118.457
8.6639996 12.8635 118.684
8.74119 12.9982 118.801
8.8838902 13.2501 118.955
8.6012897 12.7547 118.575
9.1176796 13.6676 119.095
8.7979803 13.098 118.871
9.2906904 13.9812 119.094
8.9898195 13.4382 119.041
8.6226997 12.7918 118.613
8.7081699 12.9405 118.753
8.7674303 13.0442 118.836
8.8328304 13.1597 118.905
9.4385004 14.25 119.075
9.6976004 14.707 119.358
9.7685804 14.8162 119.798
9.7721996 14.8212 119.833
9.6122999 14.5593 119.204
9.7616901 14.8109 119.637
9.8857098 15.0182 120.031
9.7455902 14.7868 119.521
9.7658005 14.814 119.734
9.8235502 14.9096 119.94
9.7851896 14.8431 119.87
9.5445299 14.4399 119.126
9.6625004 14.6464 119.29
9.72719 14.757 119.44
9.7555103 14.802 119.584
9.7647104 14.814 119.688
9.7683496 14.8169 119.772
9.7687502 14.8156 119.818
9.7753801 14.8263 119.848
9.8006802 14.8699 119.9
9.8508396 14.9571 119.984
9.9356499 15.1065 120.081
10.0186 15.3031 119.039
10.0759 15.3975 119.248
10.2464 15.6707 120.057
10.2238 15.6297 120.059
10.1499 15.493 120.123
9.9864798 15.1969 120.119
10.0718 15.3504 120.145
10.3277 15.8271 119.857
10.3613 15.8945 119.707
10.3416 15.8538 119.82
10.2941 15.7619 119.954
10.2295 15.6306 120.272
10.2298 15.6356 120.174
10.0299 15.2747 120.139
10.1111 15.4218 120.141
10.1873 15.5619 120.096
10.2594 15.6963 120.014
10.3206 15.8129 119.886
10.2753 15.7281 119.946
10.3531 15.8772 119.763
10.4161 15.992 119.748
10.3434 15.8695 119.541
10.3705 15.9077 119.788
10.3614 15.8979 119.635
10.9785 16.945101 121.247
10.9293 16.8594 121.168
10.839 16.7008 121.054
11.0174 17.0119 121.331
10.9565 16.906799 121.209
10.7437 16.531601 120.973
10.8925 16.794901 121.116
10.9992 16.9806 121.291
11.0304 17.034 121.361
10.8165 16.704901 120.038
12.7063 19.998199 123.018
12.9764 20.495501 122.844
12.8353 20.2355 122.937
12.5913 19.786501 123.092
13.6706 21.7617 122.665
13.5102 21.4725 122.631
13.7722 21.9431 122.725
13.2621 21.0203 122.687
13.3932 21.259701 122.648
13.1223 20.7642 122.75
13.8234 22.034 122.771
13.7241 21.8575 122.692
13.6027 21.639799 122.64
13.8789 22.131701 122.836
14.0085 22.359301 123.002
14.1967 22.6905 123.222
14.4232 23.0921 123.428
14.3077 22.8869 123.329
14.0968 22.5144 123.112
13.9369 22.2334 122.913
14.6876 23.563801 123.595
15.0051 24.1311 123.779
14.8481 23.850401 123.693
14.5491 23.316601 123.509
15.403 24.844 123.968
15.2216 24.5187 123.887
15.5853 25.171101 124.044
15.6918 25.3626 124.075
15.4915 25.002701 124.007
15.3149 24.6859 123.93
15.1247 24.3452 123.84
15.8118 25.5791 124.101
16.084499 26.0721 124.127
15.9471 25.8235 124.117
8.42805 12.3249 116.358
8.2923698 12.1532 116.901
8.2398901 12.1067 117.224
8.3582401 12.2284 116.627
9.7185602 14.8211 117.642
16.341299 26.5376 124.128
16.458099 26.749599 124.122
16.2164 26.311001 124.132
8.5840197 12.5658 115.786
8.7408705 12.8575 115.288
8.50842 12.4455 116.059
8.6609297 12.7055 115.536
9.9556503 15.3125 116.25
17.7041 29.0341 123.531
10.2281 15.8425 115.436
10.6185 16.5896 114.546
10.3725 16.119699 115.086
12.4095 19.7307 116.915
12.324 19.551201 117.473
12.46 19.8472 116.354
10.7513 16.847099 114.166
12.4233 19.811899 115.651
12.277 19.5798 114.901
12.0737 19.245701 114.126
7.2850199 24.362801 111.885
18.8668 17.973 111.602
20.286501 34.1049 114.734
20.255301 34.176998 111.831
19.4408 32.873199 107.937
22.9569 24.096001 113.754
23.0762 24.412901 114.589
22.8515 23.791201 112.989
10.6824 31.677401 113.684
10.09 30.613199 113.845
10.6514 31.498501 114.322
10.3646 31.043301 114.062
10.6004 31.296 114.894
10.1344 30.8074 113.3
-9.8357 10.7486 107.752
-10.0283 21.836 96.310799
-10.554 21.548901 97.734596
-10.2656 21.5889 95.922897
-9.5534801 21.871401 93.7164
-10.7038 21.298599 94.167
-10.1075 21.5117 91.958603
-10.8068 19.952101 88.350899
-11.9077 19.723 90.8526
-11.6576 18.5557 87.6045
-10.6795 18.195601 85.541801
-9.1135902 18.889799 84.361099
-9.0445604 20.1639 86.123802
-7.57651 19.3601 83.315903
-7.4378901 20.324301 84.741402
-6.7416201 19.537201 82.885002
-6.1840701 20.315599 83.854599
-5.0868201 20.331499 83.326599
-3.7478099 20.377199 83.188698
-4.2428699 21.587999 85.249702
-5.5981798 21.148899 84.979202
-4.8730302 21.0532 84.464104
-4.3366799 20.7817 84.051697
-3.5643301 21.383301 84.920502
-2.76706 21.0056 84.319603
-5.2831998 20.590799 83.9161
-5.9552202 20.663401 84.328598
-5.7881598 19.161699 81.270203
-7.52209 19.0273 82.1427
-8.9539404 21.511499 89.261299
-9.03613 20.9151 87.705902
-7.31036 20.825899 85.6101
-7.0308399 21.3606 86.555603
-3.0448201 21.902901 85.951202
-3.86254 22.023001 85.9748
-11.1778 20.9508 106.278
-12.4932 19.961599 105.851
-13.309 19.127199 106.087
-6.2263098 10.5581 108.492
-6.5957799 10.3046 107.875
-7.23634 10.3269 107.683
-7.0083899 10.5578 108.388
-5.1585102 10.262 107.926
-5.3958402 9.8608303 107.344
-6.0367498 9.9928398 107.441
-5.74546 10.3018 107.886
-5.0251899 9.4915895 106.626
-4.6097002 10.0334 107.378
-4.5451798 9.9426899 106.802
-5.6979299 9.4001904 106.724
-4.9013 10.9306 109.005
-4.6524701 10.728 108.603
-5.31744 10.6695 108.495
-5.8965402 10.807 109.073
-8.8490801 10.47 107.431
-8.17974 10.7125 107.443
-8.4690399 10.4026 106.291
-9.2186403 10.0781 106.263
-9.2853899 9.5311203 103.913
-6.8217702 8.9818001 106.394
-7.3429298 8.2870598 105.96
-8.1668997 8.59025 105.828
-7.4899101 9.31388 106.512
-8.7180099 8.9088697 105.242
-7.7736702 9.7550497 106.561
-9.0104904 9.1744699 104.648
-8.2619696 10.226 106.385
-9.8216295 9.8958502 102.444
-10.3702 9.8607597 104.281
-10.1544 10.0418 101.552
-10.9653 10.2369 103.382
-10.7242 10.2493 100.565
-11.5882 10.4404 102.488
-11.1738 11.0206 106.955
-12.8452 11.1285 105.863
-14.938 12.0431 104.541
-6.7492399 3.4388299 99.498596
-5.2203498 2.9510901 98.945999
-5.42273 1.64079 97.457001
-6.6725101 1.90688 97.617897
-14.8338 12.049 103.981
-15.4894 12.8694 104.07
-8.7728004 10.5866 107.983
-9.9630003 10.5848 107.038
-11.2952 10.881 106.122
-12.9564 11.0923 105.038
-15.0756 12.7562 101.768
-15.1676 12.8042 102.467
-14.6181 11.9871 102.79
-14.5075 11.9238 102.052
-13.1199 10.9684 103.642
-13.0823 10.9289 102.888
-11.7837 10.6784 104.547
-11.7315 10.5711 103.842
-11.1807 10.5743 105.152
-11.1248 10.414 104.521
-10.1388 10.26 106.202
-10.2547 10.0253 105.485
-15.4293 13.9872 102.373
-15.2887 12.8278 102.986
-7.8495998 10.5643 107.536
-7.62533 10.6954 108.212
-8.07547 10.7784 108.083
-14.83 12.6648 100.164
-14.2104 11.8726 100.588
-11.1367 10.6608 105.599
-11.6773 10.7707 105.192
-13.1012 11.0164 104.223
-14.716 12.016 103.332
-12.8913 10.9038 101.482
-4.56352 10.372 108.033
-1.8643399 13.0447 106.248
-1.7194099 13.113 105.796
-2.12236 12.237 105.721
-2.2719901 12.1473 106.085
-2.5327401 11.5253 105.644
-2.6740201 11.4925 106.031
-3.0734601 10.7205 105.497
-3.32954 10.6978 105.922
-3.72118 9.8964996 105.229
-4.0900698 9.8896999 105.663
-13.4624 9.8989897 91.983704
-11.1598 8.3223104 91.753799
-11.2884 7.6109099 89.950203
-13.4609 9.1701698 90.089104
-2.13135 13.0033 106.876
-2.4468501 12.076 106.605
-2.61678 12.0738 107.079
-1.57596 13.1504 105.547
-2.0330901 12.2819 105.521
-12.0363 17.3834 86.910896
-13.2132 16.717899 89.057404
-9.9532804 6.6378198 91.182602
-10.519 6.9830999 90.205902
-10.0987 7.57408 92.777
-11.6943 10.062 95.000603
-10.3839 9.47752 95.556503
-11.8723 10.942 97.4067
-10.7004 10.5098 97.576698
-11.9759 10.7739 99.501999
-13.4141 10.8563 95.215797
-13.5001 11.4118 97.392899
-13.8072 11.7377 98.929901
-14.5477 10.6231 89.692497
-14.5744 11.1718 91.695503
-14.6558 11.7987 95.060898
-14.6464 12.2193 97.200996
-14.6912 12.5279 98.600899
-14.5111 12.7092 88.039299
-14.6883 12.9457 90.576599
-14.8565 13.0111 94.122902
-14.9759 13.2494 96.627197
-15.0372 13.5283 98.218201
-13.5113 14.7063 87.090797
-14.0482 14.9247 89.258202
-14.5767 14.2908 93.1446
-14.6596 14.371 96.028198
-14.8935 14.6471 98.003098
-14.0601 15.8441 92.505997
-14.2948 15.5083 95.833801
-14.5013 15.6039 98.0289
-12.91 18.836 94.394096
-13.5576 18.132999 97.262398
-13.9145 17.1327 98.510201
-14.0762 17.1623 100.756
-14.8701 15.3254 99.967003
-14.4287 17.4314 103.615
-15.2482 15.6675 102.741
-14.333 17.9069 105.946
-15.4044 16.073999 105.021
-11.4754 20.878799 96.625298
-12.0562 20.2166 99.059998
-12.7328 19.2127 100.189
-12.9823 18.882401 101.812
-13.2495 18.997101 104.196
-5.42554 19.883301 107.038
-6.2178998 20.2472 107.582
-5.8569002 20.138399 106.885
-6.2344298 20.346701 106.004
-4.9900298 19.781099 106.513
-6.07095 20.583599 105.397
-5.0412998 19.799801 106.603
-5.72928 21.133101 104.796
-4.7342 22.365601 103.408
-4.15135 21.7479 104.144
-12.5176 19.752899 104.924
-10.694 21.0123 105.497
-10.2945 20.925301 103.84
-10.096 21.068199 104.856
-12.5382 19.704201 103.959
-11.7103 20.1819 102.789
-12.4101 19.6215 102.417
-12.0044 20.001499 101.173
-11.5248 20.349001 101.716
-11.5391 20.660601 99.608704
-11.1756 20.9189 100.233
-10.4767 21.623501 98.535103
-10.7614 21.353399 97.354698
-9.7750702 22.0961 96.9394
-9.8558903 22.0208 99.269203
-9.2833405 22.456499 97.905197
-8.1867905 22.9037 100.067
-9.7055502 21.490299 101.86
-10.5666 21.2603 100.984
-10.4894 20.7733 102.587
-11.0347 20.6071 102.188
-9.6346998 20.9704 103.291
-9.0007095 21.5375 102.535
-7.4658098 23.002199 100.745
-6.6929998 23.092199 101.43
-8.2994404 21.6047 103.169
-8.8630304 21.1343 103.942
-9.4042902 21.138901 104.404
-9.6894999 21.1248 106.072
-10.2545 21.113899 106.771
-5.9811101 23.085501 102.046
-7.49159 21.611099 103.802
-7.9322801 21.149 104.614
-7.67242 20.9876 105.276
-7.9369001 21.0021 105.933
-8.4292202 21.0287 106.709
-8.9640198 21.065701 107.431
-5.24614 22.8228 102.779
-6.4891901 21.3368 104.467
-6.7539802 20.7785 105.139
-6.7741799 20.615999 105.725
-7.0062599 20.6745 106.349
-7.3316102 20.7943 107.158
-7.6470399 20.8507 107.763
-6.4741602 20.2495 108.223
-7.9740601 20.9123 108.113
-6.87884 20.2435 108.708
-5.9986501 19.8454 108.426
-5.7469401 19.1891 109.244
