# .PCD v.7 - Point Cloud Data file format
VERSION .7
FIELDS x y z
SIZE 4 4 4
TYPE F F F
COUNT 1 1 1
WIDTH 1776
HEIGHT 1
VIEWPOINT 0 0 0 1 0 0 0
POINTS 1776
DATA ascii
26.945999 -1.97078 131.453
28.316999 -2.6261699 131.75999
26.753599 -7.9587898 137.99699
28.1038 -7.5012898 137.754
26.8508 -7.4739299 137.933
25.8713 -6.6862602 137.752
25.6989 -8.0368004 138.11099
24.866199 -6.2817898 137.825
24.4937 -7.8264699 138.278
23.719101 -5.7172399 138.084
21.8866 -4.7685299 138.786
22.036501 -5.86128 138.968
28.7269 -2.72188 132.386
28.944201 -3.5067899 135.036
26.237499 -2.9249301 135.089
27.4291 -3.5125301 135.70399
27.940901 -2.5501001 132.80299
26.5252 -2.1824901 133.315
26.8319 -2.02319 132.431
25.667101 -1.3983001 132.502
25.619301 -1.65257 133.14301
24.278 -0.45461801 132.67799
24.3647 -0.75705099 133.23599
22.7335 0.126029 133.481
22.2747 0.65310299 132.743
21.213699 0.80729902 133.573
22.677999 -0.27416199 134.29201
21.379 0.32868701 134.392
21.870501 -0.91399199 135.911
24.304501 -1.8894 134.91701
24.349701 -1.18097 133.99899
25.4436 -2.33091 134.30299
25.546301 -1.94596 133.718
25.334299 -2.96228 135.23
24.2894 -2.5473599 135.634
21.846201 -1.56124 136.653
21.797899 -2.2521801 137.422
24.245199 -3.1761301 136.343
25.2446 -3.55866 136.06
26.0938 -3.5330701 136.006
28.876499 -4.27531 135.94099
30.2297 -4.3095102 135.229
21.747801 -2.9441199 138.05701
24.126699 -3.90956 137.06
25.1688 -4.3963699 136.895
25.961201 -5.0744801 137.22
27.1744 -5.2828202 137.20399
28.7006 -5.3425202 136.812
30.0889 -5.40628 136.258
21.774599 -3.87726 138.571
23.909 -4.9640598 137.677
24.982599 -5.6078 137.5
25.896 -6.0605898 137.58099
27.007799 -6.2199502 137.58701
28.420099 -6.3225698 137.424
29.4879 -6.36833 137.11301
29.142 -7.62289 137.45
30.1649 -6.4347901 136.864
30.013901 -7.7947898 137.071
29.016899 -8.23806 137.435
29.7355 -9.3751497 136.914
28.753799 -9.5994902 137.25999
29.4701 -10.8948 136.683
28.967899 -13.2585 135.782
28.442101 -10.9388 137.05499
27.8965 -13.2147 136.158
27.3118 -10.9862 137.403
26.7008 -13.1541 136.485
26.0236 -11.0243 137.718
25.3722 -13.0628 136.726
25.062401 -11.1179 137.77
24.338499 -13.017 136.83299
23.791 -11.121 137.925
23.271999 -12.7456 137.06
27.659 -9.7057505 137.603
26.306801 -9.88661 137.88901
25.356001 -10.0523 137.94501
24.0858 -10.0989 138.172
27.985201 -8.4700804 137.73
26.5858 -8.7353497 138.004
25.6376 -8.8756199 138.065
24.351801 -8.8731899 138.323
28.619699 -3.7432499 127.122
26.611601 -3.24037 126.351
21.2764 -14.806 131.11501
21.2701 -15.0785 129.89799
22.287201 -14.8605 129.868
22.2066 -14.7261 131.03999
23.214399 -14.766 129.94099
24.0249 -14.7596 130.16
24.964899 -14.8478 130.32201
24.8442 -14.9288 131.07201
21.4163 -15.2721 128.55
22.4923 -14.9022 128.507
23.7549 -14.6781 128.616
24.3183 -14.658 129.198
25.0938 -14.7377 129.709
24.490499 -11.7614 126.734
24.6714 -12.6988 126.506
24.648399 -13.6234 126.65
24.637699 -14.3422 128.10699
24.249001 -14.4449 127.111
25.370399 -14.3377 128.797
26.860701 -13.2709 128.47301
28.2901 -15.4296 131.19501
28.3535 -15.4355 132.571
27.609699 -15.399 132.793
27.6474 -15.3985 131.436
28.4396 -15.3034 133.306
27.6343 -15.2699 133.588
26.650801 -15.2064 133.83
26.7372 -15.3502 133.01401
26.921 -15.3078 131.67999
23.2868 -14.5004 124.602
23.876301 -13.7963 124.508
23.8423 -12.8244 124.551
23.5375 -11.937 124.634
23.0951 -11.0263 124.557
24.100599 -10.8656 126.563
22.634701 -10.2183 124.399
23.816999 -9.8586702 126.243
22.287399 -9.3099098 124.302
23.4949 -9.09021 125.836
22.064199 -8.6711302 124.038
21.959101 -7.7340298 123.682
23.254601 -8.0822697 125.373
22.841 -13.8118 122.452
22.8601 -12.9611 122.406
22.653299 -12.1265 122.398
22.338699 -11.2145 122.278
21.9923 -10.4186 122.072
21.5968 -9.5611296 121.954
21.179399 -8.5786505 121.86
20.812901 -7.58566 121.532
21.7666 -13.7888 120.447
21.8776 -12.9127 120.297
21.7293 -12.0877 120.222
21.537201 -11.4812 120.061
21.136101 -10.6337 119.699
20.724001 -9.75492 119.454
20.2358 -8.4012003 119.567
19.9597 -7.4721899 119.69
24.2617 -14.0275 135.69
25.2829 -14.0956 135.767
26.5611 -14.2214 135.588
27.718 -14.2947 135.304
28.7097 -14.3515 134.93401
25.3032 -14.6435 134.92599
26.565599 -14.7695 134.832
27.6845 -14.8512 134.60899
28.5818 -14.8842 134.326
25.608999 -15.1028 133.942
22.570499 -14.9029 127.217
22.3487 -14.8395 124.618
21.056499 -15.4815 124.592
21.407801 -15.3491 127.238
21.524 -14.0851 133.75101
21.5263 -14.2838 132.98399
22.165001 -14.3976 132.95399
21.430799 -14.524 132.14999
22.2143 -14.5926 132.058
25.807899 -15.2554 133.164
26.1105 -15.2023 131.886
24.1476 -14.9525 133.207
24.9606 -15.1148 133.217
24.567801 -14.9533 132.125
25.353201 -15.0761 132.03
21.244699 -15.4337 125.885
23.148399 -13.9026 135.617
23.1259 -13.1446 136.686
21.910601 -13.2518 136.35899
22.125299 -13.7349 135.457
21.433701 -13.8326 134.51801
21.281401 -13.6089 135.229
20.8629 -13.3791 135.899
13.0251 -18.859301 126.122
12.7296 -18.7577 127.344
14.4547 -18.3452 126.153
13.3415 -18.8953 124.655
14.7282 -18.3962 125.032
14.1851 -18.2376 127.405
19.008101 -3.75104 117.584
20.0548 -1.44944 117.596
14.8816 -18.4091 124.327
15.9303 -17.856701 124.978
20.336901 0.38828799 118.199
17.8162 3.3343599 117.817
19.340599 2.3882201 119.391
18.367599 3.22856 120.242
16.498199 4.5543799 121.755
16.1394 4.8309498 124.942
13.9328 5.4474201 125.118
19.9366 -3.9276199 139.43401
20.2439 -5.0817499 139.658
17.132 3.10848 131.62199
17.2873 2.88607 132.12
17.794701 2.3499601 133.073
19.558901 0.040358 136.136
18.453199 1.5809 134.27699
19.751801 -0.74977201 137.153
19.7861 -1.497 137.94901
19.829 -2.2039001 138.605
19.844801 -3.11971 139.16
14.5859 2.17923 134.37199
16.342501 2.1458299 134.28999
15.5167 2.99367 132.76801
13.5999 3.0228801 132.894
14.9386 3.5069799 131.629
13.2856 3.5489399 131.674
14.6662 3.77705 130.935
13.0945 3.9424 130.73399
11.6959 3.8694301 130.631
9.3003998 2.54951 131.304
10.6475 2.3562701 132.771
11.1618 2.9142201 132.30499
12.0383 3.3234899 132.01401
11.385 2.6248 132.933
12.3149 2.7744401 133.10001
13.7564 2.08109 134.43201
12.4989 1.9672101 134.271
11.8318 1.70855 134.327
11.1915 1.38287 134.349
10.7265 6.5690198 122.134
12.8032 6.2853699 119.775
13.2582 5.9779701 121.996
9.8837004 1.94853 132.839
10.2931 1.11211 134.33
18.7365 -4.72364 117.671
18.681801 -5.7484102 117.541
19.250999 -6.1444402 118.844
15.8473 4.76545 119.598
19.363501 -15.2884 130.931
19.243601 -15.8195 129.785
20.2099 -15.4143 129.92
20.247601 -14.9864 131.174
19.029699 -16.1707 128.575
20.2313 -15.7478 128.521
14.5533 -18.668699 121.416
13.9406 -18.8444 122.856
15.4227 -18.287001 122.122
15.0813 -18.415899 123.532
16.298201 -17.8071 122.548
16.082399 -17.889299 123.997
17.1861 -17.328199 122.698
17.099001 -17.3381 124.077
18.1726 -16.816799 122.644
18.413601 -16.743401 124.751
19.3703 -16.1961 122.647
19.7561 -16.1446 124.691
15.016 -18.3699 120.083
15.7604 -18.044201 120.69
16.5268 -17.6287 121.067
17.3041 -17.188101 121.186
18.107901 -16.692301 121.122
19.0555 -16.1182 121.035
16.756901 -16.988899 128.54201
16.683201 -17.2423 127.333
17.749201 -16.8585 127.326
17.880899 -16.6091 128.659
18.8438 -16.402 127.226
20.100401 -15.8702 127.188
18.7798 -15.1064 131.64799
18.469299 -15.6946 130.632
19.573601 -15.0151 131.45599
20.2822 -14.0252 133.995
19.9743 -14.2488 133.44299
20.5224 -14.2269 133.18201
20.8524 -14.0393 133.72501
20.860901 -14.2288 133.093
19.555599 -14.5447 132.77299
20.1315 -14.5104 132.48399
20.672199 -14.5104 132.31599
13.6269 -18.8993 123.663
17.065001 -17.306801 124.931
15.7232 -17.805901 126.121
16.7108 -17.371099 126.049
17.549299 -17.0529 125.97
18.6343 -16.6127 125.848
19.941999 -16.0275 125.845
15.5472 -17.680799 127.415
19.267099 -14.5648 133.07001
19.7616 -14.2612 133.63499
19.369301 -14.3219 134.077
19.0126 -14.5858 133.59801
18.571301 -14.4935 134.02699
19.334101 -13.9343 134.873
19.8155 -14.0213 134.552
19.244301 -7.2448702 118.267
18.724001 -6.6915302 117.419
20.910601 -13.8637 134.33299
20.4848 -13.7348 134.97099
20.0602 -13.5839 135.407
19.58 -9.3954201 117.507
20.065201 -9.5196199 118.357
19.3922 -8.2074499 117.928
19.0611 -9.1925697 116.639
18.8127 -7.86237 116.906
18.7771 -7.2890201 117.14
18.694599 -9.1320295 115.926
18.3888 -7.70156 115.86
18.113001 -7.5674601 115.003
18.193001 -8.4312496 115.102
18.4109 -9.2200699 115.283
18.341499 -4.7028298 140.366
16.5016 -4.1809602 140.774
15.1646 1.2243201 135.903
17.1688 0.863837 136.075
15.6243 0.449736 137.064
17.5977 -0.077334002 137.36
15.9966 -0.43039501 138.158
17.699699 -0.88996899 138.319
16.055099 -1.32105 139.00101
17.6681 -1.64802 139.07401
15.7318 -2.2565 139.808
17.7733 -2.6113 139.698
16.188101 -3.1333001 140.353
17.881599 -3.3979001 140.043
14.4843 -2.1361799 139.522
14.9841 -1.12192 138.795
15.099 -0.27924901 137.918
14.2448 -0.93581402 138.446
13.725 -1.91761 139.14799
13.2386 -1.48937 138.673
12.6368 -1.90766 138.90601
13.2788 -2.50388 139.552
14.0742 -2.8441999 139.996
13.7936 -3.3534801 140.603
12.8555 -2.92238 140.07899
12.2427 -2.39678 139.451
12.0018 -1.9576401 138.89
11.3773 -1.06138 137.658
13.8466 1.24889 135.752
14.1611 0.60275501 136.70799
14.4467 0.28882301 137.181
12.7034 1.15782 135.549
13.0734 0.41752499 136.59399
13.636 -0.252065 137.569
11.8997 0.91951197 135.47099
11.9972 0.124919 136.465
12.57 -0.73352998 137.597
11.3507 0.66069502 135.478
11.3938 -0.050359 136.30499
12.0092 -0.94779599 137.57201
14.9688 -3.6984 140.83501
15.221 -2.98945 140.252
10.5714 0.38499099 135.58299
10.7629 -0.24342 136.48
18.2183 -16.2519 129.709
12.4743 -18.6593 128.478
13.8527 -18.1544 128.60001
15.327 -17.4559 128.569
15.1351 -17.242399 129.806
13.9726 -17.822001 129.619
15.133 -17.2749 129.589
16.5347 -16.8358 129.45599
16.466101 -16.6511 130.14799
16.4436 -16.680401 131.145
15.2394 -17.2726 130.647
14.0322 -17.8706 130.47
14.0395 -17.988001 131.008
15.1693 -17.2957 131.18401
16.3713 -16.622499 131.56799
17.7479 -15.5213 132.187
17.7967 -15.6854 131.302
18.5264 -15.025 132.202
17.6765 -16.0839 130.465
17.7437 -16.459299 129.63
13.3125 -18.251301 130.94501
13.3885 -18.1481 130.423
13.4608 -18.061399 129.618
12.4564 -18.489201 130.222
12.5828 -18.549801 129.584
16.2253 -16.4578 132.02699
17.5002 -15.3788 132.78
15.1863 -17.0788 131.66299
14.8906 -17.3071 131.55499
13.9339 -17.9247 131.539
13.2009 -18.2672 131.403
10.9699 0.50710899 135.466
13.6255 5.6951199 123.812
16.216299 4.8032098 123.6
9.0759697 5.9623299 123.929
11.2563 6.1567502 123.826
18.9018 3.47316 123.446
10.1528 4.7411499 127.17
9.3932199 4.3870602 127.508
11.3795 4.9962702 126.802
12.5421 5.0599799 126.609
14.4168 4.9684401 126.417
16.368601 4.7305598 126.274
24.6392 -0.036463998 127.564
22.257099 1.83198 126.724
19.605801 3.5709701 126.41
18.197599 3.7200401 129.855
24.5884 -0.061813999 130.931
22.508801 1.3721 130.71001
20.054501 2.8382599 130.30701
21.412001 -7.6993499 122.724
21.4946 -6.3517399 122.474
22.7199 -6.45857 124.171
22.4487 -7.8312702 124.552
23.1507 0.220624 132.718
23.369301 0.49309501 131.901
23.0413 0.164573 133.043
23.5268 0.71487099 130.82201
23.6056 0.81628299 128.93201
21.1182 2.6064501 128.69901
21.314199 2.07038 130.589
23.3962 0.901757 127.052
21.087999 2.6405799 126.49
23.623699 0.24658599 125.595
24.2138 -0.60803401 124.63
22.3981 1.0476201 123.695
21.3599 2.1441 125.063
24.674801 -1.62651 124.081
23.404699 -0.39228001 122.837
24.709801 -2.84215 123.821
23.762501 -1.99234 122.336
24.1898 -4.1315298 123.748
23.2384 -3.39571 122.127
23.3013 -5.3624101 123.961
21.8873 -5.1697302 122.204
16.988701 3.36127 131.222
14.4239 3.9823201 130.474
11.6197 4.1259098 129.989
13.1275 4.1480498 130.24001
19.1605 2.4412 131.839
23.2659 0.363002 132.326
22.3318 0.84355402 132.34801
21.051701 1.52271 132.147
21.3787 1.6677999 131.65199
19.4154 0.69682002 135.20399
16.789499 1.55984 135.188
14.8628 1.8763 134.892
21.5109 -0.22445001 135.21201
24.349001 -1.56284 134.55299
22.494301 -0.67473799 135.077
19.6532 1.09962 134.336
19.4809 1.61869 133.38699
19.304199 1.9313 132.686
9.8055296 4.8575101 126.686
23.496901 -6.5695701 138.39101
24.5749 -7.0306301 138.101
25.776199 -7.3955002 138.00301
30.108299 -6.9853101 137
29.306299 -6.8840098 137.304
28.252399 -6.82479 137.59599
26.945299 -6.78931 137.755
26.0019 -4.35815 136.79601
27.305901 -4.3422799 136.54401
27.562599 -2.9660499 134.728
28.9506 -3.0385799 133.978
30.0872 -3.1432099 133.07201
26.4114 -2.4425099 134.015
27.764601 -2.6241 133.569
28.8267 -2.7939301 132.98599
24.7087 -12.132 137.349
25.6558 -12.0674 137.3
26.969999 -12.1071 137.007
28.135099 -12.1523 136.645
29.193701 -12.1857 136.259
23.499001 -12.0487 137.509
24.3001 -13.5801 136.27
25.3081 -13.6844 136.24001
26.5954 -13.8584 136.00301
27.7768 -13.9224 135.707
28.823 -13.9934 135.343
23.246901 -13.5903 136.168
25.284901 -14.2296 135.55499
26.5632 -14.4291 135.30499
27.7076 -14.5105 135.03999
28.651899 -14.5113 134.73801
28.615101 -14.6785 134.56799
27.700399 -14.6517 134.864
26.567699 -14.5566 135.104
25.290001 -14.4 135.269
24.141199 -14.2578 135.286
22.212799 -13.8634 135.05299
23.0711 -14.0965 135.196
19.8752 -13.4758 135.58299
18.997 -13.7709 135.09
18.571199 -14.0345 134.711
17.172199 -15.2288 133.19501
16.0798 -16.270901 132.508
15.1068 -16.8841 132.089
14.7439 -17.2087 131.99699
13.8973 -17.830601 131.877
13.1397 -18.2495 131.72099
18.249701 -14.3013 134.349
18.3881 -14.9816 132.886
18.0548 -14.9122 133.38499
17.707701 -14.7523 133.72
22.269899 -10.3332 123.291
22.6572 -11.1382 123.445
21.889299 -9.3954096 123.195
23.079 -12.0727 123.49
23.3822 -12.9755 123.416
23.3801 -13.843 123.44
21.587999 -8.58743 122.995
17.082199 -16.674299 129.489
17.101299 -16.387699 130.257
17.105301 -16.222099 130.672
17.1346 -16.084 131.65401
16.883101 -15.9109 132.383
16.6052 -15.7272 132.842
19.5991 -16.1978 123.86
20.8866 -15.4987 123.596
22.2437 -14.7423 123.598
22.4625 -14.8802 125.958
23.941299 -14.4691 125.994
22.863701 -9.2347202 125.092
23.1845 -10.0477 125.37
23.602699 -10.9125 125.593
23.9557 -11.8318 125.727
24.2327 -12.7176 125.615
24.2934 -13.6718 125.732
25.4282 -11.1246 127.525
25.4797 -11.3704 127.988
25.5362 -11.6678 127.926
25.66 -12.3892 127.808
26.500401 -11.7021 128.101
26.5124 -12.0415 128.145
26.529499 -12.682 128.192
26.4177 -13.1599 128.291
26.236099 -13.8256 128.64301
26.462999 -11.3606 127.509
26.460899 -14.9995 130.203
27.1385 -14.9722 130.129
27.708099 -14.8284 129.839
23.5411 -14.8464 132.464
24.3832 -14.9996 132.55
25.180901 -15.1453 132.536
25.9739 -15.2752 132.45
26.8389 -15.3722 132.27499
27.630301 -15.4455 132.05
28.3071 -15.5089 131.813
23.7194 -14.8311 131.88499
24.7089 -14.9453 131.731
25.504299 -15.0607 131.56799
26.245701 -15.1839 131.367
27.005199 -15.2871 131.119
27.702499 -15.3127 130.856
28.314699 -15.2713 130.573
22.6903 -8.7322502 124.901
22.715599 -14.5361 123.601
22.3141 -4.4748302 122.116
21.445299 -3.9382 120.817
20.539301 -3.4279499 119.41
19.3915 -2.82289 117.512
17.8486 -3.7642 114.408
17.998699 -5.0208602 114.764
17.978901 -2.45575 114.563
18.038799 -6.0520301 114.867
18.304701 -1.4601001 114.923
18.3487 -6.2779298 116.11
18.3437 -7.05338 115.948
18.060699 -6.8938899 114.937
18.3358 -4.1974101 116.084
18.343901 -5.32374 116.159
18.4986 -3.10061 115.982
18.924 1.39613 116.45
19.002199 -0.44335899 115.67
18.705999 -2.0881801 115.846
18.2992 -16.7987 123.948
12.5062 -18.287901 131.55
12.3149 -18.445299 130.85001
12.3504 -18.3528 131.263
18.9072 -14.2348 134.42799
12.6559 -18.348499 131.246
12.6736 -18.3825 130.866
12.7278 -18.376801 130.26199
21.483801 -13.9358 134.22701
21.9678 -14.0081 134.20599
23.874399 -14.6549 134.485
22.997801 -14.4149 134.356
28.5411 -15.105 133.963
27.682301 -15.0704 134.25101
26.6059 -14.9904 134.48599
25.424 -14.8687 134.576
24.4832 -14.7531 134.533
22.2952 -14.1332 134.26199
18.544001 -8.5699701 115.872
18.2584 -8.7222204 115.158
18.906799 -8.6275196 116.679
19.4112 -8.7624598 117.611
19.7668 -8.8354797 118.232
20.4662 -8.9868498 119.55
19.233101 -16.1733 121.897
20.5016 -15.4542 121.825
18.1203 -16.7721 121.946
17.237801 -17.2803 122.042
16.398199 -17.7346 121.903
15.5797 -18.191999 121.494
14.7753 -18.549601 120.805
21.209999 -9.6881304 120.683
21.617001 -10.5074 120.872
21.978001 -11.3179 121.156
22.2332 -12.093 121.293
22.3605 -12.9163 121.367
22.295601 -13.7854 121.432
21.6717 -14.5817 121.629
20.450199 -7.5438399 120.753
20.7363 -8.51085 120.728
20.883301 -8.8797398 120.726
18.148399 -8.0362597 115.048
19.4897 -16.208099 123.331
16.1998 -17.8661 123.224
17.140499 -17.349199 123.343
15.251 -18.3673 122.804
14.2646 -18.773199 122.104
18.2271 -16.820299 123.296
18.451799 -8.11553 115.864
18.843901 -8.1810598 116.811
17.655399 -15.4592 132.481
18.256399 -14.9568 133.131
17.0474 -16.0203 132.009
20.278999 -13.6687 135.22
21.1089 -13.5143 135.56799
19.583401 -13.9953 134.72701
19.159599 -14.2911 134.26801
22.0536 -13.5633 135.89301
18.817101 -14.5543 133.828
18.444 -15.0093 132.562
17.757401 -15.601 131.828
14.0339 -17.809601 130.05
13.4522 -18.048201 130.08299
17.121901 -16.1448 131.196
16.438499 -16.6656 130.689
15.194 -17.2342 130.19501
20.6658 -13.7854 134.666
20.0404 -14.0148 134.30701
21.3274 -13.7201 134.87
19.551701 -14.2943 133.86099
19.1255 -14.5837 133.34399
21.546801 -13.7277 134.927
24.964899 -5.8159499 125.325
25.832399 -5.9810901 125.754
26.4823 -6.1602602 125.932
26.811399 -6.2929101 126.017
27.066799 -6.3803201 126.044
27.365 -6.4927301 126.051
27.695999 -6.6401701 125.987
33.2617 -3.83793 130.285
32.174999 -3.54354 130.769
32.690498 -3.7504101 131.46201
33.549801 -4.0139399 131.11099
33.201401 -4.9149799 133.381
34.022099 -6.0971498 133.955
33.254398 -5.8103299 134.407
33.233501 -6.7209802 135.105
34.0112 -6.9830699 134.61
33.135899 -8.1601896 135.31799
33.919701 -8.3493299 134.77699
32.928902 -9.5016403 135.20599
33.7267 -9.6466303 134.661
32.6166 -10.9933 135.067
33.3993 -11.0675 134.563
31.8374 -13.403 134.487
32.507198 -13.3395 134.11501
31.1824 -14.4667 133.884
31.7379 -14.4851 133.569
30.802099 -15.0325 133.39799
31.309099 -15.0701 133.121
30.3137 -15.4924 132.16299
30.7859 -15.4385 131.87801
29.873699 -15.3409 130.508
30.243099 -15.2854 130.27699
29.5151 -14.8638 129.338
29.909 -14.8626 129.226
29.186701 -14.4344 128.838
29.7288 -14.4933 128.745
28.9534 -14.8673 129.491
29.218399 -15.4108 130.80499
29.434099 -15.5063 132.248
29.549999 -15.4057 132.74699
29.871599 -14.9513 133.826
30.1425 -14.4256 134.33701
30.6448 -13.3681 135.09399
31.224899 -10.9306 135.87601
31.4956 -9.3516598 136.09599
31.711599 -7.92942 136.226
31.8374 -6.5111699 135.95599
31.8964 -5.55757 135.23199
31.8521 -3.9045899 133.03799
31.549 -3.4677701 131.998
28.760201 -10.8693 126.371
28.660101 -11.5266 126.514
29.631201 -11.2645 126.018
29.4981 -11.8908 126.168
29.799299 -10.4459 125.828
30.757601 -10.8386 125.335
30.571501 -11.5915 125.561
32.9431 -11.45 124.095
32.750702 -12.0911 124.343
36.4907 -13.276 130.964
37.3162 -13.1759 130.34599
38.1278 -11.7663 130.411
37.427101 -11.7284 131.071
38.330299 -11.0581 130.381
37.674599 -10.8523 131.067
38.456402 -9.40518 130.241
37.801399 -9.0195599 130.961
37.2024 -6.2301402 129.543
34.854198 -4.97367 131.39101
36.018799 -5.5468001 130.476
35.542301 -4.6708398 129.27499
34.4077 -4.2070799 129.877
35.127102 -4.3923302 128.207
34.041801 -4.09376 128.767
33.439899 -4.1494098 127.279
32.6763 -4.4893198 125.861
36.225101 -14.2819 130.118
35.483002 -14.8695 129.86
34.215 -15.4879 129.097
32.6637 -15.2311 128.274
29.285999 -14.8699 129.412
28.9666 -13.7732 128.30901
29.554001 -15.3839 130.653
32.223701 -3.61728 131.702
30.752701 -15.2174 129.942
30.4266 -14.8791 129.075
34.878899 -6.4941502 133.38
31.360201 -15.3776 131.437
32.019699 -15.3288 130.85001
34.652699 -14.8185 130.479
33.7481 -14.8899 131.257
32.7346 -15.3074 130.203
33.454399 -15.345 129.644
30.9016 -14.8799 128.88
31.7705 -15.154 129.19701
31.282101 -15.1673 129.55701
32.828098 -14.9763 132.049
31.995199 -15.0382 132.683
29.9429 -4.5886798 125.839
30.9095 -4.7996602 125.391
30.165899 -6.2944598 124.654
29.309401 -5.96873 125.208
29.825899 -9.3097401 125.324
28.849701 -8.7428198 125.693
28.869801 -9.9686499 126.181
29.427401 -12.3954 126.418
28.65 -12.0787 126.783
32.588501 -14.9517 127.31
31.556 -14.5924 127.83
31.3319 -13.9752 126.782
32.416901 -14.4655 126.263
31.2717 -13.5065 125.947
32.358898 -13.9533 125.381
31.315901 -13.0189 125.446
32.411999 -13.3833 124.814
32.561501 -12.7139 124.509
30.283501 -13.0897 126.443
30.2988 -13.4917 127.121
30.3468 -13.9887 127.86
30.413099 -12.1991 125.742
30.311199 -12.7095 126.005
30.335501 -14.6576 128.754
29.6089 -14.0279 128.308
30.331499 -14.3481 128.371
29.5327 -13.5429 127.888
29.4547 -13.0886 127.367
29.427999 -12.7352 126.819
29.878401 -15.4848 132.34
28.6896 -12.3729 127.105
28.778799 -12.7388 127.603
32.2868 -15.1887 128.843
31.1632 -14.7286 128.47701
28.8575 -13.2089 127.983
35.7756 -6.9867301 132.625
31.9181 -5.0846 124.804
31.1129 -6.7020402 124.009
31.5818 -4.2070498 126.343
32.381802 -3.9439199 127.742
32.915298 -3.8101499 129.153
36.693699 -5.1451702 128.496
36.769699 -7.55687 131.711
34.881401 -7.3457499 133.966
35.872101 -7.86237 133.071
34.817699 -8.6527205 134.078
35.8479 -9.1190205 133.138
34.668999 -9.8768396 133.97
35.7271 -10.1997 133.05701
34.349701 -11.195 133.907
35.417198 -11.3614 133.02299
33.362999 -13.3109 133.564
34.379101 -13.3 132.8
32.501301 -14.4207 133.121
33.414902 -14.3694 132.442
36.7682 -10.5785 131.98
36.910702 -8.4789495 131.97301
30.584 -3.9600999 126.771
31.3209 -3.69701 128.099
31.7976 -3.52298 129.46899
34.168499 -5.6811399 123.544
34.921299 -4.9568701 124.656
33.264 -7.68326 122.64
35.360901 -14.2918 130.756
33.115799 -10.6303 123.684
36.2491 -4.7111502 127.461
35.558701 -4.5510402 125.937
36.488201 -11.5613 131.98
35.479401 -13.3015 131.87
34.408199 -14.3325 131.597
30.8908 -9.8152704 124.872
30.3489 -14.9903 133.617
32.566898 -4.7265902 133.78101
32.575901 -5.6625099 134.83
32.532902 -6.5882401 135.545
32.424801 -8.04387 135.78799
32.215099 -9.4156599 135.672
31.925699 -10.953 135.48801
31.2586 -13.3889 134.799
30.679899 -14.4424 134.108
32.4888 -7.2453299 135.759
31.785101 -7.1494899 136.16901
33.194901 -7.3713899 135.302
34.844898 -7.9328699 134.091
33.972801 -7.5960102 134.77
31.9261 -4.5820498 134.166
32.459301 -4.0672598 132.689
33.012501 -4.2238798 132.368
33.804199 -4.5062599 131.99001
35.435699 -5.89955 131.94299
34.792 -5.5888901 132.427
33.967999 -5.2393899 132.929
37.786598 -10.0691 131.04201
38.446499 -10.3729 130.33299
36.884602 -9.6762104 132.008
30.924299 -12.3266 135.483
31.5875 -12.346 135.14799
32.229401 -12.3367 134.79601
32.960999 -12.324 134.35899
33.879398 -12.3593 133.76401
34.937099 -12.4155 132.938
36.051899 -12.4927 131.967
37.040798 -12.5638 131.05901
37.8022 -12.4857 130.408
30.3911 -14.064 134.715
30.954599 -14.0626 134.45599
31.485399 -14.073 134.189
32.0854 -14.0604 133.83299
32.8871 -14.0046 133.34399
33.8409 -13.9692 132.63699
34.874199 -13.9505 131.754
35.8521 -13.9003 130.867
36.716801 -13.8227 130.23399
29.9723 -14.6675 134.084
30.493099 -14.697 133.86099
30.971701 -14.7267 133.649
31.4986 -14.7559 133.366
32.224602 -14.6995 132.933
33.105701 -14.6404 132.274
34.080299 -14.5755 131.453
35.023102 -14.5275 130.64
35.8797 -14.5636 130.00999
33.5285 -15.4794 128.69
32.815701 -15.3138 129.17101
32.181999 -15.262 129.59599
31.5903 -15.2763 130.08701
31.0035 -15.3411 130.595
30.464199 -15.4246 130.979
30.060101 -15.4912 131.23399
29.6859 -15.541 131.362
29.306101 -15.5485 131.45599
31.901199 -15.0533 128.673
31.4168 -15.0304 128.959
31.059999 -15.0413 129.187
30.572001 -15.0716 129.466
30.080999 -15.1148 129.714
29.7206 -15.1648 129.911
29.445601 -15.2141 130.054
29.1292 -15.2408 130.207
34.468399 -4.3193498 126.687
33.7663 -4.6988101 125.317
33.011398 -5.3640099 124.214
32.1408 -7.1842899 123.333
31.9811 -10.2602 124.317
31.8064 -11.1631 124.746
31.618999 -11.8447 125.001
31.444401 -12.4454 125.179
34.898399 -15.2363 129.549
34.129398 -15.1409 130.15401
33.310101 -15.1945 130.853
32.471401 -15.2695 131.58299
31.720501 -15.3004 132.20399
31.088699 -15.3383 132.653
30.613001 -15.2965 132.95799
30.180799 -15.2466 133.189
29.758301 -15.1923 133.451
36.4035 -6.44174 131.118
37.328999 -7.0304799 130.274
37.865002 -7.3078098 129.772
37.6563 -8.1182098 130.763
38.290798 -8.4755898 130.088
36.9118 -5.58603 129.041
35.7467 -4.9830499 129.868
34.619598 -4.4324799 130.618
38.482201 -9.9195499 130.297
37.813801 -9.5667801 131.009
36.911999 -9.0652704 132.009
35.859001 -8.4488096 133.151
33.185398 -8.7634497 122.843
32.043201 -8.2027502 123.482
30.9526 -7.6001 124.064
29.999599 -7.0733099 124.669
29.1831 -6.5180602 125.214
33.2183 -9.7115803 123.259
32.034302 -9.23032 123.855
30.9018 -8.6753798 124.381
29.853701 -8.1174898 124.883
28.979799 -7.5352101 125.367
33.592899 -6.61869 122.861
32.460899 -6.2164602 123.57
31.426701 -5.86551 124.248
30.439699 -5.5660801 124.871
29.503599 -5.43996 125.352
38.363602 -6.5538702 128.867
38.7187 -7.4359198 129.323
38.104099 -5.9949398 128.32401
36.759201 -4.8252101 125.153
37.4478 -4.9981599 126.69
36.125702 -5.25594 123.882
37.882702 -5.5187302 127.745
33.847198 -13.0267 123.601
34.0611 -12.3651 123.482
34.2607 -11.7382 123.317
34.417 -10.9877 122.992
34.519798 -10.1678 122.628
33.6385 -14.4183 124.604
33.683399 -13.7886 123.941
38.8223 -11.2839 129.935
38.667599 -11.8019 129.978
34.562302 -8.1840801 121.993
34.858398 -7.0531001 122.153
35.424301 -6.0433502 122.817
33.700699 -14.9803 125.549
33.890499 -15.429 126.595
34.171501 -15.7203 127.596
35.173199 -15.807 128.509
34.563202 -15.8293 128.011
37.135799 -14.2522 129.72701
36.793201 -14.6096 129.563
39.055801 -9.6209002 129.799
39.051899 -10.0763 129.83701
38.982101 -10.6026 129.86501
38.412998 -12.451 130.009
38.0312 -13.1082 129.99001
37.559502 -13.7502 129.88499
36.3918 -14.9977 129.368
35.809799 -15.4739 129.006
38.998001 -8.5980701 129.668
34.5103 -9.3030701 122.242
28.1618 -12.8163 127.992
28.699499 -14.8547 129.569
28.1024 -12.3642 127.769
28.6432 -14.2972 128.905
28.2701 -13.4756 128.269
28.0369 -11.9143 127.205
29.3181 -14.9176 134.05901
28.958099 -15.4749 132.362
29.0797 -15.3497 133.019
28.8174 -15.4207 130.985
29.4492 -14.5388 134.442
29.3741 -14.6986 134.27901
29.0208 -4.5458002 126.152
28.567699 -5.7238498 125.702
27.9498 -9.56143 126.474
27.9758 -10.5601 126.692
27.957001 -11.1454 126.831
29.614799 -3.7945499 127.058
28.0334 -8.2468004 126.042
29.5182 -14.3776 134.625
29.9051 -13.3449 135.411
30.152 -12.2784 135.856
29.7034 -14.0383 135.019
30.427799 -10.9392 136.272
30.689301 -9.3121099 136.52699
30.9093 -7.7930899 136.67799
31.006001 -7.0571599 136.586
30.244801 -3.44786 128.35899
30.731001 -3.26546 129.76401
31.1593 -3.7441101 133.49699
31.060801 -3.2748101 131.14101
30.879601 -3.31165 132.298
31.116699 -5.4823899 135.692
31.055401 -6.4918098 136.412
31.196199 -4.44872 134.614
28.858999 -15.5653 131.589
29.2391 -15.1483 133.70599
28.790501 -15.2641 130.36501
28.2509 -6.9439902 125.759
35.6731 -11.9848 122.537
35.4702 -12.617 122.6
38.271099 -12.2592 121.259
38.068501 -12.9881 121.201
38.883202 -13.0788 129.63499
38.164902 -14.2954 129.328
37.4883 -15.1423 128.847
36.364601 -16.124901 127.845
35.772598 -16.1437 126.948
35.343399 -15.8407 125.724
35.183399 -15.447 124.722
37.951199 -15.817 122.379
38.271599 -16.6098 123.68
35.092499 -14.869 123.748
37.364601 -5.5669999 123.174
36.7458 -6.42208 122.185
35.987 -8.6604795 121.497
39.280602 -11.6557 129.60201
35.238098 -13.3414 122.662
35.083698 -14.1785 122.992
35.8055 -11.3056 122.334
39.091599 -5.7815199 127.094
38.669399 -5.24052 125.997
37.9939 -5.10502 124.444
39.503601 -6.7732401 128.299
39.665901 -9.8796396 129.48399
41.431702 -6.2098999 125.851
41.030499 -5.6545401 124.763
40.347401 -5.5547299 123.249
41.679501 -11.8474 128.517
41.968899 -9.8922501 128.59399
41.928501 -7.8439002 127.821
41.7957 -7.20755 127.139
37.819401 -14.8873 121.549
37.862499 -13.8999 121.198
38.3759 -11.6939 121.18
38.5826 -9.3324804 120.55
39.7075 -6.0722699 121.991
39.169701 -7.0215402 121.074
38.888401 -17.0492 125.241
39.5186 -16.8929 126.445
40.874901 -14.6376 128.181
40.331501 -15.6431 127.645
41.435101 -13.2058 128.53101
47.7118 -17.702 120.065
48.038601 -17.832001 120.851
51.853001 -11.6306 121.42
52.209801 -12.4218 121.909
52.804298 -12.6105 121.558
52.316101 -13.1195 122.758
52.9048 -13.2927 122.368
51.319801 -11.5374 121.793
50.926601 -10.7025 120.832
50.4576 -10.1116 119.733
50.098598 -10.0651 119.012
49.827599 -10.1447 118.224
49.604801 -10.4587 117.524
49.3507 -10.0063 118.381
49.1082 -10.2239 117.927
49.1241 -10.9939 116.958
48.691898 -10.7539 117.249
48.393902 -12.1276 116.17
47.8703 -11.911 116.532
47.931198 -13.4906 115.942
47.371799 -13.2262 116.352
47.330002 -14.6827 116.323
46.841801 -14.5134 116.624
46.9529 -15.5255 116.911
46.405602 -15.4027 117.384
47.212101 -17.122499 119.435
47.2733 -17.468599 120.215
46.950001 -16.9624 119.417
46.868999 -16.7719 119.059
47.188499 -16.9125 118.91
46.744801 -16.3827 118.18
47.168499 -16.566401 117.932
46.749298 -16.0672 117.582
47.270302 -16.213301 117.131
47.479099 -15.7764 116.454
47.4967 -16.848 117.794
47.505199 -17.1866 118.762
47.5144 -17.413 119.373
47.552601 -17.6486 120.716
50.503101 -10.6094 121.13
50.825699 -11.4599 122.132
50.944302 -12.0551 122.667
51.563702 -12.2012 122.28
48.776901 -16.4893 124.081
49.6908 -16.658899 123.946
50.172199 -15.6451 124.341
49.094799 -15.7449 124.429
50.4216 -14.6605 124.224
51.055302 -14.488 124.047
44.588402 -17.069401 120.765
44.3587 -16.4531 119.816
45.556301 -16.4573 119.469
45.842602 -17.034401 120.57
47.377102 -16.242599 124.357
46.588299 -17.143499 123.541
47.9678 -17.119801 123.261
48.8242 -17.2479 123.114
49.277 -17.3508 123.182
50.2173 -16.7153 123.958
49.7108 -17.479 123.335
50.792301 -16.7556 124.065
45.8405 -17.417299 122.752
47.261799 -17.311899 122.513
48.224201 -17.4589 122.376
48.679001 -17.577999 122.455
45.0919 -17.386801 121.729
46.4884 -17.292299 121.567
47.5322 -17.526199 121.488
47.606201 -15.4541 124.68
49.4165 -14.5668 124.439
47.811501 -14.2477 124.888
49.632 -12.9684 123.998
47.861198 -12.6505 124.888
49.666901 -11.6681 123.392
47.316299 -10.8768 125.061
49.3927 -10.8229 122.604
49.2733 -10.2994 122.059
48.9767 -9.4202003 120.773
50.746498 -15.6901 124.238
51.614899 -13.0308 123.152
51.278999 -16.253901 124.17
51.007301 -13.0587 123.515
48.724899 -9.3328304 120.072
46.707199 -7.9974599 121.442
48.354099 -9.5115604 118.971
46.646801 -8.0776701 120.26
47.624001 -10.014 118.108
46.1035 -8.6431799 119.255
46.7122 -11.1853 117.357
45.3256 -10.0114 118.423
46.162102 -12.5736 117.09
44.894402 -11.6524 118.001
44.321602 -15.7094 119.071
45.513699 -15.8829 118.662
44.447899 -14.7924 118.441
45.5998 -15.1088 117.988
44.601299 -13.2953 118.029
45.834999 -14.0386 117.313
47.628899 -16.424801 116.86
47.891399 -16.0112 116.076
46.275799 -15.963 118.048
46.2915 -16.2145 118.443
46.462399 -16.7269 119.313
46.845001 -17.3197 120.465
49.714901 -9.9438896 119.253
50.034199 -10.0085 119.948
49.4935 -11.181 116.714
48.997101 -12.4879 115.691
48.4025 -13.6949 115.635
49.686001 -12.9505 115.18
49.0387 -13.9813 115.068
50.285 -13.6104 114.686
49.412102 -14.399 114.704
47.5145 -14.7721 116.182
48.045898 -15.0381 115.721
48.439301 -15.3452 115.327
49.081902 -17.747 122.641
48.076 -17.679199 121.57
48.510502 -17.859699 121.775
40.3703 -11.949 120.197
40.471001 -13.3772 120.077
42.904202 -6.8773298 124.794
45.0742 -7.6737399 123.349
44.422501 -7.0332899 122.653
42.845402 -6.3211899 123.616
44.408401 -6.9717102 121.305
42.457802 -6.18682 122.18
43.9165 -7.5690398 120.188
41.7621 -6.8497601 120.946
43.333302 -8.9821701 119.33
41.004299 -8.2053099 120.085
43.060799 -10.8004 118.964
40.652901 -10.2168 119.944
40.4352 -15.6565 120.634
40.6474 -16.457199 121.51
42.767899 -16.2931 120.156
42.9814 -16.9765 121.051
40.380501 -14.5933 120.172
42.737099 -15.4435 119.469
42.790798 -14.1939 119.072
42.894699 -12.5682 118.923
42.385101 -17.323099 125.196
43.077499 -15.9421 126.339
44.707199 -17.337999 124.198
45.377399 -16.170799 125.125
41.722198 -17.461399 124.065
44.055302 -17.5755 123.278
41.066502 -17.1094 122.684
43.409901 -17.434401 122.115
45.605202 -15.166 125.502
43.421001 -14.8742 126.799
45.854698 -13.7108 125.872
43.7803 -13.3772 127.205
45.946499 -12.1969 126.043
43.9916 -11.9118 127.365
45.477901 -10.5204 126.346
44.0471 -10.1449 127.516
45.168301 -9.3012199 125.44
43.365601 -8.4641104 126.861
43.080299 -7.8896198 126.235
46.313801 -17.139999 120.523
45.2822 -17.061399 120.654
43.8647 -17.0676 120.892
41.8708 -16.746 121.246
39.3536 -16.164801 121.846
46.012901 -15.2338 117.722
45.887699 -15.8648 118.338
45.8983 -16.1005 118.632
46.0219 -16.5786 119.402
45.030399 -16.444201 119.635
47.002102 -17.3755 121.519
47.787102 -17.380501 122.425
48.3988 -17.1695 123.148
47.379902 -17.1071 123.397
46.640701 -17.364799 122.626
45.855598 -17.3482 121.626
44.3139 -17.436199 121.888
44.995899 -17.5089 122.963
45.692101 -17.242001 123.8
43.5937 -17.3612 124.688
42.945599 -17.557301 123.663
42.2967 -17.3111 122.381
39.73 -16.872101 123.109
40.395302 -17.3055 124.584
41.040501 -17.1558 125.795
39.129002 -15.2409 121.002
39.119999 -14.2004 120.619
41.658199 -16.000999 120.363
41.6273 -15.0837 119.752
43.618999 -15.6391 119.262
43.649502 -16.435101 119.98
44.979698 -15.7712 118.862
45.0924 -14.9461 118.202
43.711399 -14.5614 118.713
41.695801 -13.7698 119.533
39.2938 -13.1751 120.608
43.821602 -12.943 118.437
45.266998 -13.6648 117.667
46.362598 -14.3114 116.981
41.807201 -12.2362 119.49
39.449699 -12.3009 120.685
39.527401 -11.8509 120.638
51.021999 -12.7777 123.304
39.592999 -10.7901 129.468
41.826099 -10.9958 128.57401
44.092701 -11.0898 127.491
45.8447 -11.385 126.246
47.727699 -11.7905 124.988
49.680401 -12.3413 123.792
39.147999 -12.4247 129.63499
41.5797 -12.5385 128.549
43.896099 -12.6231 127.298
45.934601 -12.9125 125.958
47.879501 -13.4304 124.893
49.498001 -13.8561 124.275
50.712799 -13.8479 123.946
51.387798 -13.7262 123.693
38.519001 -13.756 129.52901
41.164799 -14.0175 128.411
43.6035 -14.2375 127.032
45.726002 -14.5687 125.708
47.702202 -15.0109 124.808
49.222801 -15.3124 124.474
47.5681 -9.9949398 123.952
48.220798 -11.1208 124.389
48.7243 -11.9228 124.3
48.7621 -12.8148 124.39
48.719799 -13.6551 124.508
48.646301 -14.4373 124.588
48.524399 -15.1974 124.574
48.4254 -15.64 124.499
48.169201 -16.367599 124.195
45.571602 -12.1162 117.566
46.077 -10.6213 117.915
46.942402 -9.3592701 118.7
47.5742 -8.8029699 119.678
47.815899 -8.6886101 120.887
47.385899 -8.5678196 121.963
47.342899 -9.4066401 123.508
47.244701 -8.8385897 122.815
43.744099 -8.7613497 126.455
43.415001 -8.1881399 125.914
43.421299 -7.17027 124.372
43.5839 -6.6712599 123.132
43.4142 -6.5587301 121.728
42.842499 -7.1926398 120.549
42.2672 -8.6052799 119.702
41.9888 -10.4824 119.446
44.2505 -16.0581 125.709
44.517601 -15.0166 126.111
44.665001 -14.3874 126.329
44.820702 -13.5125 126.51
44.924198 -12.7319 126.61
44.988499 -12.0268 126.694
45.007702 -11.2185 126.862
44.787201 -10.3376 126.926
46.2952 -8.0617905 122.636
46.4035 -9.5948696 124.709
46.3312 -10.6636 125.739
46.729599 -11.601 125.634
46.915798 -12.4195 125.449
46.929699 -13.1729 125.388
46.8578 -13.9809 125.324
46.748402 -14.776 125.195
46.649399 -15.29 125.024
46.426601 -16.202299 124.658
44.0425 -11.2022 118.482
44.375 -9.44102 118.911
45.0452 -8.0230198 119.767
45.531502 -7.4503798 120.815
45.509899 -7.4393902 122.079
42.295799 -6.53686 125.272
42.611 -7.5404301 126.612
42.810101 -8.1395302 127.298
43.091301 -9.9879999 128.089
43.020599 -11.0254 128.07899
42.8969 -11.8724 127.99
42.798 -12.576 127.97
42.675098 -13.2814 127.904
42.466099 -14.129 127.751
42.238201 -14.7702 127.512
41.8018 -15.8301 127.001
42.016998 -5.9699602 124.16
41.445599 -5.84059 122.693
40.7672 -6.4110999 121.436
40.218201 -7.4086099 120.541
39.742802 -9.6467199 120.146
44.819901 -8.6841002 125.003
44.084 -7.4232898 123.924
44.250999 -9.0369997 126.006
50.728802 -10.3311 120.279
50.293301 -10.2286 120.501
49.1381 -9.7361403 121.373
41.623798 -6.7382598 126.508
46.039398 -8.39536 123.584
43.311298 -7.7062101 125.254
42.926899 -7.4240799 125.58
44.776501 -8.1114197 124.32
42.434502 -7.0780401 125.97
43.844299 -7.9328599 124.864
51.558399 -11.3295 121.107
50.6138 -11.1533 121.716
51.058998 -11.239 121.431
49.569 -11.0918 122.982
47.848598 -10.4595 124.23
44.242001 -9.4877901 126.815
43.707298 -9.2520399 127.326
44.825699 -9.6922798 126.287
46.808601 -10.1266 124.962
42.979 -8.9875002 127.847
45.695499 -9.8829098 125.683
50.612202 -16.1397 124.196
50.039001 -16.052299 124.268
49.022099 -16.082199 124.314
48.3311 -15.967 124.389
47.514 -15.7991 124.542
46.553299 -15.6971 124.847
45.496201 -15.6288 125.305
44.388 -15.4956 125.901
40.603001 -15.0972 127.905
42.023899 -15.2548 127.247
37.848598 -14.6904 129.095
43.254398 -15.3613 126.56
50.835499 -15.1841 124.207
50.284599 -15.228 124.331
51.438702 -15.7347 124.146
49.902302 -16.405199 124.129
50.462002 -16.465401 124.106
51.1063 -16.4818 124.173
48.4506 -16.8146 123.76
48.8876 -16.877701 123.656
49.334301 -16.950001 123.633
49.819302 -17.0226 123.664
50.319199 -17.1057 123.802
46.777199 -12.9644 116.713
47.309399 -11.6489 116.905
48.1063 -10.4799 117.667
48.6376 -9.9511995 118.347
48.864201 -9.8010302 118.706
49.249401 -9.7227097 119.609
49.553501 -9.7996197 120.289
49.791302 -10.0445 120.867
49.9757 -10.5031 121.534
50.0844 -11.0174 122.1
50.253899 -11.3289 122.504
50.344799 -11.8798 122.991
50.3638 -12.551 123.491
50.311501 -13.0455 123.76
50.126701 -13.9071 124.121
49.945801 -14.6134 124.318
49.7705 -15.2737 124.393
49.6474 -15.6917 124.387
49.541698 -16.021999 124.319
49.430599 -16.2848 124.204
49.227299 -16.601801 123.98
47.8787 -16.7838 123.88
47.115601 -16.775999 124.041
46.194199 -16.831699 124.329
45.159698 -16.8591 124.786
44.0144 -16.785601 125.348
42.800301 -16.686399 125.936
41.481499 -16.552 126.564
39.969601 -16.3312 127.198
36.967201 -15.7168 128.451
46.105 -8.9797096 124.283
43.896801 -8.4518204 125.528
39.7201 -7.52742 128.86501
42.0056 -8.7601404 128.368
39.830601 -8.6402998 129.289
39.2981 -6.27319 127.719
39.6553 -10.4893 120.276
38.466099 -10.3519 120.732
35.913898 -9.77279 121.736
39.571999 -11.3965 120.513
38.425098 -11.114 120.996
35.876301 -10.5717 122.048
39.939499 -8.3202696 120.184
38.797199 -8.1265097 120.601
36.224998 -7.49299 121.581
39.185001 -14.8743 128.513
38.857101 -15.3806 128.25101
36.6647 -16.096001 123.967
36.834499 -16.4265 124.739
37.293701 -16.6915 126.029
37.914501 -16.539 127.119
37.341301 -9.0366201 121.033
37.5854 -7.8687901 121.106
38.007801 -6.74509 121.63
38.564701 -5.8291202 122.569
39.184101 -5.34828 123.833
37.213799 -10.1052 121.231
37.015999 -12.1473 121.872
37.129799 -11.5265 121.747
36.584702 -13.6212 121.877
36.811901 -12.8103 121.858
36.483299 -14.5419 122.213
36.530899 -15.4157 122.971
40.888199 -8.6542196 128.847
40.793999 -9.8675499 129.022
39.868301 -5.4524899 125.382
40.2827 -5.99544 126.479
40.6264 -10.9339 128.99699
40.438599 -11.7838 129.006
40.320202 -12.4839 129.084
40.132599 -13.1277 129.09599
39.816002 -13.8691 128.992
39.492901 -14.4496 128.77901
40.471699 -6.5109301 127.127
38.418201 -16.026199 127.825
40.658501 -6.9766102 127.737
40.8241 -7.6366701 128.366
37.1819 -10.8696 121.518
49.135502 -19.015699 121.501
48.903702 -18.425699 121.407
48.657501 -18.367701 120.336
48.8484 -18.893101 120.38
48.593201 -17.8027 116.49
48.5896 -18.350201 117.859
48.395 -17.284401 116.45
48.359402 -17.900101 117.802
48.639301 -18.612801 118.955
48.7239 -18.8568 119.887
48.416302 -18.2132 118.884
48.453701 -18.396 119.704
54.1628 -14.8942 122.492
53.902599 -15.7214 123.15
53.103901 -16.415899 123.95
51.716599 -17.190399 124.39
50.386799 -18.022499 123.712
49.782799 -18.310101 123.08
49.271198 -18.457899 122.314
49.5116 -18.990999 122.537
53.4963 -16.139 123.623
52.7258 -16.6392 124.203
52.2616 -16.8536 124.397
51.069099 -17.602301 124.164
49.454201 -15.0263 114.548
48.745399 -15.8449 115.118
48.181599 -17.863001 120.175
48.5429 -17.9839 121.136
48.2911 -16.372601 115.783
48.0588 -16.7761 116.536
47.9398 -17.3363 117.725
47.9198 -17.7125 118.751
47.978199 -17.889299 119.442
48.962399 -18.044001 122.054
50.108601 -17.663099 123.528
51.3353 -16.8414 124.243
49.4981 -17.930401 122.867
51.7743 -16.464899 124.3
50.759998 -17.261 123.988
50.1488 -14.6113 114.475
52.145 -16.107201 124.236
52.5159 -15.7299 124.074
48.3908 -9.8764896 122.741
48.254799 -9.3092203 122.076
48.554401 -10.4202 123.231
48.742802 -10.7933 123.573
48.872002 -11.3602 123.91
48.143902 -8.9543896 121.425
53.198399 -14.8661 123.411
52.413601 -14.4917 123.655
51.7458 -14.447 123.853
52.144699 -13.7076 123.373
52.795898 -13.8502 123.079
53.452499 -14.212 122.792
51.4254 -15.1262 124.102
51.982899 -15.12 123.988
52.885899 -15.3663 123.789
52.484402 -11.8015 120.969
51.464802 -10.7657 120.49
51.002201 -10.2426 119.506
50.685699 -10.1224 118.816
50.436401 -10.2414 118.102
50.069401 -10.7944 117.116
51.716202 -10.4824 119.265
51.246799 -10.2316 118.542
51.146702 -10.292 118.052
51.1646 -10.6971 117.251
51.345699 -11.2694 116.647
50.051701 -11.5514 116.267
51.652302 -11.9587 116.2
50.591 -12.2792 115.679
51.878399 -12.4304 115.927
51.076401 -13.0965 115.21
53.402302 -11.3565 118.068
53.063801 -11.3328 117.51
52.585499 -10.9524 117.721
52.931499 -11.0299 118.356
52.6161 -11.2331 117.192
53.0084 -11.9115 116.74
52.3764 -10.7246 118.788
51.843201 -10.5246 118.051
51.898201 -10.8264 117.307
52.059898 -11.2216 116.89
52.336102 -11.9779 116.385
53.444099 -11.3669 118.538
53.207699 -11.2845 119.059
52.807499 -11.2049 119.635
53.533199 -13.5338 122.049
52.1278 -10.9182 120.075
53.258301 -12.1671 120.428
53.4217 -12.8754 121.132
52.005001 -10.7615 119.772
51.251301 -10.4579 120.047
53.096001 -11.7382 120.185
52.212601 -11.441 120.66
60.439201 -36.861599 117.278
60.7934 -37.992001 117.279
60.195702 -38.039001 116.839
59.752899 -37.051399 116.828
61.0439 -38.778702 117.262
60.495399 -38.7729 116.83
60.9445 -39.8382 120.843
60.760799 -38.895802 120.96
59.863499 -39.187901 121.314
61.206299 -38.7365 120.502
56.198799 -40.350201 121.454
55.645199 -40.445099 120.921
49.289101 -19.6766 121.452
48.948601 -19.5891 120.189
55.020901 -15.4553 121.405
54.777 -14.9474 121.516
55.327999 -16.122499 121.391
53.4944 -17.2799 123.914
53.876499 -18.326799 123.911
54.553902 -17.5007 123.408
54.309101 -16.591299 123.151
55.281502 -16.654699 122.244
54.778 -15.8994 122.252
59.181099 -38.302601 116.853
58.760899 -37.320202 116.835
58.684101 -38.4314 116.811
58.347401 -37.405399 116.831
57.8829 -38.701401 116.991
57.547298 -37.567699 117.037
57.1096 -38.8983 117.383
56.797401 -37.759701 117.404
56.278301 -39.0858 118.006
56.042 -37.942001 117.961
61.610901 -38.6605 119.584
61.0942 -37.890999 117.882
61.327801 -38.757099 117.852
61.564098 -38.790901 118.73
58.190498 -35.782799 116.687
59.506199 -38.976299 116.848
58.951099 -39.112701 116.812
56.452599 -40.046398 117.937
55.812698 -40.2467 118.732
55.4645 -40.3657 119.447
55.435902 -40.445499 120.33
57.334599 -39.7164 117.339
58.108898 -39.413898 116.97
57.1908 -36.041901 116.954
56.4561 -36.272301 117.298
59.240501 -35.432598 116.776
55.4174 -39.3601 120.986
55.2356 -39.367599 120.338
55.3251 -39.285301 119.51
55.6534 -39.175499 118.766
55.167999 -38.129002 120.99
54.990101 -38.1036 120.305
55.0933 -38.030201 119.498
55.451401 -38.010601 118.733
54.827301 -36.512699 120.991
54.709702 -36.5438 120.265
54.824402 -36.527302 119.43
55.2047 -36.512699 118.563
55.772701 -36.427299 117.834
59.9617 -35.220299 117.206
54.446201 -35.0993 120.967
54.323101 -35.091099 120.232
54.4529 -35.001701 119.393
54.962898 -34.833698 118.388
55.523602 -34.6404 117.635
56.273701 -34.4221 117.054
56.8349 -34.2929 116.793
57.6353 -34.101101 116.583
58.739799 -33.828201 116.648
59.544899 -33.598301 117.059
53.806702 -32.8167 120.977
53.674 -32.851898 120.156
53.8708 -32.8437 119.27
54.401299 -32.782299 118.257
55.046799 -32.610901 117.444
55.827301 -32.365799 116.79
56.457401 -32.143002 116.442
57.307899 -31.8874 116.187
58.265999 -31.625099 116.304
59.0243 -31.393101 116.772
53.126598 -30.945299 120.954
53.018501 -30.995001 120.033
53.245701 -30.927799 119.046
53.7953 -30.768299 118.049
54.380901 -30.6217 117.159
54.681801 -30.5481 116.809
55.324699 -30.3496 116.248
56.001202 -30.1777 115.863
56.8209 -29.924601 115.705
57.746399 -29.591999 115.982
58.528999 -29.376801 116.592
59.09 -29.1213 121.148
59.459702 -31.277 121.02
58.428902 -29.3011 121.912
58.7785 -31.4137 121.708
59.2253 -33.691799 121.531
59.8997 -33.554401 120.878
59.638901 -35.216499 121.383
60.255901 -35.063599 120.795
60.0741 -36.8158 121.264
60.6264 -36.656101 120.674
56.506802 -29.790501 122.54
56.9352 -31.8965 122.325
57.398899 -34.271198 122.041
57.749901 -35.799702 121.925
58.241402 -37.453899 121.798
60.966801 -37.6996 120.569
60.459301 -37.892101 121.104
59.580502 -38.237301 121.419
58.634899 -38.579399 121.674
58.913898 -39.572701 121.552
61.3279 -37.796799 118.769
61.413799 -37.637402 119.633
61.0905 -36.657299 118.73
61.187 -36.543598 119.689
55.776501 -29.948799 122.441
56.1987 -32.097401 122.242
56.664799 -34.491501 122.022
57.004601 -36.048801 121.956
57.435902 -37.689701 121.882
57.7854 -38.813599 121.768
58.148102 -39.880299 121.661
54.5924 -30.379499 122.275
55.108299 -32.474899 122.101
55.696201 -34.812099 121.923
56.043201 -36.348701 121.899
56.448601 -37.931198 121.827
56.795799 -39.047199 121.757
57.016499 -40.177799 121.645
53.697102 -30.697001 121.838
54.306099 -32.7346 121.662
54.884602 -35.051601 121.589
55.266602 -36.542702 121.572
55.642899 -38.1036 121.568
55.936501 -39.243801 121.531
60.860298 -34.959301 119.768
60.561501 -33.416 119.802
60.120701 -31.178101 119.822
59.682201 -29.021601 119.917
60.718601 -35.023102 118.634
60.361198 -33.4021 118.549
59.941799 -31.1597 118.479
59.5383 -29.1194 118.518
60.790901 -36.749401 117.847
60.395699 -35.126701 117.742
59.9799 -33.464901 117.612
59.4893 -31.2276 117.416
59.051601 -29.2082 117.377
49.735699 -20.4013 116.707
49.551498 -20.432699 117.077
48.875801 -18.7526 116.817
48.9464 -18.5249 116.285
49.233002 -20.492901 118.097
48.806 -19.0798 117.914
48.705299 -17.4811 115.792
48.556499 -16.9203 115.734
49.098701 -20.7243 119.25
48.789101 -19.369499 119.05
49.179001 -20.9039 120.187
49.494099 -21.052799 121.43
53.141499 -13.9844 115.542
53.4921 -13.3018 116.021
53.9221 -13.4826 116.192
53.946201 -14.1508 115.867
54.568001 -13.6012 116.616
54.806599 -14.2672 116.447
55.1185 -13.724 117.202
55.464298 -14.4164 117.122
52.2934 -15.1894 114.837
53.631001 -15.4507 115.285
55.053799 -15.288 116.209
55.7118 -15.1839 116.915
51.204498 -15.4959 114.42
52.384701 -16.0501 114.666
52.162601 -19.8547 114.441
51.547001 -17.9296 114.294
52.622799 -17.535801 114.55
53.208199 -19.4778 114.515
54.2673 -17.049999 115.181
54.686199 -19.056 115.009
55.437302 -16.5266 116.017
55.907902 -18.542801 115.791
56.0839 -16.3449 116.767
56.5331 -18.264999 116.519
51.251999 -16.3839 114.309
50.203701 -15.6742 114.283
49.365398 -15.9926 114.557
50.3349 -16.643499 114.256
49.562698 -16.8325 114.585
50.695999 -18.1071 114.466
50.016899 -18.194201 114.808
51.242298 -20.1199 114.835
50.834599 -20.243799 115.177
48.8848 -16.5061 115.073
48.974602 -17.139099 115.138
49.2248 -18.3533 115.58
50.235298 -20.407301 115.896
54.092701 -12.6148 116.943
54.4865 -12.6322 117.497
53.804401 -12.9056 116.464
54.345901 -13.0804 116.792
54.829498 -13.1846 117.314
55.0243 -14.8651 120.59
55.4039 -15.6627 120.578
55.4123 -14.7026 119.611
55.645 -15.153 119.551
56.171501 -15.5164 118.586
55.9883 -16.0443 119.541
55.7421 -16.322399 120.565
55.5863 -16.609301 121.442
55.744801 -17.475 122.251
55.881001 -17.316401 121.452
56.234798 -18.7803 122.274
56.3643 -18.728901 121.45
54.755501 -18.157301 123.475
55.065498 -19.4002 123.629
54.237 -19.6745 123.984
51.923 -17.9447 124.478
52.212799 -19.0462 124.494
52.643101 -20.380301 124.506
50.6021 -18.566299 123.867
50.745998 -19.1961 123.999
51.140701 -20.6896 124.06
50.011799 -18.841 123.27
50.183399 -19.449301 123.432
50.541401 -20.934799 123.52
49.7033 -19.6635 122.63
49.977901 -21.0616 122.732
54.7966 -12.9348 117.76
54.605301 -12.61 118.064
55.185799 -13.587 117.682
