# .PCD v.7 - Point Cloud Data file format
VERSION .7
FIELDS x y z
SIZE 4 4 4
TYPE F F F
COUNT 1 1 1
WIDTH 1745
HEIGHT 1
VIEWPOINT 0 0 0 1 0 0 0
POINTS 1745
DATA ascii
1.73572 1.77633 166.95599
1.7197599 1.75822 166.968
1.70107 1.77469 166.911
1.68611 1.7592 166.914
1.69708 1.7383699 166.992
1.66892 1.72216 167.02699
1.63078 1.7053699 167.063
1.57271 1.6801 167.09801
1.58764 1.6950901 166.94501
1.52832 1.66065 166.96001
1.50192 1.63743 167.12399
1.45827 1.61623 166.96899
1.40968 1.5672899 167.14301
1.30845 1.46206 167.145
1.37625 1.56235 166.965
1.2869999 1.48666 166.95
1.15549 1.28342 167.12801
1.01685 1.05986 167.118
1.1439 1.34264 166.91
0.99177402 1.1340801 166.853
1.6473401 2.0055699 166.903
1.6456 2.01209 166.901
1.6899199 1.91199 166.89999
1.70134 1.82064 166.88901
1.68917 1.92145 166.895
1.7030801 1.82921 166.881
1.6906 1.77501 166.884
1.6793801 1.7615 166.882
1.6980799 1.78506 166.871
1.69109 1.77101 166.862
1.66491 1.74845 166.838
1.46149 1.61944 166.84801
1.39168 1.57312 166.834
1.3118 1.51789 166.80901
1.46222 1.6203001 166.75
1.39133 1.58207 166.71899
1.18559 1.40358 166.74001
1.04642 1.2007999 166.608
1.2794501 1.49149 166.62199
1.16129 1.28342 166.383
1.66679 2.0397501 166.897
1.7470599 2.08283 166.894
1.70787 1.9466799 166.892
1.72003 1.84305 166.87199
1.7679501 1.98469 166.899
1.78185 1.8681099 166.871
1.72251 1.81072 166.858
1.71951 1.79479 166.842
1.77934 1.83205 166.855
1.7803299 1.81346 166.832
1.70429 1.7760201 166.808
1.66988 1.75693 166.756
1.77807 1.79877 166.77699
1.76808 1.78416 166.709
1.61927 1.71746 166.709
1.75261 1.75848 166.644
1.58136 1.68856 166.675
1.53549 1.6613801 166.63499
1.7386301 1.7385 166.59599
1.71544 1.72234 166.541
1.44622 1.6138099 166.53101
1.6600699 1.6899 166.411
1.96214 2.08302 166.916
1.9802901 1.97767 166.909
1.99045 1.87853 166.871
1.99068 1.8344001 166.842
1.98393 1.8092999 166.811
1.9764301 1.7846 166.74001
1.97815 1.77105 166.621
1.98212 1.76457 166.526
1.98385 1.75758 166.457
1.97461 1.74896 166.38499
1.93944 1.72409 166.254
2.26614 2.0027699 166.823
2.27881 1.92153 166.813
2.2822599 1.8447 166.76601
2.2779901 1.79994 166.733
2.27125 1.77642 166.7
2.26525 1.75257 166.627
2.27245 1.75292 166.485
2.2896299 1.76618 166.367
2.3048201 1.76739 166.287
2.31129 1.76594 166.21001
2.30428 1.74928 166.078
2.6182201 1.88539 166.722
2.62591 1.81216 166.702
2.6273601 1.7481101 166.655
2.6241 1.71777 166.623
2.62011 1.70015 166.58099
2.6240699 1.6984299 166.50101
2.63977 1.74125 166.354
2.66344 1.77996 166.23399
2.68362 1.79329 166.161
2.6995599 1.79769 166.095
2.71749 1.79759 165.97701
2.9753201 1.83499 166.67599
2.9815199 1.77176 166.64999
2.9824901 1.71593 166.60899
2.98247 1.688 166.573
2.9851899 1.6814899 166.52699
2.9976399 1.6921 166.438
3.02232 1.75228 166.30099
3.0467601 1.80733 166.19099
3.06668 1.8326499 166.12601
3.0861199 1.84825 166.071
3.1199999 1.86641 165.959
3.2925799 1.8410701 166.694
3.29755 1.77879 166.67
3.2997601 1.72607 166.629
3.3057201 1.70386 166.58701
3.3136899 1.70939 166.545
3.3355999 1.73018 166.466
3.3647699 1.7972701 166.33501
3.38995 1.85493 166.23199
3.41014 1.88445 166.17101
3.4293301 1.91211 166.12
3.4662299 1.95499 166.011
3.54882 1.89801 166.76601
3.55179 1.83551 166.739
3.5564899 1.78565 166.70399
3.5671799 1.76125 166.662
3.5808699 1.763 166.62199
3.61028 1.7921 166.55499
3.6564 1.8614399 166.43201
3.6870699 1.9235801 166.33701
3.7065301 1.9585 166.282
3.72348 1.99572 166.228
3.7563901 2.0578499 166.11
3.7943699 2.01513 166.87399
3.79757 1.94383 166.851
3.7980499 1.88035 166.80701
3.81422 1.85075 166.772
3.83341 1.85295 166.73599
3.8683 1.8848799 166.683
3.9169199 1.9587801 166.578
3.9475801 2.01759 166.498
3.9665301 2.05003 166.44501
3.9827299 2.0849099 166.38901
4.0156298 2.1554699 166.265
0.25898299 1.33411 160.245
0.37762699 1.36093 160.267
0.75150698 1.46086 160.28999
1.17851 1.6607 160.27499
1.36474 1.8054399 160.274
1.63624 2.0337601 160.265
2.15482 2.4801199 160.265
2.2814901 2.6076601 160.285
2.4298401 2.7400501 160.302
2.48946 2.8282299 160.34399
2.4133601 2.6853001 160.285
2.0137 2.3422899 160.28799
1.62256 2.07798 160.30701
0.50787097 1.64722 160.395
0.31670099 1.60882 160.397
0.123046 1.5847 160.395
2.4327199 3.00858 160.41
2.43595 2.98469 160.44099
0.36827999 1.58646 160.39799
0.25213 1.56453 160.377
0.52529901 1.60887 160.403
0.740641 1.63985 160.40199
0.94178098 1.69147 160.38901
1.15991 1.82581 160.38699
1.3426501 1.96787 160.39301
1.5827399 2.16062 160.399
1.92479 2.43241 160.396
2.08711 2.5883601 160.407
2.1993201 2.7229099 160.42
2.2900901 2.8416901 160.44299
2.3761201 2.94031 160.466
2.40751 2.94841 160.36501
2.3571401 2.88745 160.336
2.27982 2.7769101 160.30701
2.2067499 2.6719 160.30499
1.95295 2.4508901 160.315
1.59146 2.1742301 160.32401
1.35539 2.0536001 160.34
1.11884 1.95349 160.369
0.85288602 1.86017 160.39301
0.50069898 1.76376 160.414
0.316012 1.72814 160.418
0.122856 1.70649 160.418
0.096107997 1.54259 160.37
1.0786 -0.36725101 162.851
1.26192 -0.051281001 162.83099
1.18688 -0.039962001 162.68401
1.12994 0.311887 162.541
1.03923 0.323145 162.53999
1.01412 0.48287901 162.506
1.17597 0.73018301 162.474
1.18006 0.95416701 162.436
1.20649 1.0010999 162.401
1.32513 1.07951 162.257
0.85539001 0.72601402 161.97099
0.64993298 0.596322 161.73399
0.56220502 0.507981 161.957
0.34060201 0.39816901 161.97701
0.213743 0.40700501 161.918
2.4702699 18.953501 173.272
2.7588999 10.1836 179.50101
2.63552 7.0434799 179.108
2.5549901 5.59026 178.722
2.4865401 4.6728101 178.37801
2.3396201 0.97324502 175.784
2.2093599 -0.048829 173.733
3.07338 0.29705 173.759
2.8201599 -0.136696 171.26199
2.6987 -0.13839 170.41299
2.69274 -0.216766 169.444
2.72685 -0.21802901 169.10899
2.0920401 -0.044794001 168.46899
1.66214 0.044124 168.241
1.05811 0.416071 167.714
0.89296502 0.55960101 167.44901
0.72296602 0.56876099 166.752
0.76402998 0.55647999 166.354
0.86898202 0.51498598 165.871
1.3692501 0.95794803 165.44701
1.35366 0.74834502 165.06599
1.3442301 0.59948498 164.71001
1.26837 0.476823 164.185
1.22271 0.44453099 163.98199
1.24429 0.33106899 163.685
1.33661 0.15203799 163.35899
1.35997 0.072769001 163.151
0.99524301 -0.33219901 163.532
0.99136198 -0.156093 163.698
0.95848602 -0.152151 163.806
0.91274798 -0.58281702 162.715
1.02349 -0.38536099 162.72501
0.96685803 -0.56632203 162.839
0.99978 -0.57065803 163
1.00006 -0.55989999 163.177
1.06699 -0.33065099 163.35899
0.95148402 -0.58743298 163.35201
0.89153999 -0.79767197 163.147
0.89650601 -0.77118701 162.96899
0.219073 -1.55548 163.271
0.220604 -1.5341001 163.425
0.394557 -1.4928499 163.28799
0.396337 -1.46943 163.44
0.57155597 -1.35399 163.243
0.57584602 -1.31124 163.431
0.841672 -0.53060001 163.74699
0.87331402 -0.51285499 163.653
0.72600698 -1.03232 163.464
0.723692 -1.12088 163.27699
0.76380801 -0.99639601 162.909
0.76780301 -1.0550801 163.093
0.845191 -0.85321701 163.321
0.74056399 -0.87848902 163.655
0.87971097 -0.63801301 163.504
0.22153801 -1.55854 163.121
0.39527899 -1.49656 163.158
0.59820902 -1.3018399 163.02699
0.59122902 -1.22698 162.82401
0.39974701 -1.46308 162.965
0.41021499 -1.38333 162.75301
0.223759 -1.53315 162.924
0.22824199 -1.4556299 162.7
1.64114 -0.138541 168.355
1.65455 -0.33193401 168.562
2.1184001 -0.27300301 168.685
1.28625 -0.086415999 168.198
1.31311 -0.32677999 168.483
1.6515501 -0.469217 168.864
1.48356 -0.41694301 168.672
2.1124101 -0.40450999 168.976
0.40274501 -0.64844698 162.326
0.36282799 -0.73155701 162.30099
0.28438401 -0.577039 162.24699
0.335255 -0.52215099 162.28101
0.23560899 -0.39898199 162.19099
0.31663799 -0.35086101 162.258
0.51262599 -0.732903 162.403
0.462475 -0.854662 162.37601
0.119581 0.001548 167.569
0.160978 -0.020164 167.782
0.166463 -0.098104998 168.009
0.173438 -0.218346 168.298
0.197367 -0.36786899 168.714
0.222069 -0.49094599 169.207
0.245564 -0.55856901 169.772
0.27705601 -0.61917198 170.45599
0.30627599 -0.64506602 170.91299
0.33450401 -0.65628201 171.287
0.364784 -0.663782 171.66299
0.39224699 -0.63347697 172.131
0.40627199 -0.55958301 172.686
0.40847901 -0.463752 173.211
0.40866101 -0.35084501 173.733
0.390919 -0.136966 174.479
0.35781699 0.161044 175.13901
0.83177698 -0.53008401 172.673
0.83755398 -0.43240899 173.201
0.84050602 -0.317561 173.728
0.84856802 -0.096831001 174.472
0.894921 0.20014501 175.12
1.1707799 0.69588101 175.856
0.829849 0.173659 162.72
0.878784 0.36910799 162.722
0.86115003 0.508053 162.705
0.803123 0.61385298 162.677
0.711923 0.65347201 162.649
0.49158201 0.58887303 162.651
0.67018598 0.54533398 162.258
0.77291799 0.610888 162.39799
0.64701003 0.51898903 162.338
0.75650603 0.61685199 162.588
0.79413199 0.59926599 162.599
0.78539902 0.60589701 162.519
0.820539 0.59784102 162.53999
0.82602102 0.63362902 162.453
0.85966301 0.61267102 162.489
0.61724502 -0.89764303 162.517
0.55438399 -1.03434 162.53799
0.46192199 -0.98795998 162.416
0.92216402 -0.17094 164.224
0.703107 -0.70208597 164.209
0.78785002 -0.58169103 163.94501
0.93185902 -0.137661 164
0.55696702 -1.25491 163.644
0.696015 -0.89900202 162.621
0.732454 -0.76492399 162.577
0.59135097 -0.81844002 162.464
0.73799199 -0.62745702 162.533
0.73414999 -0.939183 162.742
0.572308 -1.12221 162.655
0.81073302 -0.75101 162.679
0.862095 -0.75017798 162.80099
0.83570498 -0.618954 162.616
0.201904 -1.16992 164.543
0.19470701 -1.03313 164.88499
0.36550799 -1.0611399 164.552
0.35755199 -0.92242301 164.90401
0.50333798 -0.91115302 164.53999
0.49019599 -0.75594199 164.90601
0.67628902 -0.60865098 164.528
0.65977401 -0.482068 164.894
0.90128702 -0.173299 164.504
0.886213 -0.088546 164.851
0.195784 -0.87847298 165.242
0.20410401 -0.67479098 165.66
0.35510501 -0.75513101 165.26401
0.36141101 -0.548738 165.67599
0.48677999 -0.58099997 165.286
0.490778 -0.33701 165.714
0.65599501 -0.273123 165.314
0.647461 -0.001914 165.78
0.82652098 0.57262999 162.608
0.86015499 0.56919402 162.554
0.89603698 0.57565302 162.515
0.91251802 0.67328203 162.444
0.99977499 0.74916101 162.425
0.221744 -1.40512 163.91701
0.214867 -1.29658 164.20799
0.38626599 -1.32644 163.91499
0.38014001 -1.2022001 164.209
0.53710502 -1.18145 163.89999
0.52101499 -1.05357 164.192
0.69225502 -0.88605398 163.90601
0.976879 0.85292202 162.339
0.86966598 0.74304903 162.33099
0.73524702 0.61735201 162.155
0.31284699 -0.044496 162.60699
0.328877 0.113864 162.64799
0.40651 -0.087289996 162.46001
0.433011 0.085060999 162.494
0.38803601 -0.114785 162.34599
0.42575201 0.063464999 162.366
0.34239501 -0.15353601 162.252
0.36739799 0.026549 162.245
0.236691 -0.197588 162.173
0.248733 -0.016954999 162.16
0.40960199 0.21763 162.242
0.47367701 0.22341 162.37801
0.46473899 0.24848901 162.51801
0.34465 0.26669699 162.666
2.1140499 -0.353834 172.117
2.1635101 -0.28692999 172.659
1.31646 -0.52783 172.12
0.808972 -0.59442103 172.12601
1.34893 -0.46125999 172.662
2.0402501 -0.38633099 171.284
2.0035901 -0.37992901 170.912
1.36775 -0.53413802 171.28799
1.32864 -0.52577001 170.931
1.04337 -0.59131497 171.28999
0.96699601 -0.57903397 170.929
0.69422698 -0.63493699 171.289
0.63002199 -0.62112802 170.91901
0.76583302 -0.630198 171.66299
1.2521501 -0.55728 171.666
2.0729599 -0.379581 171.66299
1.3681999 -0.250139 173.724
1.37341 0.28299499 175.10699
1.36923 -0.020119 174.467
1.36278 -0.3687 173.19299
2.1883299 -0.18067899 173.2
1.08884 -0.172103 168.241
0.80796897 -0.113706 168.116
0.80702502 0.109262 167.84399
0.94788599 0.249125 167.769
0.65297902 0.031498998 167.888
0.35812399 0.016527001 167.76401
0.452923 0.088287003 167.601
0.28988701 0.035439 167.55499
0.58292502 -0.081059001 168.05
0.360612 -0.086078003 168.011
0.36932299 -0.217343 168.289
0.59810799 -0.22825199 168.31599
0.85779101 -0.249805 168.347
0.408952 -0.36729699 168.698
0.46057299 -0.491864 169.20599
0.50974399 -0.54725403 169.778
0.56765801 -0.598351 170.46201
0.28375101 0.29785001 162.075
0.129491 0.34253299 162.00301
2.05514 -0.434457 169.366
1.31303 16.719101 177.08
1.26162 18.2101 175.342
1.18494 19.177999 173.42599
1.35183 5.4798698 178.981
1.3108799 7.04357 179.427
1.29524 10.248 179.83501
1.38432 12.198 179.603
1.41401 14.2657 178.884
1.3724999 15.546 178.09801
1.22304 1.69225 176.97301
1.26956 2.95891 177.83
1.3455499 4.5279799 178.644
2.0480199 -0.36862499 169.856
1.9220099 -0.38402101 170.41
1.61359 -0.46048599 169.82899
1.54494 -0.50795299 169.278
1.2642699 -0.51169902 170.468
0.89490002 -0.566167 170.47301
0.81080699 -0.53935403 169.793
1.16721 -0.51399398 169.819
0.92606997 -0.41198599 168.72501
0.72624201 -0.490886 169.20399
1.07091 -0.50176799 169.226
0.64022499 -0.37695301 168.698
0.779378 0.38288999 167.494
0.453518 0.34947899 162.214
0.26027101 0.156459 162.13
0.363704 -0.460888 162.332
0.40727699 -0.55904299 162.35699
0.51044101 -0.60764802 162.416
0.68941897 -0.56140101 162.50301
0.881172 -0.35468599 162.57001
0.87962502 0.14113601 165.30499
0.500139 0.42969799 162.095
0.63456202 0.503851 162.44501
0.73803401 0.587681 162.48801
0.95057702 0.475115 162.541
0.91892999 0.47529101 162.57201
0.96273899 0.34731299 162.58501
0.26682699 -0.83977097 162.27901
0.22305501 -0.61217999 162.222
0.25928801 -0.99382502 162.33099
0.243532 -1.14485 162.40601
0.23451 -1.2996401 162.51601
0.223159 -1.47996 163.64799
0.208167 -0.40379301 166.185
0.209371 -0.14548001 166.739
0.236232 -0.001091 167.22
0.4215 -1.11601 162.467
0.64959902 -0.444794 162.517
0.50103199 -0.494367 162.45799
0.41081399 -0.472992 162.407
0.95269799 -0.38536701 162.634
1.00397 0.041639 162.577
0.35222799 0.490949 162.66901
0.32296899 -0.23171601 162.53
0.363796 -0.32196599 162.50301
0.40116599 -0.36427701 162.536
0.474188 -0.37413999 162.57201
0.59858501 -0.310159 162.614
0.71656698 -0.118373 162.692
0.90667701 0.35726801 162.64101
0.87842101 0.14937299 162.634
0.88379598 0.47002101 162.623
0.71437502 0.59871101 162.562
0.56629401 0.50830001 162.54601
0.47676501 0.38227901 162.534
0.36654699 -0.26797101 162.422
0.37670201 -0.39690799 162.39799
0.76636702 -0.17584901 162.592
0.97288603 0.81853598 162.394
0.94094598 0.095820002 162.601
0.82115698 -0.25487199 162.56799
0.51361102 0.35403901 162.375
0.35704401 -0.30742401 162.336
0.36313 -0.27215201 166.198
0.36228701 -0.043249 166.73801
0.39407501 0.084509 167.214
0.618029 0.203263 166.27699
0.487703 -0.082502 166.22501
0.60501999 0.30779201 166.73599
0.48354301 0.099817999 166.737
0.65783602 0.405646 167.151
0.52952898 0.22470599 167.19299
0.63064802 0.195675 167.573
0.87788999 0.71939498 162.408
0.82104301 0.68634099 162.34801
0.416228 -1.2458301 162.577
0.39241099 -1.414 163.651
0.52827901 18.855101 164.534
1.51893 18.736 164.396
5.8439202 12.1844 162.418
5.66045 12.1342 161.511
5.6641002 2.8740101 173.532
6.1455698 3.6605699 173.02499
5.5641098 2.41224 172.492
6.0462198 3.21259 172.071
5.0226998 2.09848 173.94701
4.9388199 1.60186 172.862
6.39639 4.1843901 171.433
6.54601 4.8990202 172.133
5.4415798 2.1623199 171.614
5.8884401 2.8903301 171.244
6.1729598 3.49895 170.80901
6.34729 4.1174698 170.22501
5.4038801 2.0829699 171.22099
5.81955 2.75582 170.87801
6.0622101 3.2524099 170.504
6.2308102 3.7460201 169.987
5.9186502 4.6517301 163.907
5.7399802 4.9940801 163.121
6.1922302 4.14467 166.36501
6.1223402 4.1809301 165.495
6.05972 4.3482299 164.793
5.3136702 1.90669 170.338
5.7039199 2.5311799 170.028
6.0408702 3.2729399 169.55499
6.1621199 3.7639201 168.93401
6.1989999 4.0591502 168.205
6.2079301 4.1817398 167.62601
6.2193599 4.19909 167.394
6.2227998 4.1957202 167.168
5.65133 5.3654399 162.52499
5.7086401 5.9419799 161.91
5.9493599 3.6579199 166.74001
6.2070298 4.1560302 166.724
6.4340801 4.7747598 166.748
1.2462 -0.138832 163.005
1.11508 0.74431902 165.655
1.15007 1.04482 166.03
1.24325 -0.110437 163.17
1.09593 0.143629 163.763
1.07601 0.15334401 163.832
1.10961 0.105402 163.701
1.20318 -0.072201997 163.368
1.0748 0.17494 164.009
1.0898 0.178193 164.218
1.10581 0.466887 165.211
1.10505 0.26615 164.79401
1.09683 0.18935201 164.468
1.15017 0.0045480002 163.56
6.9016099 8.49685 166.987
6.8056002 8.5827303 166.41299
6.2930398 9.16959 161.30901
6.2060399 8.8867502 160.80499
6.4864302 9.1566801 163.056
6.4091401 9.2748404 162.19701
6.8714499 6.9431601 172.09
6.9477 7.5057101 170.879
6.9816198 7.9163198 169.842
7.0019798 8.0737495 168.957
6.9799199 8.3030195 167.868
6.70154 8.7582502 165.771
6.59589 8.8646297 165.06599
6.53409 8.9804802 163.987
5.7233 3.33992 166.05499
5.95296 3.6802199 165.922
6.15203 4.1332202 165.85899
7.22293 10.2638 173.067
7.0853 9.8673 174.211
6.3965902 9.3377199 176.243
5.8336301 9.0743303 177.30499
4.7277298 8.7909098 178.28
3.7203901 8.62568 178.912
2.7077799 8.5811195 179.369
1.33614 8.6262197 179.689
6.3140702 11.7791 164.57201
6.1946702 11.2975 164.37601
6.47964 12.3576 164.681
6.22435 10.9621 164.286
6.3268299 10.6415 164.19299
6.4274802 10.1938 164.09
6.6052599 13.2384 164.724
6.5829101 13.7971 164.714
5.9826798 15.7861 164.826
6.34971 14.9094 164.703
5.1914802 17.066099 165.10699
4.6248002 17.7822 165.239
3.8764501 18.33 165.33299
2.6765201 18.858601 165.54601
1.61982 19.214701 165.7
0.65470999 19.3846 165.814
6.5108199 9.6263599 163.95599
4.8499799 1.3976901 171.90401
4.3435102 0.972381 173.08501
4.0553899 2.9972401 161.853
3.9616499 2.9223399 161.83501
7.0940099 8.5994301 171.48399
7.0605202 8.3999996 172.76601
6.3235798 7.2146001 175.95799
5.7452102 6.9243598 176.985
4.56884 6.5794001 177.98399
3.58764 6.41991 178.56799
2.5938201 6.2844 178.937
6.9644899 7.8909001 173.93201
1.33228 6.2723298 179.241
7.2202702 10.0029 171.022
7.2306299 9.8890495 171.897
7.17698 9.6052999 173.01199
7.0577402 9.2194595 174.164
6.3639498 8.62817 176.215
5.7921801 8.3613501 177.231
4.6650801 8.0848303 178.22099
3.6683199 7.8731098 178.836
2.67154 7.8033299 179.267
1.3227201 7.78158 179.57899
7.2821798 10.9385 170.564
7.29182 10.9795 171.20399
7.30198 10.9821 172.008
7.2427502 10.8466 173.061
7.0994802 10.4814 174.228
6.4063401 9.9744997 176.27699
5.8733902 9.7497101 177.336
4.7751598 9.5293703 178.34599
3.7593801 9.4227505 178.987
2.7300799 9.4036398 179.455
1.2964 9.44312 179.795
7.2692599 12.2579 171.97099
7.2203398 12.0847 172.94701
7.07371 11.7389 174.198
6.4273 11.4073 176.26199
5.8801198 11.2615 177.339
4.8273101 11.1756 178.373
3.8199 11.1504 178.981
2.7664299 11.1654 179.46899
1.30165 11.2426 179.76801
7.1911898 13.3886 172.03101
7.1306801 13.3129 172.828
7.0099702 13.035 173.963
6.4454398 12.9131 175.90401
5.83742 12.9091 177.002
4.7866402 12.987 178.06799
3.81163 13.1078 178.625
2.7563601 13.1534 179.078
1.4025 13.1278 179.351
6.2894602 5.9164 175.49699
6.86589 6.8025198 173.55701
6.9335999 7.3174601 172.31799
6.9885402 7.8201199 171.02499
3.3194301 4.0014501 177.757
2.47312 3.83515 177.974
3.7428501 4.1188402 177.576
4.5300398 4.41956 177.22501
4.9471898 4.6610799 176.91499
5.7431102 5.1740398 176.19
1.32075 3.66343 178.244
3.2400701 2.7433701 176.993
2.4514599 2.55475 177.21001
3.8515501 2.9561 176.757
4.5265498 3.2529199 176.39999
5.0788398 3.6229 175.964
5.74365 4.1798902 175.26601
6.22966 4.7729101 174.49699
6.7985301 6.4928999 171.76601
6.7075701 5.8319802 172.896
6.8777099 6.9682698 170.564
1.22594 2.33641 177.451
4.5079799 2.44961 175.61
3.9013 2.0868599 175.967
3.2011499 1.7662899 176.17
2.4163599 1.50182 176.345
1.18876 1.21118 176.474
6.7068501 6.9409199 174.73599
6.6765699 6.3740001 174.50999
6.6272602 5.7795401 174.089
6.57476 5.3283401 173.66901
6.5026999 4.8951302 173.228
6.47188 4.6932302 172.944
6.4334502 4.4240899 172.49699
6.3748698 4.1334801 172.06
6.7855802 14.1152 174.202
6.8055301 13.6699 174.56
5.5148001 16.4079 164.33501
5.5248399 16.569099 164.96899
5.66362 16.627899 165.77
5.9365802 16.7005 167.132
6.1704402 16.7458 168.692
6.4096899 16.4802 170.20399
6.5894098 16.0611 171.507
6.71875 15.3434 172.86501
6.8306799 12.9403 174.802
6.8596902 12.274 174.97
6.8611498 11.5642 175.062
6.8561201 10.8249 175.123
6.8505301 10.213 175.14301
6.7786999 8.2408504 175.095
6.73915 7.5366302 174.931
6.3013301 3.84922 171.681
6.8245702 9.5828304 175.168
6.8024702 8.9131098 175.129
7.0589299 13.8688 172.877
6.9791598 14.3023 173.116
3.8211999 17.0665 175.56
2.58599 17.449499 175.89799
4.81564 16.629801 175.23399
5.7221098 15.984 174.616
6.3228302 15.4199 174.07401
6.72399 14.8044 173.556
1.25537 17.6437 176.157
7.1564898 14.2008 171.42799
6.9512401 15.1777 171.825
6.6600499 15.7374 172.202
6.2448401 16.385401 172.662
5.61448 16.993 173.14
4.70963 17.605301 173.606
3.7163401 18.108999 173.91
2.5355599 18.5235 174.239
7.2322402 13.2913 171.19299
1.22571 18.7008 174.45799
0.303251 2.38902 156.38699
0.114035 2.4061501 156.354
0.207056 2.3973 156.37
0.31586599 2.6275101 156.114
0.30817899 2.50052 156.25101
0.59923899 2.43752 156.36301
0.416702 2.3956599 156.384
0.285065 2.2544701 156.55701
0.29179901 2.3016901 156.495
1.03969 2.4145 156.535
1.05826 2.12304 157.133
1.05669 2.25579 156.802
0.622518 2.2454801 156.62
0.839176 2.33459 156.565
0.99789202 2.7523401 156.116
1.01579 2.5865099 156.3
1.48243 2.6400101 156.526
1.24481 2.5044 156.52
2.0266299 3.12747 156.645
1.7446001 2.8473899 156.556
1.89821 3.5004599 156.235
1.97005 3.3232901 156.416
2.5330901 3.8189001 156.83701
2.2990301 3.4869101 156.733
2.0479701 2.7197001 157.19299
2.0571201 2.9159601 156.914
0.61476499 2.65187 156.134
0.44246799 2.6354301 156.121
0.119406 2.61027 156.112
0.215671 2.62164 156.108
0.334115 2.8995099 155.869
0.32485801 2.76034 155.985
0.613671 2.9379599 155.873
0.61537701 2.79896 155.991
0.813811 2.69117 156.123
0.60291201 2.5172601 156.271
0.94969898 3.08476 155.86301
0.97859198 2.9198 155.97301
1.39951 2.99191 156.12199
1.18665 2.85146 156.11099
1.6371599 3.2025399 156.155
1.74061 3.8362401 156.026
1.82166 3.6653199 156.10001
2.2816801 4.1630602 156.41299
2.1308999 3.8487 156.323
0.355699 3.4054899 155.715
0.38007301 4.0171599 155.77
0.37635699 3.72419 155.731
0.557136 3.44699 155.724
0.47191101 3.4205201 155.71899
0.345826 3.09375 155.76801
0.13454001 3.3739901 155.707
0.243439 3.3940699 155.71001
0.76587701 3.59727 155.75101
0.64443201 3.4955699 155.73599
0.59618902 3.1447001 155.77699
0.58243001 3.9379101 155.761
0.65632802 3.82177 155.75
1.03579 3.8868001 155.811
0.897807 3.7307601 155.77499
0.88625097 3.2987399 155.784
1.34285 4.2758298 155.946
1.18771 4.0690098 155.86
0.89490402 4.64114 155.98801
1.11085 4.47047 155.963
1.64327 4.6698799 156.121
1.49691 4.4774098 156.03
1.59017 4.0339599 155.97301
2.6109099 3.4389501 157.33099
2.3378501 3.03948 157.265
1.95789 2.5462501 157.825
2.0079401 2.5996001 157.505
1.5089099 2.3457 157.11099
1.76876 2.5105 157.12601
0.096259996 1.9805599 158.664
0.098309003 1.91506 158.145
0.093034998 1.99066 158.45599
0.35694599 1.99753 158.62399
0.201432 1.9874901 158.65401
0.100737 1.86077 158.931
0.102493 1.9275399 158.81599
0.31180599 1.9262201 158.11501
0.32775301 2.00296 158.41
0.73429602 2.05005 158.56
0.54088002 2.01548 158.58299
0.383362 1.89311 158.89101
0.37963101 1.95298 158.774
0.66018403 1.96366 158.043
0.695867 2.0305099 158.33299
1.0830899 2.14836 158.49699
0.913562 2.0848501 158.52499
0.75715899 1.97168 158.841
0.75682402 2.0207 158.72
1.05323 2.0431399 157.92999
1.06124 2.1157701 158.25999
1.46216 2.30791 158.418
1.26024 2.21573 158.465
1.08821 2.08426 158.802
1.09788 2.1317501 158.675
1.4612401 2.2234099 157.83299
1.44397 2.27354 158.16
1.92458 2.57657 158.35201
1.68546 2.4257801 158.37801
1.46604 2.2455599 158.75999
1.48066 2.29545 158.623
1.92453 2.5556901 158.10201
2.47699 3.0409801 158.328
2.18999 2.7843599 158.32401
1.96 2.5692 158.62
1.95848 2.5840499 158.537
0.188427 1.92123 158.138
0.296655 1.87352 157.51401
0.29987001 1.86681 157.774
0.46594599 1.93716 158.082
0.59893101 1.91783 157.52
0.61343402 1.90476 157.71001
0.86684901 1.98051 157.976
1.0526299 2.04351 157.53101
1.24323 2.1206501 157.88499
1.48864 2.2499101 157.46201
1.69973 2.36604 157.804
2.539 3.12374 157.85201
2.2449701 2.7798901 157.845
0.62827098 2.01282 157.095
0.85209399 2.0526199 157.134
1.26728 2.2213199 157.11301
0.110128 1.8539799 157.52699
0.105964 1.85311 157.80299
0.200573 1.8595999 157.521
0.107996 1.93346 157.183
0.11061 1.90086 157.297
0.10999 2.25576 156.552
0.113416 2.31198 156.476
0.115673 2.4974501 156.237
0.127079 2.87222 155.87399
0.123411 2.73771 155.98599
0.13084599 3.0666699 155.76199
0.137031 3.9939699 155.763
0.136805 3.70893 155.72
0.23022901 2.8879099 155.867
0.45547 2.91711 155.868
0.78500098 3.0067899 155.867
1.30695 3.3377099 155.882
1.11989 3.1951499 155.867
1.5151 3.5447299 155.92
2.0533299 4.3807998 156.257
1.9302 4.1195402 156.153
0.046985999 2.1344099 156.73599
0.086934 2.1870301 156.651
0.067244001 2.16061 156.692
0.088547997 2.1042099 156.786
0.072204001 2.12082 156.758
0.046743002 2.03668 156.912
0.088160001 2.0634 156.85899
0.071845002 2.0466101 156.892
0.086363003 1.98367 157.026
0.066986002 2.0072601 156.97301
0.42196801 1.88989 157.504
0.28838599 1.93852 157.19701
0.28610101 1.91242 157.28999
0.104649 2.2165 156.60699
0.180356 2.1270101 156.74899
0.146046 2.1619201 156.69
0.179628 2.0441401 156.905
0.145007 2.00772 156.979
0.104093 1.95911 157.09599
0.13372099 2.11498 156.76801
0.092784002 2.0850201 156.82001
0.13342801 2.0535901 156.882
0.59968001 2.36393 156.455
0.60162199 1.9469 157.351
0.71358103 4.2488599 155.838
0.87190902 4.1077099 155.82401
1.20941 3.5880101 155.814
1.35455 3.1608701 155.98599
1.44354 2.82005 156.297
1.50669 2.4814799 156.795
0.19794901 2.2472701 156.564
0.31974599 2.1579499 156.70399
0.29933301 2.2200401 156.608
0.195785 1.93977 157.17799
0.31786299 2.02508 156.98
0.29651299 1.96773 157.118
0.23882701 2.1424401 156.72701
0.191176 2.08585 156.823
0.237342 2.03529 156.937
0.435334 2.1926899 156.662
0.32785499 2.0922301 156.82899
0.434955 2.0102301 157.036
0.63310897 2.1185701 156.834
1.31282 0.139617 162.696
1.34808 0.448789 162.60201
1.35351 0.311474 162.64799
1.39759 0.17171399 162.851
1.3552001 0.15191901 162.765
1.13273 -0.238611 162.776
1.22901 -0.047878999 162.746
1.18296 0.156938 162.59801
1.25798 0.143837 162.64301
1.26717 0.671529 162.52
1.31025 0.57698101 162.55701
1.46252 0.50747699 162.739
1.4071701 0.475898 162.658
1.2017699 0.42969799 162.536
1.28352 0.438077 162.565
1.20742 0.81778198 162.47501
1.23132 0.76155603 162.492
1.39108 0.73747301 162.616
1.32377 0.70362699 162.55701
1.13929 0.61455101 162.479
1.20983 0.64727098 162.494
1.18278 0.91429001 162.448
1.1942199 0.86287498 162.46201
1.06312 0.85049999 162.412
1.14738 0.89569402 162.436
1.28874 0.970882 162.51801
1.21295 0.92731601 162.46201
1.31319 0.56790203 163.75999
1.14783 0.2739 163.79201
1.21743 0.40861499 163.786
1.32962 0.53465003 163.69901
1.32091 0.554416 163.73199
1.52518 0.95359898 163.603
1.42118 0.74696797 163.70599
1.31696 0.59366 163.858
1.31146 0.57935101 163.79201
1.51518 0.91506398 163.534
1.5191801 0.93466401 163.57401
1.59352 1.15907 163.38901
1.53915 0.973957 163.63699
1.53216 0.965675 163.621
1.6024801 1.21813 163.173
1.52441 1.20461 162.81599
1.57803 1.24677 162.96201
1.49447 1.13051 162.825
1.50147 1.16912 162.821
1.4263901 1.12079 162.614
1.4648 1.15332 162.674
1.62154 1.2982301 162.754
1.55209 1.2384501 162.80299
1.30347 1.04331 162.48599
1.37877 1.08648 162.558
1.28776 1.01159 162.5
1.06414 0.91293103 162.38499
1.18779 0.97896802 162.423
1.382 1.1143399 162.439
1.3284 1.06955 162.47
1.16127 0.24598201 163.741
1.23385 0.37169001 163.73
1.35873 0.46455199 163.601
1.34181 0.498588 163.651
1.42788 0.71931398 163.63901
1.51987 0.85411298 163.422
1.51416 0.88672698 163.48199
1.5728 1.1033601 163.334
1.5740401 1.16366 163.142
1.45079 0.291329 163.20399
1.2817 -0.0053960001 163.26801
1.35153 0.106884 163.25101
1.44998 0.220134 163.021
1.4562401 0.250846 163.105
1.54989 0.68581998 163.067
1.52564 0.499504 163.14301
1.4102499 0.38026899 163.424
1.43563 0.33450899 163.314
1.53587 0.60987002 162.90401
1.5473599 0.64747399 162.981
1.54224 0.92487699 162.91499
1.55392 0.82844001 162.983
1.54049 0.77826601 163.261
1.54693 0.72813302 163.16
1.49333 0.828417 162.765
1.51853 0.87432802 162.832
1.51263 1.04532 162.842
1.52657 0.99338102 162.868
1.56347 0.96430397 163.067
1.55773 0.96351302 163
1.16265 -0.24825799 162.924
1.0374399 -0.474729 162.925
1.0940599 -0.36774901 162.927
1.1539201 -0.235567 162.84801
1.2808599 -0.062735997 162.92
1.24022 -0.124288 162.92101
1.1739 -0.243238 163.089
1.1696399 -0.25653699 163.006
1.3202699 0.0076629999 162.90199
1.45573 0.35276601 162.793
1.43127 0.196979 162.942
1.43117 0.64475101 162.668
1.50792 0.56402898 162.827
1.3280801 0.87703902 162.556
1.35373 0.823093 162.57899
1.4531699 0.791008 162.69501
1.05794 -0.23021799 162.668
1.12956 -0.023613 162.63499
1.06758 0.190184 162.55299
1.11369 0.17457999 162.567
1.2082 0.30814299 162.564
1.06967 0.41354001 162.51601
1.12376 0.42048499 162.51801
1.17365 0.52995002 162.506
1.02288 0.56448799 162.476
1.07099 0.58787602 162.47301
1.08676 0.75208497 162.44
1.10817 0.69112402 162.45799
1.40917 1.04684 162.64101
1.35706 1.0154999 162.58501
1.30492 0.92663598 162.53999
1.44633 1.08172 162.707
1.54785 1.17688 162.968
1.5011801 1.09356 162.83099
2.35358 1.78309 162.83501
2.1631401 1.63878 163.02499
1.7891999 1.39947 163.011
1.50792 1.2077301 162.575
1.5415601 1.2347 162.62399
1.95867 1.4938101 162.414
1.7921799 1.3955801 162.593
1.46902 1.17978 162.53
1.10303 0.95304102 162.308
1.24737 1.03456 162.353
1.67063 1.2811199 162.19501
1.49616 1.18261 162.354
1.37034 0.63619399 164.036
1.15414 0.312509 164.104
1.24716 0.461804 164.082
1.34016 0.61141002 163.94099
1.65908 1.01517 163.853
1.51521 0.82179099 163.96201
1.42897 0.68097597 164.237
1.40177 0.65943497 164.13
1.64538 1.18485 163.461
1.57605 0.98522401 163.72099
1.55187 0.98131901 163.66701
1.6653301 1.29647 163.222
2.30952 1.5182199 163.811
2.2623899 1.5065 163.703
1.78848 1.0805399 164.017
1.99721 1.2985899 163.83099
2.7350199 1.823 163.47501
2.50618 1.65839 163.649
2.42946 1.54439 164.13
2.38357 1.53163 163.974
2.9728501 1.85727 163.89
2.69543 1.69534 164.03101
2.5155201 1.55782 164.48199
2.49054 1.55426 164.33701
1.9052 1.15695 164.31799
2.16696 1.3707 164.20599
3.1296799 1.86382 164.246
3.0897901 1.87108 164.114
3.71596 2.16361 164.16
3.4325299 2.0101299 164.207
3.13943 1.83322 164.474
3.1379299 1.84995 164.34399
3.49582 2.2088201 163.584
3.62571 2.19537 163.88499
4.2613902 2.51934 163.955
4.0086098 2.33429 164.08099
3.7880299 2.0839801 164.565
3.7765501 2.12149 164.392
3.9751999 2.56756 163.311
4.1300101 2.55955 163.62399
4.67348 2.91221 163.67
4.4837599 2.70928 163.812
4.4189301 2.4319699 164.433
4.3827801 2.4804201 164.252
4.4077301 2.32219 164.726
4.4231701 2.3845601 164.565
4.9584098 2.7667799 164.466
4.7093701 2.5975299 164.44701
4.8327699 2.85097 164.056
5.2695599 3.0722301 164.446
5.1700702 2.94469 164.495
5.0581398 2.6539099 165.039
5.02349 2.70158 164.789
5.7708302 3.58425 165.011
5.45011 3.41697 164.203
5.64362 3.5236199 164.59801
5.9756398 3.98226 165.12601
5.8479099 3.7337401 165.03101
5.6047301 3.2481201 165.209
5.6922598 3.4296 165.09
5.8032899 3.45647 165.776
5.4774299 3.0646999 166.00301
5.6571698 3.24528 165.869
5.7376699 3.3837199 165.541
6.02777 3.8793499 165.69
5.9157801 3.6609199 165.69901
5.8861599 3.5578799 166.172
5.8507099 3.51491 165.98399
6.5319099 5.2639899 166.198
6.2855401 4.44277 166.112
6.4078302 4.8201599 166.12601
6.4415998 5.3315701 165.48801
6.4910002 5.2955599 165.826
6.7504902 6.2948198 166.47501
6.6490302 5.7564402 166.317
6.5513902 5.1942201 166.63699
6.5466499 5.2099099 166.5
5.5514002 3.66187 164.069
5.3466101 3.2042501 164.343
4.9542198 3.2980399 163.39101
5.1905499 3.3250899 163.78101
4.35112 2.9173601 163.05
4.5104299 2.9322901 163.336
4.8335299 3.10516 163.52699
4.1796198 2.74755 163.17999
4.0177698 2.8001201 162.549
4.1838298 2.8698299 162.786
4.60817 3.2237799 162.791
4.4875002 3.07444 162.91499
3.6777401 2.4985299 162.81
3.86672 2.6555099 162.675
3.73704 2.67943 162.14799
3.8636899 2.7286501 162.33701
4.1299601 2.94925 162.30499
4.10004 2.8971601 162.429
2.85095 1.8415101 163.65401
3.23983 2.0281999 163.733
3.2318101 2.17746 163.104
3.3589499 2.1961901 163.312
3.7443399 2.37868 163.446
3.82286 2.5385201 163.036
2.5543001 1.80804 163.196
2.6352999 1.81171 163.328
2.99102 2.0078001 163.28
3.01143 2.1312399 162.80701
3.11712 2.1541901 162.94299
3.46087 2.33954 162.951
3.4244499 2.4254 162.44501
3.5466001 2.4579101 162.61501
2.3547201 1.6494499 163.37601
2.4388499 1.80645 162.981
2.4844699 1.80618 163.073
2.7878399 1.9763499 162.996
2.8471301 2.0906401 162.58701
2.9191799 2.10919 162.68201
3.22105 2.2839301 162.625
3.15871 7.1090698 157.68401
3.69133 7.6011901 158.11
3.41734 7.34723 157.892
3.54579 6.6496801 157.659
3.3485301 6.8928199 157.66299
2.7020199 6.7168298 157.326
2.9187601 6.8961401 157.492
2.83583 7.4535098 157.726
2.9857399 7.29498 157.707
2.3388 6.4530602 157.091
2.50998 6.5726399 157.19501
2.80478 5.9654398 157.035
2.5794401 6.2223401 157.05099
2.0525701 6.2237 156.899
2.17114 6.3457398 156.99899
1.9177901 6.8418102 157.13499
2.09728 6.6598701 157.11501
4.0669498 7.1813302 158.129
3.8002501 6.91326 157.89101
3.8652501 6.1210599 157.797
3.7404699 6.3835502 157.68401
3.1171501 6.2330098 157.276
3.30878 6.4155502 157.44
3.2124701 5.3927999 157.187
3.0274999 5.6749401 157.06599
2.60109 5.78339 156.875
2.67662 5.8538499 156.936
2.9537899 6.0854902 157.14301
4.3724399 6.7254 158.26401
4.1315598 6.44098 158.02299
4.0009098 5.6638799 158.07899
3.9474599 5.8877101 157.924
3.47822 5.6581898 157.433
3.6417201 5.8354201 157.592
3.4153099 4.9397998 157.50301
3.3410599 5.15801 157.339
2.9746799 5.1034298 156.967
3.09356 5.25104 157.07001
3.3466599 5.5248799 157.311
6.3176699 5.4577498 164.81799
6.3797598 5.3896499 165.162
6.1134501 4.7522101 164.509
6.2202802 5.0685301 164.666
6.1778102 5.6339002 164.076
6.2550998 5.5314398 164.457
6.5083199 6.3989401 165.127
6.4156098 5.9000502 164.97099
5.95368 5.0365 163.68401
6.0672402 5.3014498 163.882
6.3589201 6.4398899 164.433
6.2747202 6.0174499 164.263
5.8269401 4.8192902 163.49001
4.7334299 4.0423799 161.50301
4.8723402 4.1592002 161.718
5.23353 5.13167 161.519
4.6443501 3.66137 161.89101
4.67803 3.7721 161.77
4.4960198 3.83026 161.151
4.6177001 3.9356 161.325
4.8577099 4.8231502 160.82001
4.77948 4.4179401 161.16299
6.0023398 3.9120901 165.451
6.2451 4.4451699 165.69901
6.1380601 4.1441202 165.692
6.0662298 3.87081 166.134
6.0492401 3.8731599 165.882
5.9427199 4.1051202 164.66901
5.9939299 4.4971499 164.34801
4.7188802 3.39431 162.64799
4.5700202 3.4493301 162.131
4.68049 3.53771 162.254
4.6226602 3.5896001 161.97701
4.45858 3.4945199 161.681
4.5518298 3.56884 161.798
2.2668099 1.73628 162.728
2.31094 1.7591799 162.77901
2.73193 2.04142 162.414
2.5455 1.91466 162.633
2.3954599 1.79651 162.901
1.93363 4.48599 156.202
1.0877301 4.9386501 156.112
1.36149 4.8210802 156.104
1.91562 4.9941301 156.297
1.79337 4.8346701 156.20399
2.1729801 5.30548 156.50999
2.7239599 4.79706 156.75
2.4814301 5.0639601 156.621
2.04087 5.1499 156.394
1.56267 5.66113 156.466
1.86526 5.5002298 156.47501
2.4240501 5.6001301 156.73801
2.30374 5.45894 156.62801
2.5318699 5.71561 156.825
2.336 6.0185199 156.87801
1.541 6.4665699 156.882
1.7807699 6.3851399 156.901
1.81323 5.9705901 156.71001
1.93539 6.10291 156.811
0.85043901 5.9080901 156.51199
1.17502 5.83359 156.50301
1.05638 5.8697901 156.517
0.79117298 5.4812198 156.27699
0.83790898 5.70467 156.394
0.32613799 6.03232 156.549
0.60560697 5.96591 156.52901
0.92918998 6.2859402 156.729
0.88287401 6.1025 156.621
0.303931 5.6038499 156.319
0.314145 5.82724 156.42999
0.35355201 6.4023199 156.74899
0.33998501 6.22578 156.649
0.79408902 4.4377198 155.905
0.410714 4.5678201 155.91701
0.61251801 4.5409999 155.91499
0.97569603 4.7740698 156.03999
0.51006597 3.99896 155.771
0.65213197 4.12608 155.806
0.39519399 4.2909002 155.839
0.253851 4.0127101 155.76601
0.362104 5.11625 156.11099
0.42042801 4.8537302 156.013
0.121738 4.5776501 155.916
0.249461 4.5703402 155.914
0.30838501 5.3648 156.214
0.71402198 5.0585098 156.10899
0.57736498 5.0850801 156.112
0.15817 5.1481199 156.117
0.857288 5.0241399 156.114
0.74461198 5.26581 156.19099
1.31235 5.3108802 156.271
1.1982599 5.1204801 156.187
1.43058 5.5033102 156.362
1.30996 5.7859001 156.493
1.68973 5.8200002 156.592
2.8568399 4.9518399 156.864
2.9596701 4.33149 157.077
2.8761201 4.5447698 156.89999
2.4835801 4.5432 156.554
2.59003 4.6568999 156.63699
5.6220298 2.4066401 170.85899
5.1061001 1.67281 171.168
5.3891301 2.0457599 171.024
5.5707998 2.30299 170.41701
5.6070099 2.3703201 170.647
5.8990798 2.89821 170.563
5.7955799 2.7054 170.694
5.6592698 2.48841 171.23801
5.6367798 2.4435699 171.05099
5.5018902 2.1638 169.93201
5.0233898 1.5235699 170.25999
5.2904201 1.85065 170.093
5.4391499 1.97498 169.438
5.4756198 2.08676 169.68401
5.8804498 2.8905699 169.586
5.6647301 2.44399 169.795
5.5308599 2.23278 170.16901
4.4506998 0.91987503 170.52
3.8162401 0.41951099 170.623
4.1403298 0.66257 170.578
4.4271598 0.84472197 169.983
4.4319601 0.89336997 170.263
4.7468801 1.20894 170.42101
4.4856801 0.952833 170.963
4.4674501 0.935103 170.758
3.94313 0.49969199 171.832
3.8982699 0.467388 171.386
3.9188001 0.48124301 171.597
4.5363998 1.03581 171.752
4.2430401 0.749713 171.798
3.99404 0.56475598 172.345
3.9693999 0.52702701 172.08099
3.2868199 0.070077002 171.873
3.62626 0.27399099 171.856
3.1032901 0.013228 170.653
3.46333 0.206221 170.633
3.7615399 0.38919899 170.11501
3.78703 0.40931901 170.383
3.85623 0.44567099 171.01401
3.8346901 0.43510699 170.827
2.3492701 -0.26640201 170.66701
2.7281499 -0.135868 170.66299
3.0506101 0.010913 170.14799
3.0700901 0.011373 170.411
3.16238 0.022111 171.061
3.13308 0.016109999 170.871
5.7452102 2.65959 169.153
5.8173299 2.7804501 169.39101
6.0450802 3.35888 169.146
5.9767399 3.1296201 169.396
5.99751 3.12588 169.94
5.9435902 3.0097499 169.77
6.10183 3.3678601 170.158
6.0506701 3.2525401 170.05
6.2628899 3.94344 169.558
6.1923699 3.63253 169.90199
6.20891 3.6361499 170.39799
6.1529899 3.49631 170.269
6.00705 3.1317699 170.37
5.8582101 3.0044501 168.856
5.9482598 3.1733699 168.989
6.1069498 3.7450099 168.479
6.0815001 3.5722201 168.80901
6.1841502 3.7084501 169.397
6.1177001 3.5348899 169.276
6.2351999 3.8602099 169.498
6.36235 4.2817602 169.75101
6.29424 4.0432801 169.616
5.8926601 3.3692801 168.27
5.9981799 3.53707 168.362
6.1099 3.9346399 167.839
6.10919 3.8534 168.13699
6.2691498 4.14958 168.65199
6.1903 3.93928 168.571
6.4618902 4.7844 168.91
6.36026 4.4168701 168.759
6.5109401 5.0342498 168.06799
6.49402 4.9355698 168.472
6.6669202 5.7232299 169.323
6.5646601 5.2355399 169.104
6.4134202 4.5726399 169.347
5.8634701 3.5413401 167.702
5.9941702 3.7300799 167.784
6.1245699 3.99756 167.45799
6.11588 3.98053 167.597
6.29106 4.3638701 167.92101
6.19873 4.1381402 167.867
6.39113 4.6522899 167.983
6.5275898 5.06001 167.658
6.5286102 5.0695801 167.77299
6.7414999 6.0524402 168.405
6.6455202 5.5261898 168.217
6.1270499 3.99158 167.274
5.83674 3.53403 167.239
5.9988298 3.7653301 167.25
6.1092601 3.9416101 166.938
6.1182799 3.9686201 167.127
6.3176498 4.4326701 167.35699
6.2223401 4.2012501 167.306
6.1280699 3.9988599 167.369
6.5342999 5.0700798 167.54401
6.41749 4.7052302 167.435
6.5586801 5.16471 167.11501
6.54776 5.0982199 167.444
6.5318198 5.0662298 167.603
6.0071301 3.1066599 170.873
5.95473 3.0095 170.707
2.56302 1.65232 165.243
2.5522201 1.59249 164.826
2.5659699 1.61891 165.037
3.10165 1.8056 165.228
2.83496 1.73232 165.22301
2.5337 1.71529 165.619
2.5491199 1.68768 165.438
2.0538001 1.464 165.327
2.2990699 1.56259 165.276
3.1586699 1.81759 164.836
3.1499801 1.81221 165.04601
3.46557 1.91246 165.27901
3.3367 1.87251 165.259
3.01125 1.81531 165.58
3.0538399 1.80703 165.407
3.40557 1.92404 165.616
3.44368 1.91282 165.448
3.80459 2.01929 165.345
3.5957 1.9525599 165.30499
4.1979599 2.1905301 165.508
4.5195498 2.3608799 165.71001
4.3629999 2.2740099 165.60699
4.05446 2.1807001 165.839
4.1272001 2.1888399 165.685
4.0119801 2.1029999 165.41701
4.3092899 2.21561 165.12
4.2597198 2.1974399 165.317
1.53473 0.985717 165.14301
1.99634 1.30202 164.918
1.7406 1.14614 165.02699
1.50881 1.16775 165.54601
1.53408 1.0764101 165.33501
1.23193 0.72081399 165.349
1.3651 0.84752297 165.25101
1.51205 0.84122002 164.81
1.51963 0.912799 164.97501
4.8150101 2.5506999 165.907
4.6701598 2.45597 165.814
4.33318 2.3254001 166.03
4.4233799 2.34953 165.883
4.6777401 2.3861699 165.302
4.60426 2.3728001 165.51401
4.99827 2.6800101 166.082
5.2806602 2.85393 165.748
5.1380901 2.7553 165.925
5.0920501 2.7655301 166.25101
5.0429201 2.7162399 166.149
4.9324498 2.63186 166.009
5.3913798 2.9630401 165.855
4.9928899 2.58938 165.496
5.1557102 2.7285399 165.617
5.46909 3.0098 165.459
5.4100299 2.94835 165.571
5.2047801 2.87427 166.45799
5.1479001 2.82075 166.351
5.6053901 3.22259 166.283
5.38974 3.0288899 166.36
5.3110299 2.96807 166.683
5.2596402 2.9252601 166.57001
4.9054298 2.6781299 166.72301
5.0462298 2.7630999 166.577
5.3988199 3.0448 166.952
5.3569102 3.0062201 166.80701
5.78581 3.45625 166.918
5.5855899 3.23423 166.92
5.4791498 3.1117301 167.25
5.441 3.08095 167.10899
5.0817399 2.7837501 167.105
5.2367902 2.90399 167.01601
5.1712599 2.8115301 167.32401
5.3238301 2.9469199 167.283
5.6547098 3.31218 167.235
5.5375299 3.1454699 167.459
5.5121002 3.13358 167.36301
5.5956302 3.0722401 167.85899
5.3320498 2.7753 167.733
5.4619699 2.9114499 167.79601
5.5784302 3.11467 167.72301
5.58567 3.0933199 167.78799
5.8667302 3.4593201 168.004
5.7382998 3.2666399 167.931
5.6180501 2.99193 168.048
5.60711 3.0401399 167.94299
5.6224799 2.6810801 168.53
5.6317401 2.8677001 168.27699
5.62924 2.78527 168.399
5.7397199 2.8278201 168.688
5.5950198 2.4628201 168.742
5.6112299 2.56213 168.65601
5.3840799 2.4605401 168.252
5.5050201 2.5543699 168.395
5.2762599 2.90168 166.12601
5.5432801 3.1468501 166.144
5.8135099 3.5012901 167.09399
5.8607101 3.5639999 167.44299
5.8512301 3.55546 167.349
5.8597498 3.4853001 167.911
5.8642402 3.4739399 167.955
5.87571 3.43156 168.086
5.8844099 3.20277 168.567
5.8771801 3.1312799 168.672
5.8143001 2.8424799 169.021
5.6655998 2.53473 168.91499
5.4902401 2.2509601 168.754
5.6579099 2.4407499 169.24899
5.5767899 2.29864 168.97
5.53689 2.2691901 168.864
5.27423 1.80804 168.826
5.3897099 2.03513 168.793
5.2970099 2.18033 168.453
5.4029799 2.2156501 168.60699
3.0313101 -0.040293001 169.67101
3.7485001 0.312392 169.757
3.3892801 0.121886 169.711
3.02987 -0.011347 169.882
2.3443301 -0.316324 169.617
2.6786001 -0.18987 169.64
3.05989 -0.086469002 169.336
3.04424 -0.067946002 169.496
5.57234 2.2321999 169.342
5.6059899 2.3345799 169.06599
5.0028 1.3875 169.69501
5.2546201 1.68808 169.55
5.0046401 1.46543 169.98
4.7235699 1.1033601 169.85201
4.99473 1.30985 169.35899
4.9987302 1.32784 169.46001
4.10357 0.60803998 170.061
4.4482398 0.788818 169.625
4.4418101 0.80138397 169.735
3.4103 0.184956 170.14
3.7418001 0.34125099 169.881
2.3387101 -0.27297801 170.13901
2.68892 -0.14192 170.149
1.1811 0.329759 164.321
1.28634 0.491234 164.295
1.60176 0.89202499 164.149
1.48312 0.741925 164.496
1.4561599 0.710226 164.358
1.71867 1.0427001 163.92599
1.85656 1.12578 164.144
5.0826502 3.51071 163.242
0.967843 0.66919303 162.44299
0.992001 0.62623399 162.45799
1.05051 0.49386999 162.496
0.951594 0.53696501 162.504
0.988482 0.54915601 162.487
1.07686 0.316854 162.533
0.99391299 0.40938699 162.54401
1.03104 0.409823 162.524
2.17733 1.67539 162.627
2.54966 1.91329 162.17799
2.36954 1.79988 162.41701
2.2214501 1.7061599 162.67999
1.97414 1.53464 162.812
2.1108899 1.61771 162.52699
2.1410201 1.6435699 162.565
3.78583 0.28233001 169.52299
4.1261301 0.51803601 169.61099
4.4738898 0.79368699 169.41901
4.4639301 0.78785902 169.545
3.76842 0.299842 169.66701
1.5293601 0.217692 168.095
1.57956 0.50169498 167.99001
1.55483 0.35620499 168.03999
1.86953 0.12171 168.289
1.6841201 0.16305199 168.189
1.48491 -0.019203 168.21201
1.50613 0.092735998 168.153
1.27319 0.36743101 167.88499
1.3947901 0.28754601 167.995
6.3229699 10.756 164.437
6.4195399 10.7006 164.631
6.3642802 10.7197 164.563
6.4200702 10.3634 164.45599
6.3663902 10.5763 164.444
6.1957102 10.916 163.911
6.2683601 10.8147 164.228
6.2713099 11.0711 164.494
6.2878799 10.9138 164.455
6.2704701 11.258 164.532
6.4162502 10.9633 164.668
6.3375802 11.0249 164.593
6.1057601 11.2017 164.005
6.2041001 11.117 164.33099
6.4982901 10.3696 164.735
6.4573398 10.3379 164.65199
6.5008402 9.8305597 164.38901
6.4641299 10.1066 164.44501
6.33674 10.548 163.80499
6.3748598 10.4325 164.153
5.6768498 11.1239 161.40601
5.5219598 11.4034 161.505
5.5954499 11.2529 161.44299
5.98945 11.3087 162.589
5.8428798 11.3002 161.929
5.8728399 10.7943 161.339
5.7691698 10.9771 161.37
5.4194498 10.6026 160.48801
5.5538201 10.8589 160.90199
6.1066799 10.2375 161.399
5.9885502 10.5535 161.33501
5.6593199 10.3416 160.494
5.7639799 10.5734 160.862
6.1487598 10.9391 162.492
6.0114002 10.9457 161.858
6.31531 10.3588 162.492
6.2382202 10.6603 162.467
6.06533 11.1606 162.539
6.3026199 10.7648 163.202
6.4256902 9.6140404 162.55099
6.38133 9.9959898 162.51801
6.2101498 10.3294 161.89999
6.4457202 10.0344 163.633
6.4224 10.246 163.05901
5.0382199 9.9168501 159.808
4.54708 9.1849499 159.173
4.80652 9.54737 159.48801
4.8529201 10.0663 159.80299
4.9159999 10.0069 159.804
5.2326598 10.2775 160.12801
5.34127 9.6559896 159.81799
5.1796398 9.79632 159.806
3.96663 8.5030203 158.612
4.2643299 8.8331604 158.88
4.34058 9.4102697 159.17999
4.43326 9.3018398 159.179
4.8628402 8.8894796 159.16499
4.6903501 9.0487804 159.166
3.38134 7.9329901 158.14301
3.6688399 8.2034397 158.368
3.7479999 8.7643099 158.625
3.85043 8.6354799 158.621
4.2811999 8.17976 158.599
4.1093998 8.3537197 158.60201
3.1045301 7.6838102 157.931
3.1580901 8.2081099 158.173
3.26366 8.0714998 158.159
3.52248 7.7796402 158.125
2.3285899 7.0757298 157.36301
2.5755 7.2477002 157.534
2.5876601 7.7327399 157.75101
2.7057099 7.5953202 157.741
5.1661501 10.8905 160.56
5.3016601 10.7227 160.519
5.5373201 10.489 160.48599
2.10498 6.9446402 157.229
1.6621701 6.6731901 156.996
1.72297 6.7445402 157.043
1.73335 7.01157 157.145
5.3586302 11.1618 160.99001
4.6988001 10.303 159.826
4.9514499 10.6058 160.173
5.1306601 11.0951 160.55299
5.9436202 9.9093399 160.629
5.79321 10.1472 160.533
5.52491 10.0248 160.159
6.8129101 8.2231302 166.478
6.7499399 7.4095201 166.12199
6.7790899 7.8551998 166.30299
6.7100201 8.3929596 165.832
6.7628002 8.3029299 166.147
6.89821 8.8265104 166.905
6.8542199 8.5367603 166.692
6.8700399 8.1929102 166.84399
4.80899 10.1361 159.811
4.1585798 9.6548796 159.13901
4.4626598 9.9674597 159.50101
4.62991 10.5149 159.776
4.2547002 9.5247602 159.172
3.5341201 9.0389795 158.589
3.85937 9.3471098 158.847
4.03409 9.7864799 159.036
3.6457901 8.8988504 158.618
2.9442799 8.5070696 158.164
3.23036 8.7641201 158.368
3.4075699 9.1777601 158.524
3.05443 8.3521004 158.17799
2.47612 7.87782 157.758
5.7103901 9.3362999 159.92599
5.5209398 9.5009804 159.856
5.1178799 9.2708101 159.48399
5.2437301 8.52423 159.22301
5.0527101 8.7119999 159.18201
4.58079 8.52145 158.871
4.6518602 7.7795701 158.64
4.4686799 7.9861202 158.608
3.9804399 7.8747602 158.34399
3.8786299 7.3990598 158.108
6.1859398 9.3607197 160.90601
6.08004 9.6366301 160.763
5.8547502 9.6797199 160.325
6.0113401 10.0903 160.94901
5.9987402 8.8640699 160.20599
5.8697901 9.1218395 160.04201
5.4956102 8.9280796 159.55299
5.5833902 8.1157198 159.38
5.42207 8.3282099 159.28799
4.9563398 8.1358604 158.923
4.95017 7.33605 158.785
4.8158102 7.5621099 158.7
4.3508 7.4639001 158.37601
4.2382998 6.9548202 158.179
6.2936101 8.7319603 161.215
6.2519302 7.9229298 161.56799
6.2936702 8.3759403 161.369
6.13586 8.3068304 160.584
6.24793 8.5862103 160.98199
6.2550001 9.0540504 161.06
6.3669901 8.8916903 161.83099
6.3154101 8.8247404 161.435
6.11795 7.5587401 161.05
6.1553001 7.97542 160.785
5.73841 7.6371102 159.709
5.9705701 7.9699202 160.108
6.0816498 8.5882196 160.394
5.8137202 8.5043001 159.75301
5.6809001 7.88515 159.52
5.2734599 7.7081199 159.082
5.1114302 6.9291201 159.03101
5.0479498 7.1173601 158.895
4.64294 7.01299 158.513
4.5172901 6.3211198 158.504
4.4591298 6.5123401 158.379
6.63974 6.34267 165.776
6.7060499 6.9004598 165.939
6.6951098 6.3165398 166.099
6.5502501 5.8120499 165.62199
6.5784001 6.3751001 165.464
5.7803502 5.83143 162.437
5.53338 5.45752 162.062
5.4007201 5.2997899 161.85001
