# .PCD v.7 - Point Cloud Data file format
VERSION .7
FIELDS x y z
SIZE 4 4 4
TYPE F F F
COUNT 1 1 1
WIDTH 1699
HEIGHT 1
VIEWPOINT 0 0 0 1 0 0 0
POINTS 1699
DATA ascii
-25.3244 -28.231501 125.522
-25.298901 -28.460501 125.939
-24.2027 -29.2686 126.303
-24.896999 -28.5902 125.536
-24.6998 -28.783701 125.762
-25.0588 -28.4263 125.348
-25.2712 -31.0187 125.491
-25.619101 -31.0128 125.792
-26.4729 -29.8981 125.617
-26.613899 -29.8533 125.295
-25.9146 -30.520201 126.285
-26.307301 -29.9884 125.969
-26.7934 -29.432699 125.614
-26.6306 -29.6003 125.72
-26.985399 -29.2579 125.505
-25.745001 -30.827999 126.2
-26.802299 -29.567801 125.411
-26.743401 -29.294399 125.805
-26.4765 -29.0091 126.127
-25.3333 -29.3629 124.546
-24.987301 -28.962601 124.793
-24.842199 -28.662399 125.221
-25.0105 -28.580601 125.847
-25.3097 -28.720699 126.244
-24.681299 -30.847799 125.488
-24.128 -29.521299 126.827
-23.8557 -29.606899 126.327
-24.9324 -30.012199 127.229
-25.377001 -30.419001 127.08
-25.6047 -30.7616 126.715
-25.621 -30.996401 126.314
-25.502399 -31.1506 125.909
-25.172199 -31.112 125.566
-24.2932 -30.3671 125.582
-23.940901 -29.959101 125.836
-24.4977 -29.691799 127.117
-24.537399 -31.9767 128.02499
-24.398399 -32.172901 128.26401
-24.4338 -32.352299 128.033
-24.589399 -32.176498 127.738
-23.665899 -31.6047 128.642
-23.8388 -31.6096 128.591
-23.5973 -31.502501 128.591
-24.3046 -32.2505 128.388
-24.372 -32.3325 128.22501
-24.1971 -31.91 128.492
-24.090799 -32.023701 128.591
-23.765499 -31.7155 128.657
-24.3363 -32.327702 128.17101
-24.393299 -32.376999 127.972
-24.3006 -32.202499 128.256
-24.301201 -32.269299 128.222
-24.0942 -31.9701 128.45799
-24.067301 -32.029202 128.49001
-23.7736 -31.6703 128.535
-23.7481 -31.7335 128.575
-23.627701 -31.6134 128.59
-23.555201 -31.518101 128.53999
-23.5924 -31.541401 128.52699
-23.3641 -31.2533 128.332
-23.490101 -31.2094 128.328
-23.3624 -30.913799 128.011
-23.620001 -30.853399 128.09801
-23.7176 -30.878099 128.075
-23.6919 -30.865601 128.07401
-23.7479 -30.3169 127.614
-23.7271 -30.757299 128.01801
-24.039 -30.412399 127.698
-24.4568 -32.4044 127.8
-24.428699 -32.350498 127.891
-24.288401 -32.3736 128.242
-24.012501 -32.124298 128.535
-23.667101 -31.7824 128.64101
-23.4659 -31.534201 128.565
-24.577299 -32.2099 127.619
-25.01 -31.400499 127.248
-24.900999 -31.426399 127.367
-24.7558 -31.969801 127.321
-24.2873 -30.691601 127.695
-23.4902 -31.652901 126.909
-23.199699 -31.2024 127.128
-23.3498 -30.813499 126.672
-23.6679 -31.228001 126.412
-23.332199 -31.683001 128.453
-23.518 -31.896799 128.50301
-23.174601 -31.101601 127.826
-23.2411 -30.7987 127.477
-23.190001 -31.4004 128.177
-24.1602 -32.505798 127.577
-24.1586 -32.465698 128.146
-23.9687 -32.482101 127.875
-24.267 -32.386902 127.202
-24.5107 -32.354801 127.392
-24.405899 -32.169399 126.856
-24.6668 -32.118999 127.067
-25.055599 -31.647301 126.891
-25.3438 -31.3234 126.565
-25.2192 -31.4645 126.214
-24.9492 -31.774 126.598
-25.3619 -31.097 126.951
-24.9044 -31.4485 125.887
-24.662001 -31.815399 126.334
-24.4028 -31.190399 125.793
-24.136101 -31.602699 126.265
-23.939501 -32.016201 126.813
-23.860701 -32.2743 127.193
-23.8514 -32.431 127.58
-23.876101 -29.859301 127.163
-23.5744 -29.9778 126.703
-23.355499 -30.419701 127.12
-24.2591 -30.032499 127.391
-24.6422 -30.2803 127.472
-24.306 -30.5959 127.671
-23.929899 -30.762699 125.932
-23.4354 -31.946699 127.306
-23.4839 -32.168201 127.708
-23.653999 -32.277699 128.12601
-23.581301 -30.3484 126.221
-23.1555 -31.4981 127.533
-23.2124 -31.745899 127.923
-23.3969 -31.943399 128.285
-25.137199 -30.6973 127.345
-24.8169 -30.968201 127.514
-24.745199 -31.0229 127.538
-23.841801 -32.247501 128.399
-24.281401 -30.722601 127.712
-24.7356 -31.967899 127.431
-24.8806 -31.4667 127.389
-24.755501 -31.9032 127.472
-23.5446 -31.2124 128.37399
-24.7188 -31.0616 127.576
-23.9664 -31.383301 128.396
-24.344101 -31.6961 128.283
-24.1555 -31.0138 128.035
-24.5741 -31.324499 127.902
-24.764099 -31.6642 127.629
-24.276199 -32.245998 128.34
-24.059299 -32.024101 128.54401
-23.737801 -31.7178 128.61
-23.827101 -30.917999 128.08299
-23.979799 -30.723101 127.867
-23.982201 -30.635599 127.85
-23.9828 -30.6894 127.852
-23.668301 -30.5944 127.885
-23.432699 -30.639999 127.738
-23.874901 -30.5919 127.873
-23.575899 -30.321301 127.479
-23.8029 -31.687901 128.64101
-24.133101 -31.976299 128.55901
-24.335699 -32.223202 128.358
-24.8421 -31.6866 127.382
-24.846701 -31.7229 127.326
-24.8897 -31.708 127.259
-24.838301 -31.720699 127.338
-23.632299 -31.561001 128.62199
-23.5959 -31.579399 128.575
-23.7904 -31.6392 128.489
-24.1124 -31.9396 128.407
-24.321199 -32.179001 128.19701
-24.399401 -32.361 128.131
-24.362499 -32.3699 128.073
-24.3598 -32.1996 128.327
-24.1577 -31.9454 128.534
-23.818701 -31.658001 128.625
-23.571501 -30.598 127.838
-23.504101 -30.868601 128.076
-23.664801 -31.2356 128.38
-23.962601 -29.527399 126.587
-24.802401 -31.174 125.634
-24.9116 -31.022499 125.515
-24.335501 -30.771799 125.645
-24.482401 -30.614201 125.509
-23.922001 -30.3302 125.844
-24.0982 -30.1597 125.687
-23.709101 -29.9195 126.229
-23.8547 -29.7528 126.062
-25.434601 -30.767799 127.043
-25.5352 -30.6052 126.922
-25.056801 -30.3566 127.322
-25.174801 -30.2237 127.191
-24.567499 -29.9895 127.315
-24.700001 -29.8452 127.177
-24.1922 -29.739901 127.156
-24.299 -29.581699 127.012
-25.2279 -31.3181 125.865
-25.3591 -31.1674 125.724
-25.442101 -31.2505 126.239
-25.5819 -31.085899 126.105
-25.504499 -31.059601 126.631
-25.639299 -30.8915 126.521
-24.4499 -32.357201 127.9
-24.537701 -32.271702 127.734
-24.473801 -32.2351 128.05299
-24.468 -32.3195 127.95
-24.405899 -32.3857 128.022
-24.4196 -32.3834 127.987
-23.9084 -31.8402 128.55701
-23.755501 -31.697701 128.578
-23.662701 -31.634199 128.629
-23.652901 -31.638201 128.60201
-23.689501 -31.5802 128.521
-23.6688 -31.616899 128.56799
-24.197599 -32.127499 128.409
-24.0728 -31.9979 128.505
-23.9046 -31.870899 128.625
-23.8937 -31.864201 128.593
-23.940001 -31.7948 128.489
-23.9312 -31.814301 128.51199
-24.2801 -32.2244 128.306
-24.199499 -32.1586 128.48399
-24.183701 -32.153301 128.448
-24.2244 -32.077499 128.33501
-24.2181 -32.097599 128.36099
-24.3342 -32.317902 128.254
-24.318399 -32.303299 128.23199
-24.3475 -32.265701 128.136
-24.323999 -32.290401 128.2
-23.8701 -30.786301 127.959
-23.8466 -30.763 127.945
-23.8545 -30.771799 127.95
-23.658199 -31.0413 128.22301
-23.7502 -30.8925 128.08299
-23.9797 -30.851 127.98
-23.9027 -30.805799 127.967
-24.4559 -30.988501 127.8
-24.771299 -31.3629 127.619
-24.6591 -31.1712 127.717
-24.5252 -30.8304 127.618
-24.509701 -30.8659 127.656
-24.127399 -30.7904 127.867
-24.249399 -30.839701 127.836
-24.277201 -31.341999 128.175
-24.3797 -31.1527 127.981
-24.833 -31.6078 127.477
-24.8265 -31.517099 127.513
-24.8477 -31.238501 127.454
-24.830999 -31.2637 127.487
-24.580999 -31.675301 127.979
-24.688999 -31.503901 127.789
-24.871 -31.5842 127.37
-24.7973 -31.747499 127.475
-24.820601 -31.671 127.47
-24.680901 -31.941401 127.694
-24.758101 -31.827101 127.545
-24.6504 -31.819799 127.839
-24.578899 -32.085899 127.865
-24.6766 -32.077599 127.54
-24.687401 -32.033001 127.581
-23.745399 -31.722 128.63901
-23.6908 -31.619699 128.64799
-23.686199 -31.6339 128.655
-23.615 -31.587 128.601
-23.6299 -31.6017 128.61
-24.0707 -32.030998 128.577
-23.9484 -31.8384 128.629
-23.9231 -31.8627 128.64301
-24.2862 -32.257301 128.371
-24.241501 -32.125801 128.481
-24.219801 -32.150501 128.49899
-24.3561 -32.316502 128.271
-24.371599 -32.370399 128.12601
-24.353001 -32.347099 128.181
-23.524099 -31.4142 128.509
-23.549999 -31.395201 128.52
-23.592501 -31.028799 128.21201
-23.5142 -31.2131 128.36
-23.514 -31.437799 128.491
-23.575899 -31.5322 128.57899
-23.5625 -31.507999 128.565
-24.657801 -32.0919 127.505
-24.667801 -32.087299 127.516
-24.798599 -31.832001 127.37
-24.746599 -31.9445 127.446
-24.5926 -32.197102 127.656
-24.360201 -31.9916 128.328
-24.4624 -31.845301 128.16701
-24.462 -31.516199 128.09801
-24.0637 -31.689501 128.506
-24.166201 -31.528601 128.35699
-23.857401 -31.1043 128.22701
-24.0653 -31.200199 128.222
-23.6136 -31.031799 128.21899
-23.5847 -31.208799 128.37199
-23.741501 -31.0655 128.22501
-24.240999 -31.85 128.439
-24.3022 -32.062302 128.411
-24.3181 -32.0471 128.38901
-24.437599 -32.120098 128.19099
-23.878201 -31.5432 128.53799
-24.0051 -31.772499 128.573
-24.019699 -31.7547 128.55701
-24.5075 -32.292301 127.728
-24.509899 -32.2831 127.729
-23.5951 -31.405899 128.52901
-24.879299 -31.584 127.333
-24.791201 -31.8522 127.35
-24.836901 -31.7251 127.33
-24.9056 -31.575001 127.314
-24.890499 -31.5839 127.327
-24.889 -31.431101 127.373
-24.874201 -31.592501 127.339
-24.874399 -31.223 127.443
-24.859699 -31.2334 127.451
-24.735901 -31.0285 127.535
-24.5399 -30.8104 127.615
-24.5313 -30.8225 127.617
-24.116199 -30.671101 127.767
-24.2868 -30.6994 127.692
-24.841299 -31.7118 127.346
-24.6339 -32.1847 127.363
-24.6689 -32.095901 127.452
-24.7243 -31.971701 127.413
-23.479 -31.363001 128.442
-23.5378 -31.428301 128.466
-23.628099 -31.5518 128.528
-23.601101 -31.528099 128.515
-24.384701 -32.361698 128.048
-24.3752 -32.336498 128.03101
-24.366199 -32.317402 128.05499
-24.373699 -32.326401 128.036
-25.3659 -31.211599 126.745
-25.1159 -31.0748 127.31
-25.1919 -31.2586 127.091
-23.256201 -31.0895 128.06599
-23.3153 -31.4491 128.412
-23.271999 -31.3004 128.27299
-23.428301 -31.015499 128.168
-23.3479 -31.0326 128.129
-23.2225 -31.702 128.231
-23.421301 -32.056801 128.015
-23.2899 -31.8682 128.117
-23.434299 -31.8591 128.46001
-23.329399 -31.803301 128.371
-23.2437 -31.555401 128.33099
-23.114901 -31.414301 127.869
-23.149099 -31.564199 128.058
-23.481701 -31.703199 128.589
-23.4319 -31.781601 128.51601
-23.599701 -32.116402 128.354
-23.483801 -31.9562 128.41
-23.690901 -30.8113 128.058
-23.6684 -30.725599 128
-23.6714 -30.794001 128.05701
-23.573099 -31.0063 128.19099
-23.6493 -30.8668 128.09599
-23.846399 -30.735001 127.946
-23.7267 -30.8002 128.033
-23.8417 -30.7043 127.947
-23.851 -30.749399 127.942
-24.1215 -30.641701 127.767
-23.9818 -30.6747 127.853
-24.4711 -32.293598 127.12
-24.5739 -32.255001 127.238
-24.857 -31.8937 126.977
-24.724001 -32.052399 127.201
-24.5068 -32.375599 127.643
-24.5634 -32.295898 127.504
-24.3547 -32.463902 127.455
-24.453899 -32.434898 127.553
-24.5156 -32.329498 127.695
-25.048 -31.5278 127.052
-24.942499 -31.573099 127.254
-23.908199 -32.402401 128.179
-23.747601 -32.2799 128.28101
-23.7563 -32.010601 128.567
-23.6731 -32.073002 128.472
-23.515499 -32.113201 128.20399
-24.1908 -32.513901 127.871
-24.062201 -32.479099 128.037
-24.1007 -32.3382 128.368
-24.0084 -32.383598 128.289
-23.721399 -32.3843 127.848
-23.811001 -32.4011 128.02699
-24.687201 -31.9981 126.713
-24.7946 -31.9561 126.844
-25.1705 -31.5662 126.546
-25.0235 -31.723101 126.736
-24.890699 -31.828699 127.104
-24.961399 -31.6446 126.23
-24.535 -31.5364 126.028
-24.781099 -31.625299 126.097
-25.0898 -31.4804 126.035
-25.0877 -31.6173 126.391
-24.8349 -31.8153 126.455
-23.2929 -30.844801 127.782
-23.2645 -30.979 127.932
-23.1656 -31.2444 128.00101
-24.227699 -32.4356 128.203
-24.193701 -32.209202 128.416
-24.1693 -32.272099 128.412
-23.9363 -32.1908 128.49001
-24.9454 -31.1807 127.41
-24.756201 -31.013 127.53
-24.9181 -31.416599 127.354
-24.741899 -30.640499 127.546
-24.963699 -30.8498 127.454
-25.297501 -30.9244 127.167
-25.265499 -30.5564 127.208
-25.4963 -30.9317 126.832
-23.8806 -31.905001 128.59801
-23.832199 -31.9484 128.612
-23.5952 -31.8365 128.599
-24.596001 -30.762899 127.601
-24.2978 -30.6716 127.687
-24.9146 -30.490299 127.447
-24.2929 -30.327 127.561
-24.482599 -30.445801 127.574
-24.7883 -30.1418 127.356
-23.144699 -31.1388 127.492
-23.1199 -31.2824 127.68
-23.2952 -31.8372 127.604
-23.168699 -31.621901 127.728
-23.2728 -31.595501 127.21
-23.1574 -31.3617 127.336
-23.2005 -30.9613 127.65
-23.235201 -30.7939 127.095
-23.1819 -30.974501 127.298
-23.388201 -31.239401 126.767
-23.263901 -31.0189 126.902
-23.3757 -30.5277 127.481
-23.2819 -30.613899 127.302
-23.4161 -30.3717 126.675
-23.316299 -30.596201 126.887
-23.5417 -30.1395 126.449
-23.582199 -30.7931 126.284
-23.4494 -30.5851 126.447
-23.572701 -30.121599 127.144
-23.457399 -30.202801 126.918
-23.773001 -30.1257 126.001
-23.8405 -29.685699 126.721
-23.7118 -29.775299 126.482
-23.3354 -31.9515 127.801
-23.559999 -32.2449 127.93
-23.2673 -31.7267 127.405
-23.641899 -32.244499 127.44
-23.4543 -32.0592 127.507
-23.312401 -31.435101 127
-23.652 -32.018299 127.053
-23.4471 -31.818701 127.114
-23.7209 -30.556499 126.056
-24.010401 -31.1975 126.062
-23.781099 -30.9949 126.166
-23.478901 -31.0256 126.521
-24.127701 -30.5373 125.727
-23.659401 -32.334599 127.637
-23.995199 -32.500301 127.722
-23.8825 -32.466099 127.763
-23.6369 -32.1399 127.242
-24.052601 -32.426899 127.353
-23.847799 -32.365101 127.383
-23.7796 -31.6528 126.589
-23.703199 -31.850901 126.847
-24.121099 -32.258499 126.997
-23.886 -32.165501 127.016
-23.8846 -31.425699 126.322
-24.2911 -31.948601 126.547
-24.0217 -31.8244 126.544
-23.564301 -31.4522 126.666
-24.2631 -31.3874 126.014
-24.159401 -30.978901 125.833
-24.555401 -31.001101 125.613
-23.8209 -30.478201 127.779
-23.9338 -30.5098 127.8
-24.4314 -30.1467 127.445
-23.977301 -30.149599 127.496
-24.136801 -30.229401 127.545
-24.1679 -30.495399 127.697
-24.3806 -29.852301 127.253
-24.0777 -29.935499 127.317
-23.766001 -30.1059 127.39
-23.834801 -30.113701 127.436
-23.8913 -30.346399 127.66
-24.012199 -29.663799 126.978
-23.693501 -29.8923 126.929
-23.4573 -30.342501 127.321
-23.698999 -30.1031 127.326
-24.0228 -32.478802 127.542
-24.0835 -32.514702 127.761
-24.0832 -32.353001 127.168
-24.218201 -32.458698 127.383
-24.187 -32.1353 126.812
-24.320801 -32.2976 127.037
-24.4142 -31.739201 126.27
-24.528999 -32.0084 126.606
-24.658899 -31.3545 125.813
-25.036301 -31.279301 125.716
-24.563299 -32.161499 126.944
-25.3624 -31.307301 126.053
-25.4855 -31.161501 126.429
-25.3009 -31.4083 126.383
-25.2026 -31.4828 126.722
-24.2871 -32.481602 128.006
-24.3734 -32.419498 128.03101
-24.4111 -32.385899 127.282
-24.286501 -32.510399 127.655
-23.388599 -31.586201 128.52699
-23.403099 -31.3939 128.455
-23.6119 -31.6392 128.60899
-23.5495 -31.653299 128.62601
-24.8048 -31.8559 127.333
-24.8601 -31.708599 127.311
-23.437 -31.2369 128.347
-23.5375 -31.5222 128.55299
-24.4454 -32.359001 127.865
-23.7208 -31.753099 128.62399
-23.688299 -31.6057 128.53101
-23.653299 -31.6392 128.565
-24.0518 -32.0695 128.528
-23.932199 -31.825899 128.508
-23.902599 -31.874399 128.55299
-24.301001 -32.3092 128.255
-24.227699 -32.106201 128.339
-24.196199 -32.161301 128.39
-23.7647 -30.574499 127.869
-23.7136 -30.4632 127.765
-23.329599 -30.692499 127.629
-23.578899 -30.4734 127.69
-23.493099 -30.4925 127.612
-23.556499 -30.995199 128.19099
-23.583599 -31.0226 128.198
-23.487301 -31.009001 128.186
-23.471001 -30.7477 127.93
-23.444 -30.8841 128.05499
-23.691 -31.5982 128.638
-23.6502 -31.583599 128.633
-23.6005 -31.563499 128.59399
-23.616501 -31.6021 128.584
-23.7064 -31.568399 128.49699
-23.7766 -31.652599 128.511
-23.9501 -31.7864 128.466
-24.1015 -31.948999 128.43201
-24.236601 -32.069 128.31
-24.3081 -32.186199 128.22701
-24.365 -32.2645 128.092
-24.3514 -32.356098 128.117
-24.385799 -32.381699 128.082
-24.3825 -32.302299 128.233
-24.3885 -32.3535 128.17101
-23.674601 -31.551701 128.614
-23.832399 -31.633801 128.60699
-23.9814 -31.8078 128.601
-23.986 -31.792999 128.593
-24.1791 -31.9275 128.511
-24.272499 -32.0942 128.44901
-24.2806 -32.080002 128.437
-24.4153 -32.289299 128.17
-24.3806 -32.185001 128.293
-24.4221 -32.358101 128.071
-24.432899 -32.280998 128.13
-24.3951 -32.298698 128.21001
-23.6131 -31.5336 128.60699
-23.685101 -31.580799 128.63
-23.6654 -31.5215 128.599
-23.7701 -31.281 128.394
-23.931101 -30.9464 128.076
-24.118099 -30.6898 127.782
-24.0401 -30.8036 127.916
-23.980301 -30.7036 127.85
-24.118299 -30.6619 127.77
-24.119301 -30.6103 127.765
-23.3904 -30.7808 127.876
-23.5138 -30.611601 127.805
-23.5872 -30.7159 127.972
-23.5301 -30.728701 127.956
-23.8041 -30.6738 127.948
-23.645901 -30.464199 127.736
-23.664301 -30.312901 127.56
-23.790199 -31.6998 128.64799
-23.6919 -31.610399 128.644
-24.115999 -31.9956 128.575
-23.965 -31.822201 128.61501
-24.3241 -32.236198 128.37199
-24.256399 -32.1073 128.467
-24.3687 -32.307999 128.255
-24.8048 -31.7967 127.4
-24.7911 -31.847401 127.358
-24.7957 -31.8568 127.344
-24.820499 -31.8482 127.296
-23.569201 -31.5443 128.556
-23.641001 -31.5453 128.51401
-23.774 -31.6803 128.52901
-24.1019 -31.9751 128.436
-24.314199 -32.2192 128.22099
-24.380501 -32.3759 128.015
-23.816999 -31.6723 128.631
-24.1516 -31.9608 128.54201
-24.348301 -32.210201 128.343
-23.634199 -30.7153 127.988
-23.563101 -30.8514 128.086
-23.613001 -30.5958 127.868
-23.702499 -30.8717 128.069
-25.208 -31.375 126.894
-24.7353 -31.975901 127.395
-24.5837 -32.206501 127.631
-24.5804 -32.236401 127.582
-24.388201 -32.4781 127.749
-23.6703 -31.569099 128.526
-23.670401 -31.5474 128.50301
-23.491199 -31.206499 128.342
-23.4695 -31.2265 128.343
-23.489401 -31.1171 128.267
-23.347 -31.1369 128.226
-23.2554 -31.1721 128.151
-23.425699 -31.131701 128.263
-24.006201 -30.5436 127.793
-23.7327 -30.631399 127.918
-23.680401 -31.4375 128.532
-28.5175 -33.422199 121.853
-28.362 -33.741001 122.023
-27.893101 -33.8032 121.82
-27.972401 -33.457001 121.625
-27.413799 -34.0242 121.908
-29.171301 -32.186798 122.801
-29.355101 -32.334499 122.462
-29.4431 -32.4744 122.191
-28.9715 -32.1614 123.138
-26.712799 -33.93 122.732
-27.969601 -33.145199 123.96
-27.821501 -34.273998 121.991
-28.2635 -34.160099 122.142
-28.482599 -32.185699 123.637
-28.7962 -32.8755 123.417
-28.4237 -33.056 121.244
-28.7236 -33.059601 121.485
-29.174299 -32.757599 121.426
-28.9452 -32.7878 121.23
-27.409901 -34.4016 122.044
-26.9445 -34.437302 122.301
-26.6397 -34.290798 122.875
-28.1978 -35.534698 124.32
-27.663099 -35.725399 124.673
-28.1567 -35.810699 124.416
-28.3948 -35.944901 123.859
-28.4713 -35.566601 123.742
-28.2763 -36.099098 123.265
-28.3491 -35.711498 123.143
-27.915001 -36.251801 122.876
-27.981701 -35.859501 122.752
-27.4293 -36.3353 122.703
-27.506399 -35.971199 122.603
-26.9741 -36.466999 122.834
-27.1245 -35.959202 122.646
-27.8993 -33.919601 124.053
-27.9972 -33.5196 123.974
-27.389601 -33.541 123.893
-27.2561 -33.927601 123.97
-28.636999 -33.3988 123.609
-28.8839 -33.457298 123
-29.0825 -33.011501 122.724
-28.7549 -33.681801 122.401
-28.9317 -33.381199 122.221
-28.3519 -36.324001 123.994
-28.1166 -36.0555 124.505
-27.6397 -35.9613 124.753
-27.004299 -35.931599 124.59
-27.869301 -36.696999 123.018
-28.117599 -36.832001 123.471
-27.7122 -36.965698 123.143
-27.229401 -36.8936 122.955
-27.368999 -36.653599 122.806
-26.841 -36.670399 122.973
-26.5979 -36.403198 123.176
-26.6551 -36.009102 124.164
-26.652901 -36.073601 124.217
-26.658899 -36.306599 123.109
-26.8424 -33.7528 123.377
-26.5054 -36.1362 123.632
-26.488501 -36.214901 123.692
-28.758699 -33.924099 123.179
-28.496901 -33.883499 123.772
-26.7712 -34.114201 123.506
-28.3402 -34.733501 124.042
-28.622801 -34.7826 123.468
-28.6334 -34.052502 122.572
-28.5075 -34.9128 122.874
-28.1544 -35.053001 122.45
-27.322901 -35.2034 122.327
-27.710899 -35.1633 122.285
-26.8571 -35.172501 122.613
-26.711201 -35.916302 122.94
-26.545799 -35.049198 123.163
-26.4977 -35.823299 123.45
-26.6586 -34.908001 123.769
-26.634199 -35.705799 124.008
-27.128201 -34.756699 124.206
-27.046101 -35.6008 124.459
-27.8078 -34.719101 124.314
-28.239 -36.6675 124.117
-28.226999 -36.486401 123.374
-29.288401 -32.871399 122.247
-29.363199 -32.7939 122.021
-29.243 -32.8983 121.794
-29.117901 -33.102699 121.984
-29.057699 -32.952202 121.601
-28.875 -33.137901 121.739
-29.3521 -32.686699 121.61
-29.4639 -32.5802 121.915
-28.159599 -32.624401 123.908
-28.5541 -32.577202 123.601
-28.2999 -32.6115 123.813
-27.156601 -34.227001 122.064
-27.6406 -34.092201 121.908
-27.413099 -34.176701 121.967
-27.1464 -34.783298 122.259
-27.1745 -34.440601 122.138
-26.7612 -34.160198 122.48
-26.921499 -34.226398 122.226
-27.1514 -34.0868 122.009
-26.714399 -34.716 122.695
-26.750601 -34.374901 122.557
-26.698999 -33.977501 123.109
-26.680099 -34.0606 122.779
-26.7526 -34.025799 122.456
-28.091499 -33.946999 121.955
-27.860201 -34.004501 121.899
-27.577499 -34.730099 122.109
-27.617001 -34.3405 121.994
-27.6574 -33.913399 121.837
-28.934099 -32.519798 123.221
-28.836901 -32.497501 123.338
-29.107599 -32.6082 122.888
-29.000099 -32.537998 123.112
-29.101601 -32.140099 122.935
-28.3958 -33.264198 121.568
-28.214899 -33.278801 121.474
-28.6973 -32.956299 121.303
-28.712 -32.896599 121.22
-29.002399 -32.885601 121.431
-28.8664 -32.913898 121.36
-28.575399 -33.0755 121.4
-29.0779 -32.777699 121.341
-29.2188 -32.834202 121.607
-29.263201 -32.734798 121.515
-28.170401 -33.595501 121.824
-28.2509 -33.435398 121.726
-28.7055 -33.195099 121.675
-28.5781 -33.250099 121.654
-29.408001 -32.694099 122.131
-29.4608 -32.536098 122.064
-28.3936 -33.259701 123.786
-28.4648 -33.001801 123.72
-28.739 -32.1796 123.403
-28.5147 -33.871799 122.244
-28.312099 -33.911301 122.074
-27.9928 -34.634701 122.168
-28.042801 -34.2159 122.04
-28.1285 -33.762402 121.893
-29.265499 -32.256401 122.633
-27.9147 -33.624401 121.746
-28.648199 -33.5676 122.12
-28.4195 -33.587799 121.958
-28.0996 -36.690701 123.261
-28.097799 -36.372501 123.098
-28.0851 -36.572899 123.171
-28.2698 -36.602299 123.705
-28.1989 -36.6633 123.43
-27.9645 -36.854698 123.242
-28.0187 -36.780201 123.225
-28.8797 -33.045399 121.587
-28.810301 -33.107899 121.634
-28.8535 -33.2845 121.95
-28.7253 -33.2761 121.817
-28.249201 -36.513302 124.227
-28.180401 -36.612099 124.326
-28.171 -36.781101 124.18
-28.1716 -36.7216 124.261
-27.851101 -37.055199 123.383
-27.3951 -37.0513 123.102
-27.630899 -37.078602 123.228
-27.9182 -36.936401 123.291
-28.1199 -36.925999 123.822
-28.0229 -36.999599 123.578
-26.8487 -36.205399 122.863
-26.7666 -36.431801 122.982
-26.795799 -36.375801 122.947
-26.5597 -36.101101 123.281
-26.678699 -36.172001 123.046
-27.003099 -35.5947 122.611
-26.9128 -35.938301 122.759
-27.240601 -36.217701 122.677
-27.043301 -36.223202 122.74
-27.1961 -36.487499 122.764
-27.653 -36.492901 122.805
-27.4228 -36.493801 122.745
-27.0849 -36.703701 122.873
-27.1647 -36.5951 122.803
-27.216101 -36.369701 122.725
-27.695499 -36.1497 122.718
-27.673599 -36.301399 122.755
-27.8955 -36.456799 122.929
-27.547199 -36.834499 122.946
-27.609501 -36.6875 122.873
-29.083599 -33.0275 121.768
-29.156401 -32.929199 121.689
-29.2752 -32.926601 122.017
-29.1882 -32.9972 121.882
-28.988701 -33.139198 121.857
-28.9877 -33.037601 121.678
-29.125601 -33.1059 122.284
-29.02 -33.230999 122.1
-28.731899 -33.4314 122.042
-28.1441 -36.017101 122.994
-28.1196 -36.180401 123.045
-28.341101 -36.181702 123.596
-28.249001 -36.2677 123.312
-28.156099 -36.8452 124.064
-26.5231 -36.178299 124.002
-26.466101 -36.364498 123.457
-26.459101 -36.259701 123.733
-26.7826 -36.049801 124.464
-26.6371 -36.109798 124.251
-26.554001 -36.112099 123.946
-26.5464 -36.138199 123.968
-26.535 -36.2761 123.386
-26.511299 -36.311401 123.41
-26.635201 -36.6105 123.102
-26.5299 -36.480801 123.231
-26.6003 -34.5625 123.328
-26.6532 -34.2057 123.201
-27.031601 -33.7822 123.703
-26.8151 -33.887299 123.425
-26.7341 -33.8442 123.05
-27.7969 -33.429401 123.983
-27.615999 -33.692299 124.004
-27.685699 -33.549999 123.985
-28.0585 -33.3587 123.95
-27.6971 -33.392899 123.959
-28.2959 -36.010502 124.207
-28.366699 -36.1035 123.903
-28.3113 -36.402599 123.652
-28.4063 -35.858002 123.501
-28.3745 -36.019001 123.549
-26.9629 -36.863602 123.002
-27.1724 -36.9715 123.021
-27.4736 -36.950401 123.021
-28.877199 -33.173901 123.219
-28.959801 -32.919399 123.1
-29.302799 -32.681099 122.42
-29.2187 -32.660099 122.63
-29.122601 -32.857899 121.514
-28.9359 -32.9804 121.529
-29.370701 -32.755901 121.857
-29.2976 -32.804001 121.718
-29.2024 -32.9226 122.423
-28.9508 -33.4133 122.584
-29.046 -33.232601 122.451
-29.214701 -33.011299 122.133
-29.322399 -32.844002 121.927
-29.3466 -32.825199 122.118
-29.4123 -32.653099 121.772
-29.413099 -32.712002 122.003
-29.367399 -32.688599 122.263
-29.4114 -32.408298 122.321
-27.911699 -35.8699 124.637
-28.136801 -35.9268 124.456
-27.933701 -35.7001 124.568
-27.9217 -35.757198 124.597
-27.662701 -35.837399 124.712
-27.863199 -36.151501 124.734
-27.900801 -36.004601 124.678
-28.017099 -35.1819 124.386
-28.4438 -35.1856 123.929
-28.257799 -35.1796 124.198
-28.162901 -34.281101 124.071
-28.1 -34.721802 124.223
-27.3974 -35.192402 124.467
-27.7293 -35.185001 124.482
-27.9622 -35.5424 124.511
-28.2827 -33.646801 123.89
-28.2243 -33.9002 123.958
-28.7537 -33.6078 123.403
-28.570499 -33.6096 123.684
-28.338301 -33.455002 123.839
-27.9461 -33.684601 124.001
-27.833599 -35.564098 122.512
-27.931601 -35.114201 122.338
-28.266199 -35.426601 122.788
-28.065399 -35.497501 122.613
-27.7411 -35.926701 122.653
-27.4179 -35.6213 122.456
-27.6073 -35.6101 122.464
-28.417101 -34.515701 122.469
-28.216101 -34.579601 122.284
-27.7719 -34.681301 122.11
-27.5184 -35.192001 122.279
-27.311899 -35.975899 122.599
-27.229099 -35.612 122.5
-28.2024 -36.771599 123.764
-28.3048 -36.5266 124.066
-28.227501 -36.304298 124.344
-28.339399 -35.740898 124.121
-28.3186 -35.873501 124.162
-28.262699 -36.1474 124.274
-28.5993 -34.2967 123.626
-28.4149 -34.2859 123.892
-27.519501 -34.279499 124.166
-27.8578 -34.2813 124.164
-27.3283 -35.783401 124.648
-26.805099 -35.8531 124.345
-27.033899 -35.8009 124.537
-27.349899 -35.587101 124.59
-27.4643 -34.726398 124.307
-26.818701 -35.285 124.152
-27.071699 -35.2257 124.354
-26.9167 -34.381401 123.885
-27.191099 -34.304699 124.074
-27.5697 -33.912201 124.061
-26.5359 -35.965 123.836
-26.643 -35.905998 124.102
-26.7957 -35.998402 124.399
-26.7889 -35.959801 124.38
-26.813801 -35.648499 124.261
-26.8554 -34.826401 124.019
-26.521799 -35.418598 123.615
-26.634001 -35.3531 123.899
-26.9816 -34.007999 123.773
-26.7134 -34.478401 123.627
-26.501801 -36.026501 123.556
-26.551001 -36.067001 123.909
-26.5247 -35.764801 123.732
-26.5506 -34.981602 123.475
-26.601999 -35.520901 123.034
-26.500799 -35.475101 123.321
-26.593599 -34.639999 123.01
-26.5506 -36.221401 123.351
-26.5609 -35.882301 123.182
-26.661501 -35.118198 122.866
-26.780001 -35.563702 122.788
-26.9123 -34.77 122.428
-26.7803 -36.738499 123.034
-26.694401 -36.536499 123.05
-27.089899 -35.2001 122.435
-27.378201 -34.766102 122.159
-27.017099 -36.791401 122.942
-28.351601 -34.984402 122.633
-28.5263 -35.2756 123.308
-28.423201 -35.351299 123.023
-28.187901 -35.787102 122.915
-28.4678 -34.111 122.329
-28.678301 -34.3801 123.004
-28.577101 -34.4482 122.714
-28.790199 -33.744202 122.767
-28.6877 -33.832401 122.482
-28.5763 -33.712399 122.186
-28.607599 -34.841499 123.16
-28.5434 -35.213699 123.62
-28.4534 -35.630402 123.429
-28.739901 -33.978298 122.862
-28.694099 -34.325401 123.316
-28.8251 -33.6492 123.084
-28.8552 -33.582699 122.681
-28.524 -34.749699 123.776
-28.374599 -35.539799 124.052
-28.6782 -33.889198 123.5
-27.311399 -33.7048 123.908
-27.064301 -33.651901 123.662
-28.822599 -33.390598 123.315
-27.2817 -36.016201 124.753
-26.985399 -36.0098 124.633
-26.783199 -36.016399 124.421
-26.5016 -36.185299 123.668
-26.648899 -36.0546 124.184
-26.6255 -36.361599 123.151
-26.7363 -36.476601 123.009
-27.305201 -35.938801 124.713
-26.903999 -36.6106 122.913
-27.304399 -36.784698 122.878
-27.7911 -36.852901 123.083
-27.605101 -36.0592 124.797
-28.0823 -36.240398 124.566
-28.843901 -33.527802 122.309
-28.9592 -33.262199 122.894
-28.704599 -33.180698 123.527
-27.4527 -36.193901 122.668
-27.937901 -36.088001 122.83
-28.303301 -35.937599 123.216
-28.4265 -35.789101 123.813
-28.172701 -35.7118 124.384
-26.8682 -34.133999 122.185
-28.159201 -33.107899 123.889
-27.6784 -35.5639 124.619
-26.995199 -36.383499 122.802
-26.9352 -36.557499 122.878
-28.1073 -36.5172 124.499
-27.9925 -36.4519 124.653
-27.5322 -36.188301 124.86
-26.9438 -36.108299 124.695
-26.5888 -36.1912 124.312
-26.7033 -36.846401 123.12
-27.100901 -37.0723 123.105
-26.441099 -36.5984 123.319
-27.937099 -37.111801 123.656
-28.0889 -36.942299 124.102
-27.5446 -37.1898 123.317
-26.395901 -36.347698 123.806
-28.0783 -36.776199 124.401
-26.921301 -37.443699 125.413
-26.7663 -37.751301 125.532
-27.182899 -37.925201 125.229
-27.369301 -37.590801 125.078
-26.3647 -37.608002 125.463
-26.2936 -37.704601 125.525
-26.5068 -37.996799 123.71
-26.3351 -38.263 123.879
-25.999201 -38.149399 123.94
-26.157499 -37.8792 123.76
-25.775499 -37.953701 124.156
-25.8806 -37.740799 124.007
-25.778299 -37.685699 124.614
-25.860399 -37.483101 124.496
-26.0289 -37.5741 125.105
-26.0882 -37.3708 124.993
-26.4408 -37.388401 125.366
-27.3106 -38.130901 124.775
-27.5114 -37.810902 124.611
-27.145399 -38.264099 124.333
-27.340099 -37.962502 124.181
-26.746901 -38.311199 123.995
-26.918699 -38.035801 123.843
-26.347 -36.6129 124.616
-26.1308 -36.7854 124.11
-26.840799 -37.453201 123.376
-26.452801 -37.283401 123.402
-26.176001 -37.070499 123.614
-25.709499 -37.7798 124.696
-25.988001 -37.665401 125.172
-26.7085 -36.587799 124.994
-27.3111 -36.723801 125.109
-27.753799 -36.988201 124.811
-27.788799 -37.313801 124.368
-28.0035 -37.042599 124.172
-27.8318 -37.214802 123.736
-27.612 -37.491501 123.926
-27.239201 -37.531502 123.555
-27.933599 -36.758499 124.675
-28.0427 -36.609699 124.563
-27.744801 -37.1884 123.504
-27.782101 -37.155201 123.47
-28.077499 -36.886799 124.286
-28.1063 -36.854198 124.253
-26.3605 -36.409199 124.195
-26.4701 -36.259399 124.068
-26.2666 -36.647999 123.668
-26.386999 -36.460701 123.538
-27.196501 -37.298302 123.299
-27.3181 -37.150002 123.182
-27.980101 -37.096802 123.918
-28.038799 -37.034698 123.879
-26.4317 -36.9198 123.315
-26.5495 -36.7253 123.19
-26.7827 -37.1376 123.213
-26.891399 -36.966499 123.087
-26.640301 -36.299198 124.651
-26.738199 -36.136101 124.526
-27.126101 -36.323002 124.934
-27.2313 -36.128899 124.813
-27.7771 -36.281101 124.805
-28.047501 -36.996498 124.134
-27.954 -37.008701 124.454
-28.0443 -36.9189 124.326
-27.8887 -37.1623 123.699
-27.582899 -37.348999 123.601
-27.7006 -37.235802 123.532
-27.8393 -37.2551 124.036
-27.930099 -37.148499 123.956
-26.4235 -37.783699 125.614
-26.507601 -37.725899 125.573
-26.444 -37.7616 125.603
-26.1217 -37.692101 125.395
-26.273199 -37.7258 125.546
-25.635799 -37.9058 124.501
-25.6952 -37.8638 124.416
-25.6532 -37.888802 124.478
-25.811001 -37.724201 124.957
-25.6859 -37.7995 124.714
-25.9685 -37.686298 125.193
-26.166201 -37.6287 125.346
-26.142599 -37.669701 125.376
-25.8585 -37.661999 124.904
-25.8328 -37.7033 124.936
-27.416201 -36.382801 124.967
-27.6742 -36.533401 124.9
-27.874399 -36.678398 124.755
-27.9522 -36.854401 124.586
-26.863701 -37.777802 123.603
-26.6029 -38.187099 123.846
-26.7043 -38.031799 123.752
-26.4755 -37.668701 123.547
-26.666401 -37.734699 123.551
-27.0392 -37.507301 123.439
-27.2866 -37.7701 123.863
-27.070101 -37.790798 123.706
-26.4335 -38.4734 124.005
-26.868799 -38.472401 124.22
-26.652201 -38.4884 124.08
-26.052299 -38.346298 123.987
-26.2318 -38.421501 123.976
-26.5313 -38.305401 123.915
-26.988001 -37.231201 123.229
-27.3971 -37.339298 123.424
-27.142799 -38.431801 124.646
-27.039101 -38.465302 124.418
-27.0464 -38.159 124.075
-26.9659 -38.284698 124.138
-27.5907 -37.664501 124.272
-27.4716 -37.730701 124.06
-27.147499 -38.004501 123.989
-27.440701 -37.5266 123.723
-27.731701 -37.3237 123.814
-27.7248 -37.423199 124.145
-27.6299 -37.430801 124.72
-27.6434 -37.563202 124.491
-27.3533 -38.071701 124.478
-27.4597 -37.901699 124.39
-27.9151 -37.147301 124.258
-27.808201 -37.165401 124.592
-27.1859 -38.2183 125.098
-27.3762 -37.8825 124.938
-27.288601 -38.028099 125.006
-26.903 -37.973801 125.477
-27.0921 -38.095501 125.302
-27.194799 -38.3377 124.873
-27.481899 -37.698299 124.847
-27.34 -37.179199 125.128
-27.5322 -37.2966 124.94
-27.0637 -37.6992 125.365
-26.990101 -37.8302 125.414
-26.698799 -37.820499 125.57
-27.1709 -37.502602 125.277
-27.553801 -36.8549 124.997
-26.809 -37.031799 125.274
-27.0833 -37.089401 125.248
-26.6038 -37.593399 125.509
-26.8197 -37.643398 125.496
-26.6588 -37.418701 125.447
-26.205999 -37.519299 125.279
-26.393 -37.5466 125.433
-26.5625 -37.6651 125.539
-26.348301 -37.000301 125.047
-26.5509 -37.004601 125.203
-26.981001 -36.630798 125.085
-26.8437 -36.284901 124.818
-26.0084 -37.6255 125.142
-26.3319 -37.664398 125.496
-26.1882 -37.575001 125.312
-26.505501 -36.585098 124.832
-26.047899 -37.071201 124.589
-26.184401 -37.0205 124.832
-26.2514 -37.366402 125.206
-26.485901 -36.3419 124.437
-25.902599 -37.5513 124.83
-25.882 -37.608898 124.865
-25.7428 -37.741199 124.655
-26.2768 -36.505501 123.932
-26.2153 -36.679699 124.372
-25.783501 -37.754799 124.319
-25.7437 -37.813099 124.366
-25.795401 -38.115101 124.088
-25.712799 -38.000198 124.218
-25.958599 -37.284401 124.053
-26.1199 -36.925598 123.841
-26.1387 -37.5135 123.671
-26.0189 -37.416599 123.818
-25.836599 -37.612999 124.235
-25.9657 -37.159401 124.325
-26.320299 -36.797298 123.446
-25.912701 -38.229698 124.02
-25.913799 -37.988098 123.962
-25.868 -38.0686 124.022
-26.2924 -37.186401 123.477
-26.298599 -37.592499 123.588
-26.0021 -37.819 123.852
-26.5914 -37.029999 123.247
-26.2286 -38.104198 123.816
-26.1595 -38.211399 123.888
-26.3249 -37.941299 123.713
-26.6406 -37.375198 123.366
-27.256001 -38.221699 124.552
-25.9506 -37.405701 124.752
-26.4065 -38.154598 123.81
-26.819901 -38.1889 123.932
-27.2353 -38.123699 124.265
-27.4046 -37.987 124.701
-27.2628 -37.782501 125.169
-26.0434 -37.519199 125.069
-25.8081 -37.625401 124.577
-25.822201 -37.8941 124.099
-26.0662 -38.044498 123.867
-26.0816 -38.533699 124.089
-26.9545 -38.245998 125.405
-26.9135 -38.643501 124.511
-26.5294 -38.646702 124.178
-25.8081 -38.290298 124.104
-25.625999 -38.027401 124.306
-25.66 -37.8162 124.741
-25.938499 -37.701801 125.214
-26.245001 -37.743 125.564
-26.6026 -37.8918 125.628
-27.063101 -38.510601 124.979
-24.8472 -39.781101 126.332
-24.9641 -39.657501 126.397
-24.9258 -39.620998 126.444
-24.824699 -39.755001 126.364
-24.5758 -39.894199 125.828
-24.572901 -39.796299 125.653
-24.681299 -39.8218 125.758
-24.825199 -39.805599 126.001
-24.6964 -39.8894 126.096
-24.938299 -39.728298 126.253
-24.839899 -39.692902 126.354
-24.672701 -39.8223 126.109
-24.6611 -39.8871 126.117
-24.557899 -39.815102 125.837
-24.5338 -39.8801 125.825
-24.5072 -39.7714 125.656
-26.470699 -38.598999 125.737
-26.723301 -38.408199 125.571
-26.4387 -38.059299 125.774
-26.247801 -38.2551 125.932
-26.1215 -37.799599 125.66
-25.9305 -37.933102 125.807
-25.817801 -37.741798 125.314
-25.624701 -37.810299 125.459
-25.528099 -37.8736 124.851
-25.325001 -37.971199 125.011
-25.433599 -38.161098 124.439
-25.1952 -38.329201 124.63
-25.5847 -38.426102 124.281
-25.3298 -38.591599 124.486
-25.869301 -38.6833 124.252
-25.628099 -38.8466 124.444
-26.2355 -38.8643 124.388
-25.992701 -39.015202 124.57
-26.6299 -38.9021 124.714
-26.358 -39.0723 124.901
-26.787201 -38.734501 125.173
-26.5333 -38.902901 125.338
-24.954399 -39.535801 126.495
-24.795601 -39.725201 126.372
-24.9835 -39.5424 126.46
-25.3414 -39.2911 126.31
-24.523701 -39.659 125.549
-24.5154 -39.854599 125.863
-24.4683 -39.653198 125.559
-24.8181 -39.388802 125.208
-24.82 -39.4459 125.273
-24.421301 -39.811901 125.889
-24.625099 -39.8592 126.134
-24.551701 -39.816502 126.186
-24.743 -39.696999 126.436
-24.2271 -39.242199 125.936
-24.2687 -39.630901 125.925
-24.4445 -39.6614 126.295
-24.4473 -39.191399 126.389
-24.599001 -39.447399 126.507
-25.2397 -39.109299 124.795
-24.916 -38.906399 124.855
-24.5734 -39.187 125.197
-24.761999 -38.669102 125.02
-24.8589 -38.3405 125.351
-24.4576 -38.9692 125.358
-24.485201 -38.7206 125.671
-25.143499 -38.193199 125.806
-24.7432 -38.642399 126.13
-25.481701 -38.359299 126.159
-25.0958 -38.786201 126.426
-25.8496 -38.605099 126.178
-25.274 -39.021099 126.478
-26.0273 -38.935101 125.951
-25.6273 -39.2085 126.077
-26.1098 -39.154202 125.594
-25.7689 -39.249401 125.733
-25.6861 -39.314899 125.393
-26.000099 -39.272099 125.168
-25.610701 -39.219299 124.882
-25.389799 -39.307701 125.123
-24.2325 -39.374001 125.653
-24.312799 -39.506901 125.569
-25.5441 -39.238098 126.073
-24.760099 -39.262699 126.597
-25.313101 -39.305901 125.2
-25.5888 -39.2836 125.445
-25.669701 -39.230598 125.759
-25.291201 -39.333599 125.262
-24.8873 -39.480701 125.316
-25.507601 -39.290901 126.029
-25.605 -39.265701 125.775
-25.5191 -39.307499 125.484
-25.350901 -39.3652 126.205
-25.3494 -39.436901 125.984
-25.0352 -39.591 126.381
-25.0182 -39.6703 126.201
-25.2327 -39.507801 125.694
-24.9186 -39.737202 125.93
-25.0516 -39.5177 125.444
-24.763 -39.7505 125.682
-24.6201 -39.714199 125.558
-25.5291 -38.833801 126.367
-25.5881 -39.058899 126.281
-25.100401 -39.323601 125.114
-25.054399 -39.3591 125.191
-25.0814 -39.386101 125.235
-25.1987 -39.404499 125.322
-25.390499 -39.392601 125.575
-25.504499 -39.335499 125.854
-25.335199 -39.178699 126.425
-24.8876 -39.4366 126.583
-24.677799 -39.601101 126.507
-24.3262 -39.169399 125.509
-24.4219 -39.3512 125.375
-24.6152 -39.5131 125.381
-24.6647 -39.5504 125.409
-24.7342 -39.6008 125.434
-24.896799 -39.640202 125.567
-25.066299 -39.629398 125.819
-25.159 -39.57 126.107
-24.571501 -38.905102 126.291
-24.9032 -39.0303 126.539
-25.0467 -39.167301 126.567
-25.1206 -39.312099 126.527
-25.1556 -39.407902 126.433
-25.1595 -39.424599 126.4
-25.178699 -39.4851 126.316
-24.3181 -38.9618 125.813
-24.5168 -39.822701 125.716
-24.5557 -39.849899 125.723
-24.5394 -39.850601 125.824
-24.6614 -39.857399 126.108
-24.8265 -39.725899 126.354
-24.8937 -39.6763 126.423
-24.6292 -39.869701 125.811
-24.759501 -39.853401 126.051
-24.882299 -39.769199 126.287
-24.9123 -39.7108 126.391
-26.3517 -37.8461 125.691
-26.3955 -37.7957 125.64
-25.539101 -37.962002 124.551
-25.6054 -37.9202 124.519
-26.0385 -37.7272 125.458
-26.093399 -37.707401 125.417
-25.7286 -37.760899 125.028
-25.7834 -37.740898 124.981
-26.15 -38.7118 124.217
-26.3008 -38.6124 124.109
-26.6033 -38.794201 124.419
-26.747 -38.647999 124.314
-26.9044 -38.500099 125.308
-27.052 -38.383499 125.202
-26.690399 -38.146301 125.624
-26.7857 -38.0639 125.553
-25.5944 -38.229099 124.25
-25.700001 -38.1619 124.167
-25.825199 -38.486099 124.164
-25.933599 -38.416599 124.079
-26.8806 -38.743801 124.841
-27.0119 -38.607601 124.744
-25.477501 -39.2556 126.183
-25.2542 -39.3829 126.33
-25.323299 -39.313202 126.286
-25.4475 -39.2747 126.174
-24.7183 -39.815102 126.257
-24.9105 -39.613499 126.437
-24.8155 -39.724602 126.358
-24.662399 -39.8018 126.293
-24.695999 -39.8204 126.272
-24.5847 -39.859402 125.985
-24.6509 -39.8494 126.117
-24.7456 -39.778801 126.249
-24.746901 -39.7701 126.251
-24.5229 -39.853298 126.023
-24.560801 -39.871498 126.002
-24.523899 -39.783798 125.713
-24.5432 -39.8409 125.844
-24.600599 -39.8409 125.959
-24.605 -39.833302 125.973
-24.6092 -39.629002 125.474
-24.560301 -39.590801 125.464
-24.5805 -39.6012 125.476
-24.7505 -39.510799 125.344
-24.6782 -39.570702 125.408
-24.743299 -39.685299 125.549
-24.6693 -39.660702 125.497
-24.5369 -39.741699 125.599
-24.558599 -39.685501 125.539
-24.7493 -39.8442 126.253
-24.5942 -39.907799 125.961
-24.6691 -39.895901 126.113
-24.7985 -39.834202 126.206
-24.773001 -39.8438 126.229
-24.876101 -39.718399 126.398
-24.828199 -39.7714 126.354
-24.7349 -39.816601 126.256
-24.739 -39.8354 126.259
-24.528999 -39.860901 125.757
-24.544901 -39.891399 125.832
-24.657101 -39.891701 125.939
-24.625799 -39.904099 125.954
-24.582899 -39.879299 125.958
-24.581699 -39.897499 125.958
-24.506701 -39.733101 125.618
-24.650499 -39.779598 125.652
-24.590401 -39.7612 125.611
-24.5266 -39.804501 125.675
-24.528799 -39.778301 125.641
-24.9757 -39.597099 126.441
-24.9928 -39.666 126.322
-24.9937 -39.628201 126.393
-25.085199 -39.504299 126.419
-25.0133 -39.556099 126.44
-24.945 -39.591702 126.453
-24.927099 -39.657501 126.428
-24.950199 -39.628201 126.436
-25.2409 -39.3652 126.352
-25.1702 -39.4445 126.38
-25.260201 -39.468498 126.173
-25.2624 -39.423901 126.266
-25.438101 -39.3437 126.071
-25.4307 -39.3759 125.979
-25.4445 -39.312901 126.126
-25.351299 -39.404499 126.118
-25.225 -39.4608 125.496
-25.0436 -39.450001 125.315
-25.128401 -39.460098 125.385
-25.365 -39.358398 125.393
-25.2988 -39.4049 125.438
-25.3764 -39.426899 125.778
-25.312901 -39.449501 125.633
-25.066999 -39.580101 125.617
-25.1474 -39.519299 125.555
-24.908701 -39.700699 125.74
-25.0455 -39.660599 126.025
-24.986799 -39.6875 125.879
-24.7903 -39.791302 125.834
-24.8419 -39.751598 125.792
-24.8244 -39.699402 125.629
-24.986 -39.641899 125.68
-24.7162 -39.790798 125.725
-24.6045 -39.8386 125.721
-24.623699 -39.812401 125.69
-24.688801 -39.737499 125.606
-25.4181 -39.396 125.904
-25.547199 -39.299301 125.881
-25.505199 -39.322399 125.941
-24.929399 -39.743198 126.11
-24.972401 -39.7033 126.231
-25.098801 -39.5858 126.267
-25.0364 -39.632 126.301
-24.934401 -39.714401 126.345
-24.9613 -39.691799 126.336
-24.8659 -39.775799 125.97
-24.7183 -39.847301 125.892
-24.750401 -39.822102 125.866
-24.8832 -39.563801 125.425
-24.810101 -39.625599 125.487
-25.188801 -39.381699 125.267
-25.124001 -39.4049 125.274
-24.961201 -39.504101 125.366
-24.937099 -39.404598 125.242
-24.980801 -39.429001 125.27
-24.9792 -39.7075 126.074
-24.8596 -39.793201 126.161
-24.891399 -39.7705 126.138
-25.0818 -39.625099 126.158
-25.2085 -39.544201 125.907
-25.124201 -39.604301 125.968
-25.527 -39.3241 125.667
-25.457001 -39.369499 125.72
-25.2962 -39.482399 125.843
-25.246 -39.508499 126.049
-25.175501 -39.529701 126.223
-25.608 -39.2243 125.922
-25.5355 -39.241901 126.061
-25.446699 -39.293499 125.318
-25.175501 -39.328701 125.194
-25.3043 -39.305698 125.224
-25.494499 -39.308201 125.28
-25.465099 -39.296398 125.299
-25.629601 -39.258598 125.609
-25.564301 -39.2789 125.457
-25.413799 -39.3218 125.353
-25.681801 -39.2729 125.595
-25.651899 -39.258999 125.602
-25.645901 -39.233101 125.763
-25.5842 -39.287899 125.631
-25.577801 -39.261902 125.907
-25.6593 -39.2243 125.917
-25.6294 -39.219002 125.924
-24.934299 -39.391899 125.211
-24.9291 -39.3997 125.227
-25.055 -39.362801 125.207
-24.824499 -39.456699 125.291
-24.9083 -39.608299 126.453
-24.883801 -39.663399 126.42
-24.8985 -39.6381 126.433
-24.494699 -39.784901 125.699
-24.527399 -39.809601 125.735
-24.5284 -39.793499 125.729
-24.250999 -39.539101 125.748
-24.3027 -39.345901 125.494
-24.2654 -39.438599 125.601
-24.351999 -39.675301 125.708
-24.284901 -39.5867 125.729
-24.210699 -39.461601 125.815
-24.230301 -39.504501 125.772
-24.252501 -39.1716 125.692
-24.2124 -39.300201 125.753
-24.2864 -39.412399 126.175
-24.2054 -39.412498 125.943
-24.608601 -39.304001 126.535
-24.499599 -39.4347 126.436
-24.5401 -39.339699 126.485
-24.736 -39.435398 126.58
-24.680099 -39.347599 126.572
-24.684401 -39.064899 126.518
-24.6378 -39.195801 126.54
-25.735901 -38.8815 126.232
-25.5716 -38.960098 126.336
-25.7668 -39.0737 126.095
-25.761299 -39.0023 126.158
-26.1766 -38.602402 125.974
-25.9438 -38.766602 126.1
-25.6854 -38.7299 126.28
-25.203899 -39.178001 126.508
-25.311501 -39.114101 126.463
-25.0973 -39.0187 126.524
-25.157301 -39.096699 126.522
-24.964899 -39.303699 126.592
-25.0896 -39.247002 126.559
-25.246 -39.306099 126.428
-25.228001 -39.245899 126.474
-24.5686 -39.601898 126.454
-24.6471 -39.533401 126.517
-24.822599 -39.571899 126.528
-24.780199 -39.5117 126.566
-24.840599 -39.359299 126.607
-25.697901 -39.241798 125.753
-25.869499 -39.168598 125.853
-25.7276 -39.214298 125.894
-25.576401 -39.232498 126.064
-25.9014 -39.289001 125.492
-25.7533 -39.289902 125.565
-25.6178 -39.2971 125.431
-25.198999 -39.322701 125.151
-25.337299 -39.3116 125.177
-25.6682 -39.320599 125.129
-25.5567 -39.322399 125.23
-25.059299 -39.2701 125.018
-24.9606 -39.362 125.161
-25.0653 -39.354 125.172
-24.727501 -39.485401 125.324
-24.817699 -39.435902 125.26
-24.275299 -39.2645 125.574
-24.4149 -39.180302 125.35
-24.355801 -39.262798 125.421
-24.4513 -39.5079 125.447
-24.3627 -39.426701 125.455
-25.3438 -38.774101 126.404
-25.2155 -38.908001 126.473
-24.816999 -38.833698 126.401
-24.9844 -38.923302 126.493
-24.886499 -39.172401 126.584
-25.001101 -39.097401 126.558
-25.0963 -38.476299 126.177
-24.9216 -38.686798 126.313
-24.489201 -38.794498 125.995
-24.638901 -38.787102 126.231
-24.747601 -38.945702 126.465
-24.632299 -38.952499 125.11
-25.0287 -38.623699 124.716
-24.8123 -38.797199 124.92
-24.858299 -39.1646 125.017
-24.7258 -39.058201 125.046
-24.4956 -39.082699 125.255
-24.591 -38.682499 125.347
-24.5851 -38.831699 125.208
-24.389999 -39.589699 125.555
-24.4547 -39.787601 125.746
-24.421101 -39.740299 125.708
-24.4109 -39.783001 126.077
-24.353399 -39.751598 125.897
-24.4774 -39.827702 126.046
-24.6031 -39.736099 126.353
-24.506001 -39.771 126.224
-24.3351 -39.671902 126.126
-25.4743 -39.188 126.296
-25.4788 -39.2365 126.218
-25.9762 -38.6087 124.169
-26.3797 -38.774502 124.287
-25.935699 -38.856701 124.378
-26.0445 -38.787998 124.296
-24.976 -39.250801 125.02
-25.3041 -39.2519 124.975
-25.160299 -39.251999 124.989
-25.6112 -39.050301 124.644
-25.4219 -39.1548 124.824
-25.271601 -38.859501 124.618
-25.4366 -38.966702 124.61
-25.801399 -38.944302 124.484
-26.0207 -39.1726 124.848
-25.805901 -39.119099 124.723
-24.5331 -39.571201 125.457
-24.594 -39.374401 125.294
-24.522699 -39.441799 125.368
-24.362101 -38.9603 125.577
-24.3876 -38.8512 125.757
-24.4524 -38.8424 125.492
-24.3804 -39.075401 125.448
-24.302 -39.061199 125.632
-24.571699 -39.660702 126.411
-24.526501 -39.561501 126.429
-24.7614 -38.454201 125.754
-24.5965 -38.658001 125.9
-24.366199 -39.050301 126.121
-24.419201 -38.910301 126.061
-25.475 -39.282101 125.018
-25.8293 -39.268799 124.999
-25.826099 -39.322601 125.304
-26.280399 -39.125702 125.244
-26.184299 -39.174198 125.029
-26.3209 -38.980999 124.616
-26.193199 -39.066502 124.712
-26.7764 -38.789299 124.611
-26.444799 -38.904499 124.529
-26.6089 -38.928699 125.024
-26.4704 -39.0159 125.117
-26.308701 -38.904301 125.669
-26.3239 -39.032299 125.464
-26.0819 -39.225498 125.38
-26.927601 -38.637901 125.079
-26.739599 -38.8493 124.937
-25.9167 -39.2272 125.686
-26.070601 -39.0536 125.777
-25.7992 -39.122799 126
-26.6775 -38.651501 125.464
-26.525499 -38.754299 125.554
-26.256901 -38.767101 125.84
-26.822701 -38.334499 125.497
-26.780199 -38.578899 125.393
-25.6059 -39.140701 126.2
-26.5051 -38.318001 125.78
-26.378099 -38.430698 125.867
-25.9016 -38.255901 126.049
-26.058201 -38.426201 126.05
-26.597799 -38.232399 125.703
-26.5175 -37.975101 125.702
-25.5994 -38.5513 126.265
-25.690399 -38.471401 126.21
-26.2068 -37.9772 125.816
-26.094101 -38.080101 125.904
-25.563601 -38.0116 125.818
-25.729601 -38.112999 125.97
-26.1938 -37.7701 125.608
-26.2787 -37.9123 125.755
-25.317499 -38.2369 126.009
-24.9149 -38.427101 125.984
-25.261299 -38.589298 126.316
-25.896601 -37.7715 125.564
-25.775 -37.837399 125.654
-25.241301 -38.019901 125.393
-25.4011 -37.975399 125.617
-25.885201 -37.7216 125.258
-25.968599 -37.750999 125.51
-24.9856 -38.2332 125.576
-24.6507 -38.543701 125.527
-25.585501 -37.8069 125.149
-25.464199 -37.855598 125.238
-25.0154 -38.310902 124.97
-25.106001 -38.138401 125.168
-25.658199 -37.784901 125.089
-25.6022 -37.844799 124.786
-24.780899 -38.502602 125.165
-25.363501 -38.057098 124.692
-25.230301 -38.148998 124.799
-24.984699 -38.488201 124.812
-25.5362 -38.091999 124.361
-25.4526 -38.000999 124.619
-25.374001 -38.370201 124.419
-25.233 -38.4692 124.535
-25.130699 -38.739899 124.657
-25.6973 -38.358501 124.191
-25.4849 -38.299198 124.336
-25.0585 -39.016701 124.814
-24.6933 -39.289398 125.187
-25.603901 -38.628799 124.337
-25.4646 -38.721699 124.451
-25.714001 -38.556702 124.251
-24.4098 -39.424 126.358
-24.3078 -39.218201 126.166
-24.8582 -39.633202 126.456
-24.845699 -39.609299 126.482
-24.7694 -39.7146 126.403
-24.8829 -39.6129 126.466
-24.6325 -39.777 126.317
-24.59 -39.841099 126.158
-24.4753 -39.838501 125.877
-24.453699 -39.765202 125.704
-24.495701 -39.6614 125.558
-24.6497 -39.539501 125.395
-25.241501 -39.3503 126.379
