# .PCD v.7 - Point Cloud Data file format
VERSION .7
FIELDS x y z
SIZE 4 4 4
TYPE F F F
COUNT 1 1 1
WIDTH 1621
HEIGHT 1
VIEWPOINT 0 0 0 1 0 0 0
POINTS 1621
DATA ascii
56.300201 -5.8557601 89.598198
56.705002 -5.4889798 89.178802
56.590698 -5.1066599 88.948601
56.6511 -5.3290401 89.049301
56.871799 -5.22194 89.330002
56.8181 -5.3386502 89.255501
56.719601 -5.5711899 89.336899
56.334202 -5.7719202 89.088799
56.536999 -5.64047 89.124199
56.896 -5.2905598 89.524902
56.8871 -5.27525 89.4077
56.822201 -4.9279399 89.203903
56.8498 -5.1206398 89.269501
56.0145 -5.7572198 89.881599
55.9417 -5.8333502 89.888901
56.014702 -5.7832999 89.880898
56.250099 -5.7075 89.773598
56.085499 -5.7490101 89.846901
55.828999 -5.6979499 89.949997
55.975601 -5.73914 89.894203
55.819901 -5.7223001 89.967003
55.830299 -5.6848202 89.941902
55.533699 -5.5643501 90.056602
55.674198 -5.6420999 90.008698
55.529999 -4.19735 88.873497
55.57 -4.1457701 89.020798
55.095501 -4.1908102 89.248398
55.396999 -4.1749101 89.205704
55.9781 -4.1036901 89.140503
55.8092 -4.11972 89.141403
55.9203 -4.1589999 88.895699
55.9496 -4.1039801 89.024101
55.999001 -4.1274099 89.2033
54.932899 -4.2986698 89.619797
55.159302 -4.3404398 89.648804
56.669701 -4.5112801 89.099403
56.768398 -4.7100501 89.1436
56.891602 -4.8807201 89.475899
56.8717 -4.9012198 89.3377
56.731602 -4.99511 89.074097
56.348099 -4.2354999 89.011703
56.521999 -4.3495598 89.056602
56.721802 -4.4099998 89.352303
56.712399 -4.4483299 89.228798
56.465801 -4.6677299 88.819397
56.583698 -4.5866799 88.960403
54.988701 -4.2497401 88.940598
55.036301 -4.1968999 89.099998
54.482899 -4.1942501 89.375397
54.762001 -4.19064 89.307198
55.160301 -4.20752 89.379097
54.339401 -4.3008599 89.032799
54.254501 -4.7090201 88.739098
54.277401 -4.4566598 88.863197
54.034801 -4.3331199 89.0877
54.409901 -4.2234802 89.210701
54.6437 -4.2720599 88.986801
55.961498 -6.0316901 89.4851
56.150398 -5.9577198 89.473
56.354 -5.8475699 89.2957
56.575001 -4.2543898 89.269203
56.672401 -4.4288502 89.510002
56.703999 -4.4038801 89.455704
56.828499 -4.6280198 89.421097
55.1273 -4.6022401 89.978401
55.2346 -4.8522501 90.045197
55.188 -4.46276 89.787903
55.1073 -5.1212201 90.258598
55.0326 -4.8216901 90.189499
54.713699 -4.5363998 90.1418
54.647099 -4.8054199 90.356796
54.3825 -4.38727 90.056396
56.824699 -4.8610501 89.626602
56.872501 -4.8666 89.5811
56.9118 -5.1164999 89.511299
55.256401 -5.1382899 90.150101
55.409401 -5.41677 90.089897
54.9156 -5.1056499 90.360497
55.1688 -5.65799 90.226097
55.150902 -5.4380002 90.265099
54.7589 -5.4345598 90.453102
55.901699 -5.9462299 89.059097
56.123699 -5.86238 89.0644
56.215599 -5.35779 88.779602
56.280899 -5.5942402 88.911499
55.802502 -5.5476499 88.690002
55.8582 -5.7885699 88.841003
55.9375 -6.02283 89.288002
55.399101 -6.12397 89.092903
55.6604 -6.0353599 89.068901
55.248199 -5.7158499 88.718597
55.320099 -5.95397 88.861603
55.552799 -6.1939702 89.552902
55.478199 -6.2078199 89.346603
54.7505 -6.3118 89.199997
55.104099 -6.2097802 89.134499
54.362499 -6.3900299 89.3078
54.497799 -5.92099 88.8153
54.6105 -6.1540198 88.960098
55.032398 -6.3341398 89.717102
54.8993 -6.3800201 89.466698
53.820301 -6.2284098 89.269302
54.311199 -6.4579301 89.921898
54.159302 -6.49999 89.683197
56.407501 -5.2459798 88.844101
56.5415 -4.87888 88.862099
56.017799 -5.4579802 88.717796
56.1059 -4.8302598 88.628601
56.161098 -5.09231 88.676102
55.5495 -5.63274 88.6903
55.6922 -4.9856701 88.551697
55.744301 -5.2702198 88.595596
54.0998 -5.98809 88.943199
54.314098 -5.3347402 88.678703
54.403801 -5.6399102 88.734901
54.885502 -5.8175001 88.746498
53.615101 -5.69133 89.068001
56.296902 -4.7516398 88.695198
56.298698 -4.3911901 88.8274
56.364601 -4.4959998 88.810097
55.902802 -4.9096098 88.576797
55.943199 -4.4074702 88.694
56.025002 -4.5987201 88.635803
55.112099 -5.1517301 88.580902
55.4352 -5.0668898 88.565002
55.555199 -4.4801002 88.631897
55.6273 -4.7150502 88.569702
54.730301 -5.2487402 88.6147
54.991501 -4.5769801 88.658203
55.047501 -4.8587198 88.584198
55.181 -5.4442 88.6287
54.2668 -5.0171399 88.673401
53.9203 -5.3813 88.801003
53.568298 -5.06603 88.931396
55.5989 -5.89535 89.998001
55.583199 -5.7907901 90.052597
54.944901 -5.6821299 90.346298
55.170502 -6.0111599 90.123398
55.179298 -5.8389702 90.190697
55.399101 -5.6315799 90.132004
54.688599 -5.9243498 90.388
54.896198 -6.0877099 90.207199
55.150398 -6.1979699 89.973099
55.163601 -6.1412601 90.032303
55.419601 -5.9363899 90.0495
54.5 -6.3371 90.1474
54.676601 -6.4208698 89.795197
55.313801 -6.26406 89.619797
55.1236 -6.2502799 89.901497
56.131302 -4.3896298 88.753403
56.301701 -4.3158302 88.889801
55.748901 -4.43959 88.650497
55.913898 -4.26402 88.7827
55.326801 -4.5199599 88.638
55.523399 -4.3063798 88.7407
54.630199 -4.6358199 88.696297
54.968601 -4.3608999 88.7864
53.903099 -4.75388 88.817497
53.633202 -4.5178399 89.052498
55.2948 -4.2238402 88.904503
53.870998 -4.2473402 89.362602
54.105701 -4.2452798 89.716499
54.232498 -4.2100801 89.450699
54.5812 -4.22368 89.544403
56.4077 -4.1840501 89.161598
56.3685 -4.1626401 89.261299
55.723801 -4.1747098 88.875801
56.131302 -4.1726999 88.944
56.834801 -5.4398198 89.509499
56.6922 -5.56181 89.593803
56.834099 -5.2384901 89.647003
56.878799 -5.2741499 89.613701
55.394001 -4.2467999 89.445503
55.294201 -4.3071299 89.553398
56.526699 -5.64643 89.647003
56.7705 -5.3738799 89.645401
56.1786 -4.1549301 89.243301
56.848301 -5.0808401 89.645798
56.7257 -5.20715 89.665001
56.7808 -5.2091799 89.644402
56.764599 -4.6252999 89.580597
56.6973 -4.8792701 89.651604
56.766499 -4.8667698 89.631897
56.5373 -4.2857699 89.416298
56.553101 -4.4758201 89.547302
56.630699 -4.4601698 89.525803
55.734501 -5.8688402 89.959602
55.624199 -5.9843402 89.940002
55.759499 -6.1120501 89.511101
55.6203 -6.0776801 89.816498
55.598598 -6.1291599 89.713203
56.252201 -5.7272 89.771202
56.258301 -5.6886501 89.773499
56.281799 -5.7685599 89.722
55.971901 -5.9642601 89.726402
56.140999 -5.8882499 89.699699
56.8092 -5.2079301 89.731796
56.815701 -5.2478399 89.7155
56.795502 -5.29877 89.6782
56.796501 -5.2609401 89.657799
56.675701 -5.22013 89.678703
56.692299 -5.1110902 89.673401
56.639801 -4.8940401 89.661797
56.616901 -4.6731801 89.626801
56.511101 -4.4953399 89.558601
56.461601 -4.3649998 89.479301
56.359402 -4.2730699 89.385902
56.421902 -4.2199998 89.336502
56.3904 -4.1781998 89.320297
56.4832 -4.23137 89.452499
56.450401 -4.1934199 89.389297
56.777699 -5.2521501 89.737801
56.741501 -5.0809598 89.7705
56.747002 -4.8535099 89.742897
56.7323 -4.8604298 89.749702
56.641998 -4.6293302 89.7276
56.620998 -4.44876 89.642097
56.602402 -4.4527702 89.648499
56.412998 -4.21766 89.442802
56.486099 -4.3113198 89.557404
56.356899 -4.1679502 89.348198
56.370098 -4.2112999 89.434998
56.458099 -4.2251301 89.448898
56.789398 -5.3096499 89.710899
56.797901 -5.2242899 89.734703
56.756302 -5.2797999 89.742203
56.4487 -5.3717299 89.830101
55.987801 -5.4889898 89.942101
55.566799 -5.53372 90.033897
55.754799 -5.51021 89.9981
55.6842 -5.62359 89.988701
55.545799 -5.5528002 90.044296
55.520802 -5.5873599 90.073799
55.973499 -6.0019002 89.631104
55.7971 -6.0285301 89.761902
55.9468 -5.89996 89.833702
55.962002 -5.9334102 89.7855
55.823002 -5.7705302 89.965202
55.6278 -6.0338402 89.885399
55.414398 -6.12746 89.887497
56.8186 -5.0659299 89.730103
56.819099 -5.1988001 89.7285
56.7472 -4.6275802 89.687599
56.771198 -4.85535 89.733299
56.594601 -4.3160501 89.540199
56.647598 -4.45123 89.635399
56.509602 -4.2370901 89.454399
55.4249 -4.2855802 89.519501
55.416199 -4.26196 89.4571
55.4072 -4.2525401 89.446297
55.353901 -4.2413802 89.437698
56.769199 -5.3355899 89.6511
56.706402 -5.28332 89.666199
56.719299 -5.09373 89.665298
56.630402 -4.6549802 89.613197
56.467602 -4.3381901 89.459198
56.335201 -4.18747 89.282898
56.7831 -5.0654702 89.752296
56.692001 -4.6261001 89.709801
56.550499 -4.3166699 89.552902
55.941101 -5.8656402 89.869202
56.105202 -5.8227901 89.802803
55.802399 -5.9652901 89.8619
56.0439 -5.7072802 89.857803
54.676899 -4.28931 89.711098
55.521301 -4.2144098 89.369202
55.8694 -4.1629 89.279503
55.841999 -4.14604 89.231102
56.154598 -4.1181698 89.073196
56.714001 -5.2454 89.674599
56.685799 -5.2606702 89.6745
56.4884 -5.6275902 89.692497
56.505798 -5.6298499 89.6688
56.3908 -5.6915598 89.703102
56.422699 -5.7831402 89.5895
56.4123 -5.8278599 89.474998
56.419399 -5.7282901 89.656998
55.562 -5.7149501 90.067902
55.810299 -5.8523898 89.934998
56.661598 -5.3275199 89.763901
51.758598 -1.23913 89.153503
52.0401 -1.4541301 88.693199
51.644299 -1.58813 88.346397
51.337399 -1.3523901 88.772903
51.417301 -1.92553 87.989502
52.057201 -2.1145201 90.637901
51.947201 -1.7196701 90.651199
51.841099 -1.42395 90.604599
52.2159 -2.4517801 90.530296
51.239799 -3.0067101 88.016998
52.457199 -3.3538899 89.450996
51.887001 -1.79295 87.931801
52.251499 -1.6876 88.2341
52.382702 -3.0181899 90.220802
52.687401 -2.4605899 89.885902
50.9604 -1.08479 89.428497
51.290199 -1.05848 89.639198
51.2724 -0.93878698 90.181297
51.039398 -0.926889 89.9879
51.652802 -2.0599201 87.679298
51.437302 -2.52986 87.540703
51.4179 -3.1808 87.705803
53.845001 -3.5822699 87.534798
53.6968 -4.1722202 87.261497
53.9842 -3.6896701 87.297501
53.9552 -3.0959301 87.119797
53.7892 -2.9509799 87.457397
53.648201 -2.66591 86.785698
53.4744 -2.51758 87.129402
53.2551 -2.54038 86.417801
53.0741 -2.39114 86.762398
52.841801 -2.66258 86.122902
52.691799 -2.5276101 86.4515
52.619499 -3.0238199 85.873703
52.4179 -2.7718301 86.3349
52.762199 -3.49246 88.800499
52.616001 -3.3665299 89.167198
52.146702 -3.61779 88.893303
52.239101 -3.7671399 88.536301
52.878502 -2.71825 89.413597
52.795502 -2.0167799 89.346901
52.4491 -1.69462 89.886002
52.4561 -1.57236 89.028801
52.208 -1.35987 89.429398
54.156502 -3.2399499 86.7976
54.105202 -3.7909 87.086403
53.822102 -4.2566199 87.063202
53.249001 -4.4656301 86.820702
53.488098 -2.6953199 86.036102
53.953899 -2.94349 86.119797
53.547798 -2.89378 85.7687
53.0597 -2.9988401 85.6119
52.987598 -2.7890601 85.840202
52.674599 -3.2186301 85.678802
52.469898 -3.5141201 85.885498
52.813599 -4.3003898 86.515503
52.865501 -4.34727 86.471001
52.442001 -3.42242 85.9758
51.582699 -3.47947 88.371201
52.500999 -3.93924 86.209602
52.551498 -4.0008998 86.1492
53.007599 -2.2973199 88.892197
53.066399 -2.93612 88.977203
51.736301 -3.6392 88.073097
53.460098 -3.2606001 88.2332
53.4245 -2.6273701 88.146301
52.683601 -1.83883 88.588997
53.113899 -2.1909399 87.835602
52.7071 -2.0259099 87.472
52.0839 -2.37516 87.001503
52.3409 -2.12865 87.168404
51.852299 -2.8675799 86.932404
52.227501 -3.2437899 86.299698
51.823502 -3.49687 87.070702
52.270199 -3.7851501 86.4384
52.134899 -3.94239 87.3937
52.589699 -4.1750002 86.737701
52.631199 -4.0526099 87.812103
53.071999 -4.3260398 87.096199
53.179901 -3.77566 88.121101
54.283001 -3.4147501 86.478203
53.8358 -2.7921901 86.446701
52.0732 -1.31829 90.156601
51.867699 -1.17625 90.280701
51.695099 -1.04509 90.107903
51.938801 -1.14116 89.8228
51.480202 -0.99818498 89.9459
51.637699 -1.0853601 89.656898
51.454899 -0.99328101 90.365898
51.686901 -1.18104 90.533501
52.474998 -3.23177 89.842903
52.540501 -2.7694199 90.0215
52.506599 -3.0759101 89.908203
51.387501 -2.20415 87.749199
51.623402 -1.80893 88.010101
51.515099 -1.98311 87.864899
51.730701 -2.4000599 87.2948
51.535301 -2.26701 87.581497
51.2579 -2.7713799 87.766296
51.285801 -2.4688001 87.703201
51.292301 -2.15323 87.860901
51.579899 -3.00086 87.308502
51.387299 -2.85255 87.590103
51.4319 -3.33776 88.066101
51.298901 -3.07039 87.900703
51.177299 -2.7495799 87.877602
51.9291 -1.60361 88.320602
51.749298 -1.68336 88.167702
51.9645 -2.0399599 87.462303
51.760502 -1.90526 87.797798
51.5205 -1.73155 88.162399
52.432499 -2.3336799 90.261902
52.4706 -2.4743299 90.2155
52.295101 -1.97925 90.304298
52.3866 -2.21841 90.289597
52.106899 -2.2625599 90.627197
51.337799 -1.17673 89.249901
51.178001 -1.2158099 89.118797
51.072899 -1.0221601 89.696198
50.986 -0.99295503 89.744797
51.265701 -0.96923798 89.968803
51.166698 -0.98568201 89.849197
51.1548 -1.08655 89.529099
51.175701 -0.92801702 90.094597
51.4837 -0.97986501 90.153702
51.367298 -0.95736998 90.264702
51.702 -1.38025 88.733803
51.538399 -1.28048 88.973999
51.538101 -1.1077501 89.502502
51.493999 -1.1360101 89.374199
51.908199 -1.27709 90.403099
51.7799 -1.30083 90.568604
52.712799 -2.9944999 89.490799
52.626999 -2.89732 89.725098
52.3284 -2.7397699 90.3675
52.342201 -1.58262 88.6651
52.133598 -1.55928 88.488899
52.267101 -1.8649 87.7155
52.055698 -1.71659 88.077003
51.828098 -1.4861 88.523499
52.002399 -1.91888 90.649002
51.524899 -1.47527 88.538696
52.136398 -1.37828 89.066902
51.921398 -1.35422 88.901398
53.776299 -2.77245 86.186996
53.554298 -2.6293199 86.432404
53.669701 -2.7023799 86.265404
54.079399 -3.0494599 86.4422
53.9207 -2.8593099 86.291
53.737801 -2.8357401 85.985298
53.737801 -2.7895601 86.067802
51.445 -1.03746 89.75
51.493801 -1.06999 89.648804
51.9016 -1.1858 89.494598
51.722801 -1.15607 89.433601
54.2756 -3.4974599 86.649498
54.314201 -3.62095 86.560898
54.3116 -3.5086401 86.367599
54.324799 -3.5747001 86.442299
53.807701 -3.0224099 85.799896
53.325298 -3.03654 85.567398
53.5765 -3.0135 85.659798
53.7621 -2.90433 85.907402
54.1656 -3.2407401 86.126404
54.007301 -3.0906999 85.962196
52.4226 -3.1110301 86.070801
52.517601 -3.26002 85.869102
52.498402 -3.2135601 85.920601
52.358501 -3.6154201 86.168503
52.366901 -3.35553 86.086403
52.148899 -2.79877 86.608002
52.302799 -2.9821601 86.306198
52.634499 -2.7412701 86.153397
52.518299 -2.9021399 86.093498
52.7626 -2.8441701 85.917297
53.130199 -2.62901 86.0877
52.928001 -2.7049501 85.988602
52.826698 -3.0024099 85.709801
52.805698 -2.8968999 85.818604
52.7062 -2.79757 86.0205
52.9683 -2.5253401 86.389397
53.036201 -2.57162 86.254898
53.3577 -2.6002901 86.239899
53.270199 -2.8145299 85.777
53.2169 -2.7146699 85.913498
51.6866 -1.04643 89.888298
51.586601 -1.00962 90.027603
51.916801 -1.1539201 90.095703
51.812099 -1.08029 89.976196
51.794201 -1.10311 89.718903
51.57 -1.03657 89.822601
52.1903 -1.34798 89.810402
52.068401 -1.23884 89.632202
52.0149 -1.2852401 89.268204
53.382301 -2.5095501 86.742104
53.459999 -2.56917 86.599602
53.892899 -2.9093599 86.820198
53.724998 -2.724 86.636597
54.272999 -3.42137 86.274498
52.709801 -4.24055 86.2752
52.487099 -3.8197701 85.946404
52.568199 -4.0521898 86.109497
53.072102 -4.4836001 86.603203
52.885799 -4.3856301 86.442101
52.6777 -4.1753602 86.330597
52.693901 -4.1985102 86.310303
52.467098 -3.72086 86.031197
52.476101 -3.7548399 85.997704
52.5536 -3.4370201 85.693298
52.4786 -3.59956 85.806297
51.724602 -3.59251 87.566101
51.543701 -3.4468801 87.870102
51.876202 -3.65801 88.514503
51.628399 -3.5410399 88.269997
51.370499 -3.26512 88.182297
52.426899 -3.47874 89.176804
52.421101 -3.5988901 88.886902
52.3992 -3.54234 89.032204
52.578499 -3.3117599 89.324203
52.3396 -3.5064399 89.154602
54.077301 -3.4426301 87.114799
54.025501 -3.1510799 86.978699
53.9963 -2.97755 86.624298
53.753502 -2.78865 87.110199
53.823601 -2.8489499 86.966301
52.8661 -3.18223 85.556297
53.082001 -3.0873699 85.538696
53.301899 -2.92222 85.665497
52.7794 -2.21771 89.625801
52.606701 -2.0566499 89.921303
52.080898 -1.5255899 90.3507
52.1875 -1.7183599 90.321198
51.375801 -0.96542901 90.071198
51.379101 -1.00853 89.8442
51.709301 -1.09277 90.320702
51.592899 -1.02091 90.2304
52.213299 -1.45534 90.047401
52.517502 -1.62544 89.414597
52.358101 -1.49419 89.630798
52.045399 -1.22509 89.968399
51.806 -1.11366 90.207199
51.961601 -1.22831 90.240097
51.59 -1.08051 90.4394
51.819099 -1.18425 90.388901
51.991001 -1.38569 90.3834
51.896301 -1.55898 90.633698
53.931301 -4.00912 87.212601
54.039902 -3.73628 87.196503
53.8396 -3.9363501 87.355003
53.869701 -3.9678199 87.3069
53.765099 -4.2073498 87.171303
54.066101 -4.1236701 86.967796
54.002899 -4.0527601 87.098701
53.581902 -3.7307701 87.802299
53.687801 -3.1168301 87.837097
53.672501 -3.4423201 87.843498
53.135101 -3.3730099 88.580101
53.359001 -3.5417399 88.202103
53.156898 -4.1344399 87.5886
53.4118 -3.96716 87.719597
53.762699 -3.8708 87.491898
52.851299 -3.1457601 89.1371
52.9547 -3.2389901 88.9105
52.9645 -2.48399 89.222504
52.957298 -2.8192899 89.223
52.782902 -3.0706 89.312698
52.665199 -3.41908 89.010902
52.717899 -2.2632 86.912102
52.512199 -2.0533099 87.3069
53.117001 -2.25881 87.264198
52.9128 -2.22171 87.082497
52.874199 -2.44098 86.5895
52.400902 -2.4430799 86.695
52.5439 -2.3472199 86.776199
52.678902 -1.89021 88.055397
52.4673 -1.84226 87.876801
52.0923 -1.93543 87.577599
52.204399 -2.22803 87.070602
52.544899 -2.6309099 86.375801
52.274799 -2.5827899 86.646103
54.132301 -3.1417401 86.280403
54.246101 -3.33183 86.616203
54.222801 -3.60181 86.860603
53.948601 -3.3420999 87.350197
54.012001 -3.39008 87.234299
54.145 -3.5191901 86.996902
53.263401 -2.76513 88.613297
53.2439 -3.08741 88.622803
52.691799 -3.79846 88.369904
52.948101 -3.6151299 88.491798
53.457199 -4.3343401 87.083298
52.945599 -4.3665199 86.755203
53.188499 -4.4019098 86.933701
53.3591 -4.2708998 87.251297
52.9198 -3.9549401 87.987396
52.610298 -4.1866899 87.215599
52.871601 -4.21732 87.411697
52.147598 -3.88764 87.986298
52.4105 -3.8975401 88.203499
52.513 -3.6759601 88.688698
52.5467 -4.0896401 86.426399
52.729801 -4.2530298 86.586899
53.028198 -4.4202399 86.636497
52.997299 -4.4077601 86.663803
52.821899 -4.28755 86.9189
52.366798 -4.0444102 87.602501
52.187199 -3.9001901 86.849998
52.3792 -4.0757499 87.022598
51.973999 -3.7491601 88.313301
51.914799 -3.7820799 87.759399
52.413898 -3.8755701 86.286301
52.637798 -4.1447601 86.360001
52.4002 -4.0048499 86.573898
51.945599 -3.7548499 87.212997
52.0145 -3.3708301 86.637199
52.0555 -3.66681 86.715897
51.6036 -3.3301899 87.413002
52.438301 -3.6818399 86.0765
52.215 -3.5277801 86.338402
51.799999 -3.18505 86.974602
52.050701 -3.06826 86.600304
51.627602 -2.66922 87.264
52.687801 -3.3050001 85.612198
52.541401 -3.35973 85.767303
51.956501 -2.59196 86.946899
51.8517 -2.1898799 87.369598
52.846802 -3.1003201 85.624603
52.9133 -2.07302 87.652702
53.494598 -2.5525701 87.627701
53.3144 -2.3698201 87.449203
53.276798 -2.41506 86.944397
52.4716 -1.72639 88.4086
53.068298 -2.19982 88.4095
52.885399 -2.0100501 88.237198
52.744701 -1.8834701 89.003502
52.558399 -1.69126 88.8368
52.249001 -1.47552 88.864899
53.2934 -2.3769801 88.0093
53.6283 -2.80375 87.769096
53.654099 -2.6991401 87.313301
52.869301 -2.0399301 88.756302
53.2024 -2.4535601 88.543701
52.8895 -2.1673901 89.140999
52.641998 -1.74986 89.1996
53.480499 -2.9384201 88.218002
53.852402 -3.2624199 87.525803
53.0797 -2.6104901 88.971497
52.150002 -3.6801 88.7388
51.846401 -3.5987401 88.609001
52.879601 -2.37099 89.416801
53.574299 -4.4523802 86.886497
53.289398 -4.51367 86.755402
53.037102 -4.44594 86.621902
52.5368 -3.9727299 86.173897
52.838501 -4.32161 86.477997
52.4608 -3.4769599 85.925903
52.527199 -3.3006499 85.825203
53.539299 -4.4047999 86.953598
52.667599 -3.1324601 85.739304
53.031399 -2.8889201 85.717003
53.5289 -2.79653 85.883499
53.860001 -4.3147602 86.975098
54.1912 -3.8657701 86.922997
52.332901 -1.46249 89.232697
52.665798 -1.86602 89.571198
52.796299 -2.61114 89.609398
52.7798 -2.61693 86.249001
53.1786 -2.4857199 86.561501
53.574299 -2.60764 86.928299
53.887901 -3.0378599 87.259399
53.936199 -3.65223 87.383499
51.181801 -2.45718 87.757004
52.530602 -3.19802 89.552498
53.610199 -4.11584 87.397697
52.582802 -2.9835801 85.948502
52.6511 -3.0842199 85.789101
54.300098 -3.8043201 86.665001
54.257702 -3.9941001 86.722801
53.891102 -4.4107499 86.850197
53.3302 -4.5901499 86.6688
52.913799 -4.46492 86.368301
52.718102 -3.42261 85.510696
53.112099 -3.19926 85.444801
52.504601 -3.7243099 85.692001
54.028702 -3.2069499 85.850403
54.283001 -3.4937999 86.172798
53.602798 -3.13941 85.552299
52.593498 -4.1499701 86.027603
54.3452 -3.74582 86.3964
54.243 -5.2428799 85.651001
54.3172 -5.4387498 85.348999
54.565701 -4.96032 85.263702
54.4883 -4.7228298 85.590599
53.921299 -5.60848 85.300598
53.948002 -5.7024102 85.1931
53.357201 -4.0571599 84.562401
53.4245 -4.2997398 84.306702
53.148499 -4.5306101 84.305298
53.063801 -4.2855501 84.5569
52.998299 -4.83779 84.446602
52.910702 -4.6395898 84.647499
53.103699 -5.2211399 84.797798
53.014702 -5.0635099 84.992401
53.480099 -5.4937601 85.113602
53.376099 -5.3550301 85.301399
53.830002 -5.4710698 85.512901
54.5364 -4.5164399 85.005798
54.469601 -4.2599101 85.321297
54.256901 -4.2385302 84.713699
54.2006 -3.9974699 85.0121
53.813202 -4.1735301 84.441803
53.750999 -3.9455299 84.708298
53.060001 -4.8634801 85.984596
52.729401 -4.5615902 85.620697
53.2117 -3.57903 85.081398
52.854698 -3.8073599 85.102997
52.6521 -4.1297998 85.251297
53.1399 -5.3313899 84.698196
53.5284 -5.5767102 85.025497
53.504398 -4.9825702 86.2341
54.077499 -4.7553501 86.356201
54.387798 -4.2721901 86.198097
54.345699 -3.89112 85.802498
54.295502 -3.6015401 86.070702
54.0326 -3.33516 85.741402
54.078098 -3.622 85.464699
53.634602 -3.5146501 85.199303
54.358101 -4.0530901 86.432297
54.322201 -3.8957701 86.575401
53.8438 -3.18734 85.673599
53.8409 -3.1368201 85.707603
54.3381 -3.6529601 86.266701
54.3297 -3.6083901 86.297501
52.779499 -4.4970798 86.061798
52.736801 -4.32722 86.201401
52.560902 -4.1136198 85.676804
52.508099 -3.93384 85.8536
53.3773 -3.3169501 85.326698
53.3484 -3.1482799 85.472397
54.180099 -3.4030001 85.947304
54.178799 -3.3362801 86.013901
52.637001 -3.7355101 85.399101
52.581299 -3.5611601 85.583
52.951 -3.46562 85.301697
52.8978 -3.2953601 85.460701
53.162201 -4.7242298 86.378998
53.105499 -4.56145 86.526604
53.6768 -4.6974201 86.604401
53.614101 -4.5334601 86.783997
54.091499 -4.2337399 86.839401
54.2906 -3.54479 86.117798
54.377998 -3.86427 86.157303
54.346001 -3.7051699 86.236504
54.034901 -3.2714801 85.799004
53.837898 -3.36148 85.497398
53.844501 -3.23629 85.622704
54.1992 -3.5832601 85.786102
54.183102 -3.4638801 85.893204
54.126801 -5.7035298 85.192299
54.137199 -5.6222801 85.273598
54.124298 -5.6827898 85.219398
53.751301 -5.68927 85.104301
53.954498 -5.7311702 85.1688
53.0494 -5.20894 84.506699
53.028301 -5.1036601 84.5532
53.041599 -5.17975 84.525101
53.319302 -5.4948001 84.849403
53.141899 -5.3602099 84.673599
53.534801 -5.60499 85.0019
53.727402 -5.6219201 85.172302
53.745899 -5.66187 85.130302
53.296799 -5.4223299 84.916496
53.3144 -5.4650102 84.873802
53.939701 -4.5693998 86.662498
54.169899 -4.37713 86.601402
54.316101 -4.1501899 86.504097
54.3722 -3.9717801 86.329803
53.480598 -3.76632 84.857498
53.578999 -4.12433 84.461304
53.542599 -3.9856501 84.612
53.110802 -3.9275301 84.803001
53.286999 -3.8292 84.812698
53.4165 -3.52566 85.119797
53.923199 -3.75423 85.082603
53.692501 -3.74072 84.946098
53.648899 -4.34688 84.197998
54.0807 -4.2923298 84.410698
53.856701 -4.29246 84.282799
53.299599 -4.5362802 84.165497
53.4608 -4.4312301 84.162903
53.608601 -4.2235398 84.349297
53.155701 -3.3697 85.294601
53.607498 -3.31354 85.393799
54.474499 -4.4973502 84.658096
54.3013 -4.3643999 84.5308
54.013199 -4.0741 84.703796
54.036598 -4.17342 84.579803
54.3036 -3.9288001 85.392303
54.140598 -3.8175199 85.235199
53.980999 -3.9426401 84.855904
53.866001 -3.54568 85.319199
54.041698 -3.4581699 85.628502
54.238201 -3.74173 85.6231
54.4445 -4.27565 85.733002
54.4035 -4.0802698 85.559097
54.4006 -4.2420702 84.9963
54.3647 -4.10572 85.163696
54.3158 -3.7254701 85.968002
54.402302 -4.0641499 86.001099
54.6306 -4.8501 84.977798
54.5546 -4.6097898 85.294502
54.5849 -4.7192101 85.150597
54.493099 -5.3176599 85.189201
54.6045 -5.07129 85.105003
54.5816 -4.6581302 84.818199
54.510601 -4.47086 85.473602
54.308601 -4.7683001 85.962502
54.416801 -4.5101399 85.876503
54.440701 -5.1325998 85.459801
54.466 -5.2179399 85.329002
54.319901 -5.5118899 85.264603
54.3937 -4.9951301 85.651299
54.266201 -4.5334001 86.295403
53.910099 -5.1757002 85.944504
54.131401 -5.0061202 85.983398
54.113499 -5.50842 85.423302
54.293301 -5.3737202 85.457397
54.048901 -5.4139199 85.589302
53.6717 -5.5397201 85.276802
53.898201 -5.5641198 85.362801
54.1306 -5.56073 85.346397
53.4375 -5.2352901 85.75
53.668098 -5.2561498 85.858902
53.7743 -4.9122901 86.3162
53.389999 -4.7528 86.507896
53.508301 -5.5385499 85.065102
53.9412 -5.6563001 85.240997
53.700802 -5.5794101 85.224503
53.2714 -4.95714 86.1222
53.021099 -5.01647 85.459801
53.218899 -5.1445599 85.617401
53.599998 -5.4432902 85.420097
52.961201 -4.62994 86.229897
53.240002 -5.33042 85.022102
53.269299 -5.3745499 84.967598
53.124901 -5.2778802 84.739899
52.6325 -4.3256202 85.877502
52.872501 -4.7323499 85.814102
52.992802 -4.9663601 84.670601
53.014 -5.0318799 84.610199
53.056099 -4.7706599 84.288696
53.006302 -4.9265699 84.389801
52.791 -4.6223402 85.096802
52.654202 -4.3463202 85.4207
52.8461 -4.2109399 84.8554
52.7826 -4.39641 84.938202
52.928902 -4.8558898 84.803101
52.871601 -4.8431802 85.2827
52.5611 -3.9024501 85.503799
53.161301 -4.6440601 84.218803
53.0228 -4.5901399 84.425301
53.052799 -4.6724401 84.348503
52.7258 -3.95454 85.152603
52.9627 -4.05654 84.819504
52.963001 -4.4453001 84.579803
52.7743 -3.59479 85.339104
53.243401 -4.2999301 84.394798
53.272499 -4.4011102 84.292801
53.195999 -4.1571598 84.548401
53.020401 -3.67733 85.077797
54.427101 -4.3610501 84.848602
53.1716 -5.2288899 85.1586
53.397999 -4.19979 84.411201
53.785702 -4.0783 84.559097
54.2318 -4.1290102 84.851997
54.5089 -4.3987002 85.148804
54.535 -4.86236 85.404503
53.447498 -5.45329 85.163101
53.078999 -5.1697602 84.858101
52.977402 -4.7590599 84.508301
53.118198 -4.4296398 84.404198
53.461899 -4.5924301 84.038101
54.621498 -5.2191501 84.953598
54.330898 -4.50067 84.360298
53.8834 -4.4300199 84.130501
53.158001 -4.7691202 84.140999
53.0028 -5.0493002 84.346199
53.1455 -5.39785 84.652702
53.531898 -5.6403999 84.979401
53.952499 -5.76229 85.1446
54.315399 -5.61097 85.172501
54.611198 -4.8074002 84.653099
54.311699 -7.0782299 82.937798
54.370098 -7.0734501 83.110298
54.349098 -7.1354098 83.1371
54.299099 -7.118 82.958397
53.913601 -6.8051801 82.609398
53.7757 -6.6662402 82.654099
53.919399 -6.6922302 82.701202
54.138802 -6.8145599 82.831398
54.134399 -6.9606299 82.725403
54.3116 -6.9643898 83.004204
54.2756 -7.10467 83.017197
54.0924 -6.9882102 82.777496
54.118599 -6.9976301 82.7174
53.867699 -6.8263998 82.673401
53.875099 -6.8265901 82.603302
53.718498 -6.70678 82.6492
54.6119 -5.7395 84.520699
54.617901 -5.4706302 84.756203
54.3517 -5.8149199 84.989998
54.388 -6.04211 84.774002
53.942501 -5.9096298 85.059402
53.944 -6.1313801 84.8955
53.5163 -5.7912202 84.911697
53.488201 -6.0183501 84.796204
53.136398 -5.5630498 84.566101
53.121899 -5.8058701 84.426201
52.998402 -5.2614102 84.174004
53.004799 -5.5447001 83.9702
53.1521 -5.0331602 83.968399
53.152599 -5.3375101 83.763199
53.4636 -4.8380198 83.855003
53.466202 -5.12391 83.654404
53.881699 -4.7383199 83.8806
53.8722 -5.0173001 83.687897
54.346901 -4.7948098 84.083504
54.3297 -5.0852199 83.866402
54.615601 -5.0915399 84.404503
54.598 -5.3590298 84.188698
54.355 -7.1654201 83.235397
54.268501 -7.1427598 82.974403
54.361198 -7.1201401 83.233803
54.422401 -6.8091602 83.570396
53.622601 -6.6146998 82.7304
53.869598 -6.8703299 82.626999
53.5849 -6.6535802 82.7145
53.5317 -6.1812401 83.013298
53.593102 -6.23104 82.978699
53.794701 -6.9457598 82.630898
54.0886 -7.0338202 82.730797
54.042099 -7.1196799 82.749397
54.25 -7.2266998 82.991798
53.408798 -7.1209502 83.060799
53.617599 -7.0694199 82.7342
53.9468 -7.2772398 82.8657
53.773399 -7.3766298 83.3013
54.064499 -7.37815 83.167099
53.490799 -5.6175599 83.341003
53.193001 -5.8578401 83.397499
53.254902 -6.3185701 83.085602
53.0541 -6.09236 83.579201
53.136002 -6.3288598 83.9841
53.150101 -6.5267801 83.265198
53.2113 -6.7832799 83.566704
53.5023 -6.5555401 84.336899
53.593201 -7.0243101 83.848503
54.003799 -6.6520801 84.413399
54.0653 -7.06671 83.9375
54.3941 -6.45085 84.355904
54.331501 -6.99932 83.817802
54.562698 -6.1477399 84.0886
54.469501 -6.4607301 83.709396
54.5438 -5.7944102 83.848999
54.415199 -6.0946202 83.654198
54.213902 -5.8557501 83.484299
54.3041 -5.4965 83.601997
53.853699 -5.47822 83.419701
53.859901 -5.7964602 83.304604
53.3311 -6.8768702 82.882599
53.409199 -6.7560802 82.780296
54.4217 -6.50209 83.647598
54.138199 -7.3723302 83.417503
53.8433 -5.90311 83.291702
54.1553 -5.95403 83.482803
54.348598 -6.1725702 83.635201
53.872601 -5.9657898 83.2724
53.680099 -6.2280598 82.986198
54.398499 -6.4837499 83.575996
54.326801 -6.2199502 83.580803
54.136902 -6.0245399 83.441704
54.410801 -6.7129102 83.485199
54.331402 -6.52739 83.371201
54.381401 -7.02384 83.194901
54.3148 -6.8793702 83.076698
54.133499 -6.3481998 83.193703
54.137299 -6.7073102 82.914398
53.880699 -6.2408099 83.051804
53.905399 -6.5872898 82.780701
53.722401 -6.56563 82.724403
54.3689 -6.7744498 84.063797
54.4744 -6.6592598 83.871101
53.655201 -5.9492998 83.167297
53.678398 -6.0370898 83.134499
53.733398 -6.0576801 83.132202
53.870098 -6.0630102 83.184998
54.131401 -6.16747 83.333801
54.328201 -6.3381 83.495399
54.423 -6.9133 83.692802
54.305 -7.2810798 83.314903
54.193699 -7.32617 83.064903
53.2281 -6.7156601 83.068802
53.314499 -6.5418401 82.918297
53.5331 -6.43121 82.858398
53.600899 -6.4256401 82.852997
53.687302 -6.40488 82.843399
53.890701 -6.4232702 82.907501
54.135502 -6.5383701 83.045601
54.320202 -6.7279501 83.202301
53.676998 -7.2409201 83.582703
54.100899 -7.25594 83.668297
54.282902 -7.1920199 83.614304
54.384701 -7.1111798 83.509102
54.407299 -7.0089402 83.418098
54.4011 -6.9783602 83.3974
54.4006 -6.8947701 83.333
53.278599 -6.9825802 83.317398
53.780102 -6.7483802 82.621803
53.824902 -6.7318602 82.615997
53.8647 -6.8242502 82.6315
54.100399 -6.9918299 82.7416
54.282001 -7.1109099 82.982697
54.341702 -7.13306 83.070198
53.931499 -6.7624302 82.6493
54.139702 -6.8899698 82.773201
54.308201 -7.0219102 82.952599
54.3549 -7.0942202 83.040298
54.145802 -5.80512 85.121902
54.1259 -5.7400098 85.1745
53.034199 -5.30444 84.423401
53.043999 -5.2410202 84.4841
53.741699 -5.7890201 85.049599
53.75 -5.7238698 85.082703
53.314701 -5.6011801 84.795097
53.320202 -5.5309801 84.827103
53.660801 -4.6514301 83.939598
53.665901 -4.4935699 84.058502
54.126598 -4.5784998 84.093102
54.112301 -4.4271002 84.243896
54.6563 -5.1530499 84.6884
54.654999 -4.9992399 84.817703
54.497398 -5.5464301 84.984802
54.4902 -5.43818 85.080803
53.049999 -5.0123301 84.138603
53.051399 -4.8877001 84.222801
53.293598 -4.7993999 83.9897
53.2952 -4.6722498 84.076797
54.516602 -4.7782502 84.348701
54.501701 -4.6393399 84.488503
54.438499 -6.6300201 83.629601
54.413399 -6.8693299 83.457603
54.407398 -6.7978301 83.537804
54.4212 -6.6377501 83.598
54.196999 -7.0858302 82.8367
54.330799 -7.1380701 83.135498
54.275398 -7.1202402 82.980103
54.169102 -7.1476798 82.833298
54.191101 -7.11028 82.826103
53.983601 -6.9324598 82.679604
54.093498 -7.00528 82.746201
54.195202 -7.0658002 82.878197
54.192902 -7.0668101 82.886803
53.955502 -6.99822 82.667702
53.980801 -6.9590802 82.662804
53.765701 -6.7446198 82.658401
53.873299 -6.8396502 82.646301
53.973 -6.9028602 82.696503
53.979599 -6.9123001 82.708298
53.631401 -6.50633 82.775497
53.5732 -6.5272498 82.786301
53.598701 -6.5254202 82.788399
53.610401 -6.3256898 82.908897
53.619499 -6.4160099 82.8405
53.792702 -6.4913201 82.7994
53.701401 -6.4906902 82.778198
53.696602 -6.6444101 82.674599
53.654999 -6.5855498 82.719498
54.230801 -7.0634198 82.823097
54.001099 -6.9046698 82.635498
54.126499 -6.9893799 82.711998
54.237598 -6.99791 82.841904
54.235802 -7.0311799 82.828102
54.3363 -7.1201301 83.020103
54.3046 -7.10747 82.943398
54.209099 -7.0757699 82.842102
54.222599 -7.0752902 82.828102
53.828098 -6.7741399 82.602798
53.8923 -6.8260598 82.599899
54.0275 -6.85251 82.670998
54.018299 -6.8811798 82.650299
53.977798 -6.9097199 82.655098
53.985802 -6.9096699 82.638702
53.680801 -6.6778898 82.674004
53.823399 -6.6238098 82.701202
53.750301 -6.6234498 82.682602
53.757999 -6.7106099 82.632698
53.7299 -6.6825199 82.648903
54.371799 -7.1058402 83.1782
54.3563 -6.9944601 83.097702
54.375401 -7.0550299 83.147499
54.395199 -7.0314398 83.300598
54.378799 -7.0861502 83.229698
54.3535 -7.1333799 83.172798
54.359402 -7.1196399 83.101799
54.366001 -7.1148701 83.139099
54.406601 -6.8957601 83.472702
54.408199 -6.95505 83.379898
54.378502 -6.7319398 83.349197
54.4063 -6.8098898 83.4105
54.395199 -6.5548 83.510101
54.358299 -6.4809799 83.457703
54.4128 -6.59796 83.552299
54.385601 -6.6389799 83.431099
54.004501 -6.1900601 83.186302
53.776901 -6.14115 83.0784
53.8783 -6.1518798 83.121101
54.0037 -6.0316801 83.311401
54.001598 -6.1040602 83.253304
54.240898 -6.34166 83.344101
54.132301 -6.2559299 83.264503
54.009399 -6.37256 83.0429
54.007 -6.2797499 83.115997
54.0159 -6.5567598 82.898804
54.240501 -6.7193699 83.056702
54.136501 -6.62923 82.974899
54.021599 -6.6958098 82.791
54.018902 -6.6348901 82.838097
53.897999 -6.5112 82.839104
54.0126 -6.4665198 82.969101
53.912701 -6.6465502 82.735497
53.8536 -6.7037702 82.645897
53.838902 -6.6682 82.6698
53.807098 -6.5658698 82.743698
54.320499 -6.4247799 83.417603
54.3554 -6.3385701 83.551399
54.3666 -6.41013 83.5271
54.239498 -6.8502302 82.954803
54.312901 -6.92836 83.0354
54.3661 -6.8935199 83.199898
54.3605 -6.95401 83.1408
54.348999 -7.04352 83.035896
54.352901 -7.02211 83.064796
54.1381 -6.7678199 82.8675
54.026299 -6.7813601 82.724899
54.023998 -6.7430801 82.754501
53.771801 -6.3161101 82.936302
53.780602 -6.4053798 82.865601
53.824501 -6.02457 83.1884
53.7924 -6.06497 83.142403
53.769798 -6.2273798 83.008202
53.642101 -6.1428299 83.057098
53.698898 -6.1398101 83.060204
54.239799 -6.7940502 82.998703
54.239101 -6.9286799 82.893204
54.239399 -6.8930101 82.921204
54.317299 -6.8112202 83.1334
54.241699 -6.5361199 83.199997
54.241001 -6.6308799 83.125999
54.243698 -6.17103 83.472198
54.242001 -6.2518201 83.4151
54.242901 -6.4376402 83.276604
54.3241 -6.6349201 83.279602
54.3722 -6.8173199 83.271301
54.384102 -6.342 83.652
54.411301 -6.49681 83.638
53.9935 -5.9274802 83.385498
53.7523 -5.9735899 83.212601
53.849201 -5.9280901 83.293701
54.015301 -5.8683901 83.383904
53.998501 -5.9016299 83.386497
54.256401 -6.0686202 83.559303
54.141602 -5.9777899 83.479301
54.001301 -5.97368 83.355003
54.293701 -6.0275798 83.565598
54.269199 -6.05093 83.566902
54.334599 -6.1888299 83.623802
54.248901 -6.1106801 83.5196
54.372898 -6.3450899 83.603104
54.418598 -6.3097401 83.672501
54.398201 -6.3323202 83.666199
53.618301 -6.1193399 83.059998
53.626301 -6.1347799 83.054497
53.6889 -6.05023 83.135201
53.610699 -6.24299 82.975197
54.335098 -7.1529002 83.142799
54.326698 -7.13624 83.076599
54.332199 -7.1406498 83.108002
53.737701 -6.74857 82.641899
53.791199 -6.7589402 82.642097
53.7813 -6.75421 82.655296
53.471401 -6.9375901 82.767097
53.286999 -6.7069502 82.900299
53.3591 -6.8123498 82.827698
53.587898 -6.84091 82.680496
53.508598 -6.9004202 82.7351
53.439602 -7.0190501 82.833603
53.452499 -6.9707799 82.794296
53.269402 -6.90838 83.077797
53.332802 -6.9749599 82.961899
53.654202 -7.2783198 82.990898
53.477901 -7.1307001 82.903801
54.0172 -7.4026198 83.303398
53.950401 -7.3744898 83.120102
53.959499 -7.39748 83.231796
54.193901 -7.3625598 83.251602
54.108299 -7.3917198 83.303596
53.9492 -7.3579102 83.541298
53.989498 -7.3961401 83.411903
54.4711 -6.5450501 84.077698
54.443401 -6.71874 83.9636
54.514599 -6.40449 83.890404
54.5089 -6.4635501 83.965302
54.523499 -6.0998802 84.448799
54.498299 -6.3253598 84.235603
54.387299 -6.6202502 84.200699
54.371101 -7.0557599 83.657501
54.395 -6.9615998 83.748398
54.2267 -7.13556 83.756203
54.306099 -7.0972199 83.712601
54.301998 -7.2520299 83.466103
54.347698 -7.1581202 83.5606
54.4212 -6.9595199 83.544197
54.403099 -7.0106001 83.600098
54.088699 -7.34303 83.006401
54.144798 -7.35531 83.113899
54.294601 -7.2648501 83.156197
54.254799 -7.32268 83.199898
54.246601 -7.3305998 83.368401
54.370899 -6.1511598 83.635696
54.510502 -6.14255 83.794899
54.451 -6.2529001 83.704597
54.437599 -6.47684 83.664001
54.4062 -5.8189602 83.619797
54.3377 -5.9618702 83.573601
54.1758 -5.92624 83.480003
53.744598 -5.9253502 83.217903
53.851898 -5.8708401 83.291702
54.069199 -5.6465602 83.4114
54.041401 -5.7920198 83.3862
53.551601 -5.8952799 83.175201
53.597099 -6.0639901 83.085701
53.674301 -6.01579 83.139198
53.5718 -6.3234301 82.917099
53.580299 -6.2223201 82.983597
53.269501 -6.7927899 82.9786
53.215801 -6.5338802 83.059998
53.248901 -6.6217699 82.978996
53.446899 -6.5778298 82.809502
53.348701 -6.6375098 82.845596
54.226501 -6.9112301 84.047096
54.233002 -7.03302 83.891403
53.875 -7.1985302 83.773201
54.084702 -7.1775599 83.785698
54.179199 -7.2953701 83.5467
54.2127 -7.2138901 83.654701
53.791801 -6.8753901 84.153198
53.835999 -7.0753698 83.926201
53.414398 -7.0462899 83.577599
53.638802 -7.1594501 83.700897
53.911301 -7.2851801 83.6605
53.140999 -6.2245102 83.296204
53.0686 -5.6935501 83.661201
53.099998 -5.9751401 83.464897
53.356602 -6.0113101 83.183403
53.225899 -6.1146202 83.228104
53.1791 -6.4151201 83.157997
53.104099 -6.4577799 83.570503
53.099899 -6.3383398 83.405098
53.496799 -6.6975999 82.736801
53.7346 -6.8103099 82.633598
53.6684 -6.7994599 82.652397
53.8694 -7.1090398 82.694901
53.721401 -6.9931798 82.657204
53.922501 -7.0439401 82.676399
54.125599 -7.23314 82.879799
54.007 -7.1789298 82.7789
53.787399 -7.1977401 82.772003
54.4613 -6.72826 83.713303
54.448101 -6.6590199 83.6549
53.463001 -4.7139602 83.946503
53.8895 -4.5872402 83.992302
53.658199 -4.8975701 83.759399
53.6618 -4.77248 83.846603
53.483501 -5.9440498 83.1576
53.696701 -5.7244802 83.283897
53.600498 -5.81569 83.2267
53.652901 -5.2892799 83.514198
53.6581 -5.5383701 83.384102
53.305099 -5.4656701 83.533501
53.4702 -5.3618102 83.5065
53.6572 -5.0556002 83.650299
54.1087 -5.2245402 83.625
53.865299 -5.2428498 83.553299
53.540798 -6.53756 82.790604
53.407799 -6.3779502 82.951698
53.426498 -6.4758401 82.879501
53.189098 -6.7622199 83.283096
53.2472 -6.9026399 83.430702
53.154499 -6.6472602 83.404999
53.191101 -6.6394601 83.160103
53.222 -6.8364601 83.181801
54.096802 -7.3024702 82.945999
54.026798 -7.34799 83.0186
53.325699 -6.7123599 83.935699
53.378201 -6.9145398 83.720802
53.511799 -7.2066302 83.330002
53.453098 -7.1347699 83.4617
53.855701 -5.66363 83.338898
54.093601 -5.4509401 83.494598
54.272598 -5.7034898 83.5158
54.4744 -5.4105701 83.865402
54.319099 -5.28369 83.733498
54.1147 -4.8743501 83.865898
54.112499 -5.0206399 83.7593
54.3466 -4.6447101 84.211304
54.122101 -4.7406602 83.963898
54.504299 -5.05479 84.125801
54.493698 -5.20469 84.012497
54.606098 -5.7582502 84.168999
54.573502 -5.5738502 84.016197
54.4487 -5.62888 83.725601
54.621201 -4.9507298 84.519402
54.514599 -4.9208698 84.227501
54.486801 -5.9744902 83.724899
54.561298 -5.9731998 83.962799
54.5131 -6.3059602 83.839302
54.646301 -5.3957901 84.498901
54.632 -5.5500002 84.365501
54.5909 -5.93575 84.306999
54.616798 -5.3580198 84.845802
54.649399 -5.28338 84.589401
54.484501 -6.5778499 83.7882
54.525002 -5.7697902 84.791801
54.532101 -5.9077101 84.6595
54.199799 -6.33218 84.655098
54.393799 -6.2377701 84.571404
54.5117 -5.6587801 84.888298
54.331699 -5.7158098 85.080704
54.233101 -6.66466 84.318199
54.232399 -6.5723 84.413902
54.167599 -5.9825602 84.974503
54.180698 -6.11378 84.857101
53.723701 -6.3408999 84.6754
53.968399 -6.3695698 84.690598
53.9524 -5.8270798 85.106697
54.157398 -5.8954101 85.047699
53.751202 -6.62464 84.417801
53.540001 -6.8188901 84.076401
54.034698 -6.8933001 84.1548
53.7174 -5.95577 84.970299
53.709 -6.0956202 84.879501
53.2799 -6.1673598 84.435799
53.487301 -6.2660398 84.593002
53.526001 -5.7073398 84.947502
53.730499 -5.8711801 85.008598
53.290901 -6.45085 84.183098
53.173 -6.58108 83.758698
53.2981 -5.7822599 84.717003
53.282299 -5.9223499 84.638603
53.0401 -5.9271798 83.988602
53.124001 -6.0495501 84.223396
53.307598 -5.6912999 84.755501
53.141499 -5.4679799 84.610901
53.062302 -6.2102098 83.766602
53.027802 -5.5157099 84.293999
53.030102 -5.6736398 84.181801
53.021999 -5.8049202 83.783997
52.999599 -5.1432099 84.259903
53.027401 -5.40802 84.364502
53.044998 -5.2681398 83.960899
53.049999 -5.4379501 83.8414
53.167198 -5.5825801 83.588501
53.1553 -4.8997402 84.054497
53.048199 -5.1405201 84.050598
53.326401 -5.7387199 83.3508
53.384102 -6.2379899 83.043404
53.291 -5.0595002 83.811302
53.293098 -5.2267599 83.697304
53.291698 -4.9300599 83.901001
53.841499 -7.3606701 83.074203
53.5728 -7.2685099 83.168503
54.312401 -7.1821699 83.1007
54.3055 -7.21205 83.122498
54.2603 -7.1833301 82.979698
54.325401 -7.1774302 83.131104
54.1479 -7.1852398 82.848
54.066799 -7.0738602 82.737503
53.840099 -6.9047499 82.627403
53.701698 -6.7769599 82.643303
53.607899 -6.6370602 82.718498
53.577801 -6.4228601 82.853104
54.414101 -6.9193702 83.492401
54.391201 -7.0741401 83.3255
54.404499 -6.9913998 83.405296
54.359501 -7.1431098 83.229698
54.619499 -5.5910001 84.658897
54.609299 -5.2073998 84.313202
54.3353 -4.9400601 83.976799
53.8764 -4.8627701 83.793297
53.463299 -4.9628401 83.764397
53.149502 -5.1665602 83.8797
52.997898 -5.3787899 84.088898
53.127899 -5.6606102 84.520897
53.504799 -5.8798599 84.8741
53.939602 -5.99476 85.001099
54.3736 -5.9124298 84.900101
53.799198 -6.6998 82.633202
53.788799 -6.7392101 82.617104
53.746498 -6.7276101 82.637604
53.820202 -6.7861099 82.613297
53.8064 -6.7744799 82.622902
53.863899 -6.8180499 82.6623
53.975101 -6.9063401 82.664101
54.094101 -6.98702 82.7705
54.2024 -7.0721998 82.850197
54.276001 -7.1040702 83.013
54.316101 -7.1279001 83.029297
54.321201 -7.1316299 83.051003
54.345699 -7.1353202 83.105698
54.333099 -7.0761199 82.973503
54.340302 -7.0960698 82.997498
54.306301 -7.0497198 82.931503
54.343399 -7.0619898 83.006302
54.138802 -6.9270802 82.746101
54.238499 -6.9632101 82.866402
53.888599 -6.7712598 82.6092
53.933701 -6.7930799 82.626404
54.027901 -6.81741 82.697601
53.8591 -6.7670898 82.603699
53.869202 -6.7368798 82.625298
54.3503 -7.12185 83.064499
54.363899 -7.0858498 83.075699
54.3545 -6.88234 83.952797
54.4235 -6.83674 83.8713
54.450901 -6.7864099 83.791801
53.735401 -5.8573198 83.237297
53.743999 -5.9535899 83.2118
53.7869 -5.99682 83.200302
53.8853 -6.01017 83.237701
54.133499 -6.0874701 83.393997
54.321201 -6.2636499 83.535202
54.231499 -7.2716999 83.018402
54.376301 -7.1445599 83.3703
54.338902 -7.2212801 83.271103
54.4062 -7.0544801 83.456902
54.438801 -6.85811 83.630997
53.285801 -6.4473 82.9935
53.522598 -6.3303599 82.924103
53.5919 -6.3285899 82.916603
53.678398 -6.3164701 82.913597
53.884499 -6.3315701 82.979797
54.134499 -6.4431601 83.119698
53.719501 -7.3077998 83.4599
54.1078 -7.32195 83.559502
54.233398 -7.2813902 83.522202
54.349998 -7.2094998 83.4207
54.385899 -7.09583 83.339203
54.387199 -7.0585399 83.316704
54.390499 -6.96804 83.258301
53.3344 -7.0518398 83.199203
53.8148 -6.7771401 82.608299
53.869801 -6.8280401 82.618103
54.105701 -6.9953699 82.7341
54.287601 -7.1157699 82.972298
54.331501 -7.12959 83.032997
53.9258 -6.7288599 82.673897
54.139301 -6.8531699 82.801399
54.310101 -6.9938998 82.977699
54.229401 -6.8316998 84.138702
53.771801 -6.7819901 82.634804
54.319801 -7.1550202 83.101799
54.433399 -6.62679 83.616798
54.414902 -6.7687702 83.526901
54.4165 -6.8020301 83.548302
54.4133 -6.9045601 83.480904
50.223 -0.15796299 88.969498
49.525799 -1.85474 86.4011
50.128399 -2.1759801 86.648201
50.768799 -2.2574 86.9226
51.1395 -2.1710401 87.205902
51.257401 -1.40209 87.598396
49.201302 -1.51096 86.420998
49.6516 -1.54704 85.907303
49.799999 -1.9687901 85.955002
50.9743 -2.4315901 86.480698
51.409401 -2.19593 86.730003
50.628502 -0.68610001 88.970596
49.448898 0.102997 87.8563
48.849998 -0.034600999 87.707497
49.204399 0.246243 88.173599
49.719601 0.285175 88.333801
50.076 0.119805 88.6007
49.952 -0.358466 86.9179
49.291199 -0.62345898 86.8657
49.064701 -0.249387 87.362
49.676899 -0.107701 87.443298
50.520599 -0.30654401 88.623802
51.0042 -0.92792797 88.324402
50.8699 -0.59788501 88.0812
50.325001 -0.58948898 86.209396
49.842201 -0.95947802 86.068901
51.535 -1.60743 86.934402
51.681702 -3.03635 84.696404
51.597 -2.89273 85.033096
51.0313 -2.80898 84.779198
51.154701 -2.9366901 84.464401
50.669701 -2.46998 84.455902
50.830299 -2.6426401 84.190002
50.512798 -2.07602 84.289703
50.718498 -1.4649301 84.206703
51.310001 -1.00972 84.197998
51.4842 -2.79583 85.381897
52.1675 -2.6226101 85.123901
52.015598 -2.5142801 85.462898
52.474201 -2.1900201 85.109001
52.237499 -2.06075 85.484703
52.443901 -1.68751 85.017899
52.182899 -1.55445 85.415298
52.2393 -1.2147 84.736
51.923401 -1.10014 85.236
50.8964 -0.51726598 87.197304
51.155499 -0.91244 87.439201
51.448799 -1.1320699 86.8284
51.193699 -0.71290702 86.598999
50.3312 -0.01326 88.282898
50.616402 -0.263596 87.796402
50.036999 -1.77496 85.193298
50.153 -2.13902 85.343597
50.323799 -1.9457999 84.664001
50.451801 -2.31534 84.831299
50.333199 -2.36917 86.197601
50.617699 -2.5641501 85.644897
50.880501 -2.7161 85.128799
51.243999 -2.63502 85.924698
51.691502 -2.36567 86.096397
49.9697 0.152229 88.014397
50.2281 -0.071036004 87.570297
50.494202 -0.30826399 86.996803
50.810001 -0.50866699 86.388496
51.609798 -0.922153 85.8246
51.2271 -0.70953798 85.587502
51.5397 -0.87378001 84.995003
51.806499 -0.95731997 84.490898
50.767899 -0.76700002 85.356499
51.059101 -0.91874099 84.754402
51.858799 -1.35417 86.049896
51.889 -1.8569 86.170998
50.5467 -1.3652101 84.608101
50.282299 -1.19716 85.177902
49.906399 0.15226801 88.800102
49.5341 0.320234 88.551201
51.3727 -1.83171 87.149803
51.361698 -1.24587 87.237801
51.389599 -1.49868 87.255798
51.227402 -1.87793 87.3731
51.108299 -2.27072 86.856598
51.283199 -2.12972 86.991501
51.6562 -2.0173399 86.5187
51.5065 -1.91852 86.8573
50.104099 0.024431 88.820503
50.0522 0.030605 88.894501
50.437901 -0.351657 88.8871
50.762402 -0.61382401 88.5401
50.589699 -0.48463699 88.773201
50.293201 -0.062165 88.633202
50.3717 -0.21149699 88.786499
50.422798 -0.41463399 89.002502
51.099201 -0.95556098 87.867699
51.143002 -1.14586 87.968399
49.466999 -1.14587 86.333397
49.4953 -1.70149 86.160797
49.4445 -1.47583 86.188103
49.228298 -1.07306 86.586899
49.8354 -0.60910702 86.560204
49.593201 -0.82142597 86.494102
49.932598 -1.38052 85.563797
49.703499 -1.25614 85.976799
51.011398 -2.2363601 87.044998
49.326199 -1.71462 86.377296
49.477699 -0.30546299 87.177696
49.632702 -0.468247 86.907204
50.391602 -0.408133 86.640404
50.119099 -0.47853601 86.589699
50.308102 -0.84711498 85.682404
50.065399 -0.73297799 86.141296
50.824699 -0.78389102 88.643501
50.945999 -0.768686 88.213997
50.602798 -0.27351901 88.223701
50.693699 -0.43658301 88.384903
49.223499 -0.073854998 87.618202
48.972698 -0.142984 87.536201
49.1539 0.105452 87.925903
49.153599 0.020226 87.789299
49.848099 0.051769 87.727303
49.554199 0.004282 87.667297
49.340599 -0.17836601 87.4133
49.196098 -0.367654 87.146698
50.1035 -0.187898 87.230698
49.809898 -0.23090599 87.1959
49.815201 0.246832 88.579399
49.7243 0.255676 88.685898
49.4403 0.30613899 88.320503
49.365002 0.31780499 88.396004
49.598 0.23212001 88.096397
49.357399 0.183414 88.014297
49.022999 0.113824 87.939301
50.549 -2.3197601 86.593803
50.859901 -2.3152101 86.733002
51.355499 -2.45418 86.325798
51.228199 -2.3568599 86.608597
49.898602 -2.0866201 86.3181
49.644001 -1.88649 86.216499
49.865002 -1.87126 85.577904
49.679699 -1.77011 85.902298
50.462502 -2.24579 86.787102
49.800598 -2.02772 86.509804
50.175499 -0.001061 88.750999
49.980301 0.15078101 88.6996
50.037998 0.16986901 88.309601
49.915798 0.22171199 88.458801
49.625099 0.311207 88.448402
49.5075 0.285909 88.2379
49.8578 -1.65894 85.554901
50.083199 -1.08803 85.606102
50.269798 -1.5974 84.853203
50.1222 -1.49507 85.166
52.415798 -2.5139101 84.974503
52.2892 -2.3717999 85.274597
52.3717 -2.4181199 85.123703
51.9352 -2.8701999 84.929298
52.204399 -2.7083099 84.969597
52.598099 -2.0473299 84.857101
52.553501 -2.29584 84.920601
50.492199 -1.72776 84.403603
50.458099 -2.2151699 84.534599
50.4277 -2.0112801 84.465698
50.393299 -1.68019 84.605904
50.890301 -1.1518199 84.426498
50.640499 -1.4177999 84.394897
50.643101 -1.83164 84.0644
50.575401 -1.76893 84.227898
