# .PCD v.7 - Point Cloud Data file format
VERSION .7
FIELDS x y z
SIZE 4 4 4
TYPE F F F
COUNT 1 1 1
WIDTH 1687
HEIGHT 1
VIEWPOINT 0 0 0 1 0 0 0
POINTS 1687
DATA ascii
5.90346 -20.728001 72.959702
5.6992998 -20.676001 72.936897
5.8035698 -20.756399 72.856102
5.8474398 -20.866699 72.661499
5.8670402 -20.630301 73.277496
5.9562998 -20.684999 73.149803
6.1410799 -20.6584 73.186699
6.6449299 -20.6334 73.202797
6.51226 -20.612 73.246201
6.2546501 -20.5473 73.449501
6.2985201 -20.6082 73.319298
6.8281898 -20.5539 73.211403
6.8469701 -20.7108 73.095001
6.7508898 -20.6917 73.134399
6.9724398 -20.9263 72.910004
6.9242401 -20.841 72.981598
7.2133899 -20.9032 72.403099
7.2016702 -20.713301 72.603996
7.2224598 -20.826099 72.556999
7.1476102 -21.0413 72.690903
7.2127299 -20.9858 72.606201
5.8346 -20.632601 72.0914
5.9200001 -20.8015 72.034302
6.2916498 -20.769199 71.859901
6.1085601 -20.860701 71.911697
6.1657901 -21.1374 71.902603
6.0749502 -21.0411 71.946098
6.1382298 -20.3118 72.011398
6.2347898 -20.584801 71.913597
6.7765098 -20.6199 71.987297
6.5268402 -20.686399 71.879601
6.3270302 -20.9074 71.8256
7.1205101 -20.375099 72.794098
6.9565401 -19.854601 73.144096
7.0508399 -20.129101 72.958199
6.9920998 -20.490999 73.067497
7.0816998 -20.428801 72.933899
7.1732202 -20.573799 72.673103
7.0122299 -20.2369 72.4776
7.1006598 -20.314699 72.644302
7.1512499 -21.1689 72.614601
7.0142102 -21.4147 72.588203
7.0587502 -21.361799 72.580101
6.8819799 -21.5534 72.3153
7.0208702 -21.460501 72.409203
6.8447199 -21.57 72.390999
6.5725799 -21.5937 72.181801
6.7242799 -21.5879 72.245903
6.9124498 -21.4862 72.192497
5.8123398 -20.938499 72.416901
5.85218 -20.9494 72.498596
6.4250002 -19.4645 74.016998
6.0332799 -19.5968 74.199097
6.3728299 -19.7794 73.946899
6.3162398 -19.666599 74.0326
6.8969798 -20.550699 73.160599
6.63937 -20.4807 73.356598
6.7553401 -20.509399 73.275497
6.5297499 -20.114599 73.670097
6.6082101 -20.3125 73.486603
6.8180799 -19.987 73.439796
6.68995 -20.0534 73.573898
6.44068 -19.923 73.838898
6.0851302 -20.2423 73.771202
6.3285899 -20.177401 73.736504
7.07762 -21.0891 72.751099
7.0932002 -20.8356 72.819
7.1215701 -20.938101 72.757103
7.1126399 -20.6175 72.3116
6.98984 -20.589399 72.141296
7.0694599 -20.462299 72.369202
7.1724401 -20.6649 72.467697
7.1440601 -20.7404 72.284103
6.5636001 -21.555 72.089897
6.5845799 -21.480801 72.010498
6.6391602 -20.1721 72.155296
6.72229 -20.4412 72.052696
6.8379798 -20.921101 71.942497
6.8116899 -20.762501 71.952698
6.4735999 -20.497999 73.421402
6.1796398 -20.4212 73.605202
6.0302601 -20.595501 73.3965
5.6566501 -20.3211 73.580597
5.8527098 -20.292 73.716003
5.93191 -19.9268 74.011398
5.99893 -20.063299 73.9132
5.5292802 -19.6796 74.1567
5.8640699 -19.802601 74.104797
5.47261 -20.001101 73.823402
5.5504498 -20.1397 73.722702
5.39677 -20.2925 73.178101
5.4989901 -20.320801 73.395302
5.7647901 -20.498501 73.423401
5.1480799 -19.711599 73.812798
5.3986702 -19.873301 73.918602
5.7494702 -20.652201 73.1119
5.5570402 -20.509199 73.043701
5.6803999 -20.7066 72.7714
5.16572 -19.922199 73.404701
5.2578502 -20.075899 73.306396
5.34231 -20.2479 72.963997
4.9988298 -19.628 73.314102
5.1083598 -19.811501 73.477501
5.7450099 -20.835501 72.5336
5.1243701 -19.780199 72.937302
5.1972098 -19.937901 72.8573
5.4972901 -19.9321 72.4095
5.3764701 -20.0604 72.559502
5.0774999 -19.657 73.003799
5.12538 -19.4387 72.852997
5.66922 -20.334299 72.2257
5.6131301 -20.225401 72.277496
5.3331299 -19.5371 72.615196
5.3924599 -19.684 72.5373
5.88451 -19.6723 72.310898
5.6730199 -19.799101 72.322098
5.4335499 -19.2682 72.675499
5.2975001 -19.4424 72.668297
6.0156698 -19.9923 72.1436
6.38802 -20.217501 72.045898
5.9351902 -20.4438 72.036903
5.7105598 -19.2988 72.563004
5.7736802 -19.414499 72.4636
6.3783798 -19.556999 72.475998
6.1236401 -19.5832 72.366898
5.8726602 -19.1304 72.766098
5.6749001 -19.246799 72.630203
6.5205998 -19.864599 72.304298
6.85743 -20.176901 72.310799
6.19172 -19.2103 72.737503
6.2540002 -19.3099 72.632004
6.8122401 -19.680401 72.810303
6.6192899 -19.5923 72.630898
6.1588302 -19.153999 72.809601
6.3666 -19.0923 73.036201
6.9282999 -19.970301 72.630402
6.6361299 -19.282499 73.081398
6.7030101 -19.430201 72.975197
6.9335299 -19.779699 72.990799
6.6609902 -19.150101 73.431503
6.5929799 -19.187799 73.156303
6.79246 -19.4498 73.428101
6.8615799 -19.6089 73.313904
6.9087601 -19.9184 73.288902
6.6318002 -19.293699 73.754402
6.7346902 -19.3339 73.515099
6.9129801 -20.242599 73.255302
7.0562701 -20.699301 72.911903
6.6589198 -19.6113 73.715302
6.7273302 -19.7638 73.601097
6.6031899 -19.493401 73.803596
6.70965 -21.346901 71.947098
6.8782701 -21.0998 71.952202
6.29317 -21.502899 72.184898
6.2884202 -21.4942 72.148598
6.4029799 -21.568399 72.216698
6.26545 -21.484699 72.181099
6.5690098 -21.611099 72.240898
6.69204 -21.6101 72.367599
6.9338498 -21.510799 72.521797
7.0348701 -21.377399 72.609802
7.0656199 -21.2173 72.696098
7.0070701 -21.0165 72.841599
5.9815998 -21.156 72.309097
6.0992899 -21.330999 72.220398
6.0406599 -21.2451 72.271202
6.1814599 -21.414 72.184502
5.1097398 -19.8617 73.164703
5.2893901 -19.9718 73.6362
5.68996 -19.9825 73.951103
6.1702399 -19.853701 74.005501
6.5359802 -19.6994 73.8508
6.7447801 -19.526899 73.5681
6.7669501 -19.370501 73.273399
6.4352899 -19.2206 72.887299
5.93753 -19.2358 72.629303
5.5096598 -19.402901 72.554802
5.1983399 -19.674 72.741798
6.9553199 -21.406 72.7015
6.9746499 -21.428101 72.6689
6.99821 -21.386 72.6651
6.9526401 -21.465401 72.6325
6.9584198 -21.446501 72.637497
6.8908401 -21.4631 72.593803
6.8010402 -21.5536 72.531303
6.6471601 -21.565599 72.440903
6.5170698 -21.594101 72.353798
6.36796 -21.520599 72.280899
6.3266001 -21.5383 72.2603
6.3106298 -21.525801 72.250298
6.2604299 -21.4984 72.232201
6.3405399 -21.5697 72.330399
6.32231 -21.562901 72.304901
6.3846798 -21.577499 72.364502
6.3132801 -21.5446 72.333801
6.6203399 -21.584299 72.512497
6.4728498 -21.5585 72.454903
6.8970599 -21.4984 72.659599
6.8509102 -21.5172 72.641502
6.7344499 -21.521299 72.610901
6.92453 -21.4856 72.660202
6.9028301 -21.462799 72.682297
6.2785501 -21.526899 72.259697
6.2593098 -21.5116 72.291397
5.7778702 -20.759899 72.173103
5.76264 -20.8403 72.255501
5.7809 -20.8957 72.334297
6.6387901 -20.587601 73.257103
6.6500802 -20.6486 73.178802
6.62254 -20.6964 73.150398
6.5204601 -20.724199 73.142403
6.2310801 -20.764099 73.060501
6.0051899 -20.8221 72.882202
6.4099898 -21.558001 72.116798
6.0905099 -21.3162 72.137299
6.1796498 -21.401899 72.094498
6.0139298 -21.231001 72.195503
5.8822498 -21.0396 72.3218
7.1755199 -20.767099 72.7192
7.0100999 -20.898001 72.892502
6.9561801 -20.938999 72.908897
6.8850002 -20.981701 72.936302
6.6771498 -21.0443 72.9356
6.3969402 -21.110701 72.828102
6.5980701 -20.9692 71.840599
6.2197199 -21.1008 71.861198
6.1332598 -21.1789 71.933502
6.0879202 -21.2892 72.055397
6.0972099 -21.326099 72.194702
6.10673 -21.3295 72.237
6.13169 -21.340799 72.341301
7.05059 -20.868799 72.099297
6.9595199 -21.4629 72.641602
6.9105701 -21.5037 72.600899
6.6577401 -21.602699 72.447899
6.3810201 -21.5623 72.286301
6.3117299 -21.5441 72.260201
6.8285599 -21.452101 72.6828
6.5861702 -21.514 72.561501
6.35355 -21.5228 72.400597
5.7783198 -20.5336 72.1334
6.9811602 -21.4223 72.620399
6.2851 -21.495399 72.210899
5.88375 -20.958401 72.539001
5.9549999 -21.072001 72.435997
5.9435101 -21.069401 72.3983
5.9878898 -21.1586 72.326599
6.0373802 -12.5231 75.993103
8.5219898 -14.044 74.841698
7.9472399 -14.3593 74.531998
7.2951002 -14.6005 74.437897
6.76897 -14.6397 74.574203
6.3756399 -14.1461 75.073196
8.7148399 -13.7749 75.160698
8.6995802 -14.3677 75.301003
8.6114197 -14.5673 74.907898
7.4427299 -15.0972 74.435501
6.9218998 -15.1213 74.623001
5.8333302 -12.8075 75.424797
7.3604498 -12.6193 76.359398
7.86655 -12.2779 76.295998
7.2568698 -12.2839 76.533997
6.79883 -12.528 76.499802
6.3761802 -12.6135 76.294998
7.69556 -13.4931 76.085503
8.2502804 -13.1594 75.7948
8.01968 -12.6434 76.066399
7.5356698 -12.9892 76.164001
6.1207199 -12.9043 75.816902
6.0817599 -13.4026 75.206398
6.2933798 -13.4383 75.600304
7.8686099 -14.2685 76.1735
8.3748598 -14.1821 75.818497
6.6196499 -14.8643 75.1194
8.033 -16.703899 74.5158
7.8663802 -16.4788 74.598602
8.4338703 -16.237101 74.703796
8.5554705 -16.4769 74.638901
8.8822403 -16.15 75.080002
8.9493399 -16.3906 74.960899
9.0805302 -16.111401 75.4832
8.9474802 -16.2069 76.070999
8.4540396 -16.4937 76.578201
7.73243 -16.207701 74.582703
7.3788199 -16.788401 74.868599
7.2841101 -16.4781 74.841202
7.1311498 -16.9286 75.294899
7.0578499 -16.473101 75.262497
7.1502299 -16.8339 75.800003
7.0769601 -16.3202 75.7528
7.43607 -16.794701 76.3172
7.3288498 -16.1315 76.207497
6.8351498 -13.9923 75.948097
6.5168099 -14.0645 75.5345
6.6900501 -14.7273 75.589401
6.9890699 -14.6056 76.011299
6.4475999 -12.9506 76.175499
6.6147799 -13.4346 76.036102
8.88589 -15.1866 75.371696
8.7211905 -15.2451 75.033401
8.9913502 -15.7552 75.461304
8.8077497 -15.788 75.098198
8.09023 -14.8563 74.532997
8.2099895 -15.439 74.613098
8.3267803 -15.9428 74.6838
7.58429 -15.6921 74.503098
7.1287799 -15.7992 74.709099
6.8835101 -12.863 76.3675
7.0409298 -13.285 76.223
7.24263 -13.8103 76.158302
7.3907599 -14.445 76.224503
7.1735001 -15.4623 76.140503
7.58779 -15.3153 76.374199
7.7446599 -15.982 76.455299
7.8852501 -16.6015 76.5914
8.0920496 -15.2044 76.344498
8.2697401 -15.8602 76.438004
6.8975601 -15.605 75.690002
6.8639898 -15.7049 75.1828
8.8122101 -15.7843 76.009903
8.63235 -15.1628 75.945602
6.3351102 -12.3983 76.341797
6.7493701 -12.2894 76.555901
6.6382899 -14.6841 74.816597
6.5131602 -14.4231 75.335899
6.5137601 -14.5116 75.096703
6.54636 -14.4426 74.806999
7.0819001 -14.8663 74.4757
6.8446102 -14.8365 74.582703
6.8432999 -15.3668 74.889397
6.7309899 -15.0025 74.851097
6.2069802 -12.5187 76.1875
6.1834202 -12.446 76.201302
5.9843898 -12.7146 75.772797
6.0610499 -13.1201 75.490898
5.98773 -12.8801 75.6241
6.2321901 -12.7421 76.086304
6.0865402 -12.7186 75.9207
5.9117999 -12.6455 75.716301
6.2985401 -13.7534 75.338303
6.2109599 -13.7358 75.152603
8.5191202 -13.8201 75.512199
8.6792803 -14.142 75.053596
8.6712503 -14.0162 75.249603
8.5367403 -13.4912 75.480904
8.0239296 -13.7186 75.980904
8.2786398 -13.6808 75.776398
8.6799097 -14.7314 75.604301
8.5778599 -14.2562 75.555801
7.0296102 -14.6619 74.443604
8.6713104 -13.9261 74.985703
7.8800001 -13.0099 76.009804
7.9453301 -13.3055 75.966904
7.54214 -13.9786 76.181297
7.7776699 -13.8428 76.117104
8.2481298 -14.7111 76.107101
8.1288004 -14.1986 76.031898
5.9670901 -13.1168 75.307999
6.1740499 -13.421 75.392197
6.33919 -13.1678 75.904099
6.1914501 -13.1471 75.698097
7.7059698 -12.6089 76.218102
7.9325099 -12.4715 76.179298
7.4937201 -12.3904 76.405098
7.6078801 -12.4674 76.321899
7.1921701 -12.9427 76.292801
7.4446702 -12.7901 76.258003
7.7975798 -12.7949 76.104103
8.1117601 -12.8436 75.935501
7.3752599 -13.3908 76.160004
7.6181102 -13.2147 76.100502
6.5531001 -12.4562 76.446701
6.5300598 -12.3404 76.466797
6.9885402 -12.3556 76.555397
6.97682 -12.2651 76.578598
7.06568 -12.5806 76.465599
7.2897701 -12.4726 76.448402
7.56457 -12.2791 76.424004
7.6816201 -14.7114 74.452797
7.3556199 -14.8098 74.446602
7.2522302 -15.4548 74.510498
7.1581101 -15.1442 74.492104
8.3222303 -14.4147 74.687599
8.5546303 -14.2584 74.879204
8.7870703 -14.8402 75.132896
8.7105198 -14.4624 75.097298
7.61338 -14.4971 74.459198
8.2657299 -14.1993 74.677597
6.2153401 -12.6024 76.154999
6.3628402 -12.4989 76.331802
6.6139102 -12.7458 76.362602
6.5799599 -12.5862 76.414902
6.7706399 -12.4044 76.5345
7.01086 -12.4444 76.526802
8.7792902 -14.7818 75.338303
8.4997301 -14.7011 75.881203
8.8994904 -15.5136 75.678596
8.8013 -15.1676 75.652397
7.2927899 -17.0151 75.001701
7.18996 -16.7535 75.050598
7.2195702 -16.909201 75.073799
7.68642 -16.746901 74.654297
7.4570398 -16.8918 74.812897
7.2184601 -17.2055 75.487701
7.2323198 -17.1548 75.216103
9.0156698 -15.9951 75.752197
8.97752 -15.9521 75.281998
9.0341702 -15.9519 75.4832
8.9685097 -15.7891 75.703697
8.6363201 -16.059099 76.310204
8.8820896 -16.0103 76.042999
9.1131401 -16.299 75.775902
9.0594501 -16.162701 75.786499
8.8941298 -15.5023 75.249702
8.9445105 -15.5028 75.4282
8.4774504 -15.5278 76.232803
8.73242 -15.513 75.983597
7.31318 -16.993099 76.070999
7.2267199 -16.480801 76.0317
7.2638698 -16.7778 76.069397
7.2370501 -17.1479 75.767403
7.4253302 -17.273399 76.019402
7.36098 -17.149 76.050499
7.0692401 -16.161699 74.9814
6.9609599 -15.7608 74.931503
6.72995 -15.2125 75.397797
6.7405801 -15.2742 75.147797
7.0206699 -15.4433 74.664398
6.95399 -16.062599 75.475899
6.9756999 -16.118099 75.224899
7.4123001 -16.1022 74.634697
7.2256899 -16.177 74.763603
7.1466999 -16.5138 75.023903
7.9210701 -15.6128 76.448502
8.1893196 -15.5623 76.397003
8.5583096 -15.8104 76.267197
8.3768702 -15.1741 76.185303
7.7252002 -14.803 76.319801
7.9812999 -14.7485 76.260201
8.8542995 -16.716999 76.350502
8.2615204 -16.837 76.642097
8.5469599 -16.780399 76.585297
8.7407198 -16.4263 76.377899
8.8027697 -16.587 76.3806
8.06425 -16.192699 76.552002
8.3473301 -16.132999 76.497101
8.6996098 -16.2645 76.341301
6.5644698 -13.7366 75.759903
6.4134102 -13.7491 75.541901
6.4128799 -14.0903 75.326698
6.7409101 -14.3303 75.772697
6.66219 -14.0343 75.751701
6.9344602 -13.6412 76.100998
6.7372098 -13.7083 75.963699
6.4401002 -13.4467 75.821899
7.0694799 -16.664 75.5252
7.1052799 -16.894699 75.545197
7.10428 -15.9121 75.967003
6.9958501 -15.994 75.726799
6.8464899 -15.6568 75.438103
7.0314698 -16.4063 75.506798
6.9140701 -15.0977 75.876701
6.7918901 -15.1598 75.639198
6.6164298 -14.7834 75.363197
6.6041799 -14.3739 75.555801
7.7274699 -16.969 76.4944
7.5201402 -17.074699 76.2994
7.4535098 -15.7463 76.3246
7.26196 -15.8248 76.174896
7.0127602 -15.5376 75.932701
7.1789098 -16.2236 75.9963
7.2701602 -14.9513 76.221001
7.0789199 -15.026 76.078598
6.8183498 -14.6674 75.816399
8.1540899 -16.5439 76.636002
7.9839401 -16.894199 76.598297
7.5728998 -16.3188 76.4132
7.8046298 -16.2498 76.508003
7.99546 -15.9174 76.492798
7.8292499 -15.2534 76.400398
7.6756701 -15.6762 76.414902
7.4861698 -14.873 76.301598
7.6212001 -14.3523 76.235298
7.4651799 -13.6615 76.154297
7.1039801 -14.2034 76.106201
7.3154402 -14.1032 76.178703
7.2811899 -13.1551 76.215202
7.1500702 -13.5308 76.167603
7.1182799 -12.7537 76.383797
6.7171798 -13.1379 76.223602
6.9492798 -13.0602 76.288902
6.8373399 -12.6834 76.442703
7.6430302 -16.672199 76.492401
7.5201201 -16.052 76.360901
7.3787398 -16.395201 76.255402
7.3677902 -15.3874 76.286797
7.18045 -14.5309 76.148399
7.0282898 -13.9214 76.0868
6.9128699 -14.2762 75.967102
6.8169498 -13.3745 76.1661
6.65904 -12.9328 76.297096
6.5067401 -13.1719 76.097801
6.4047899 -12.765 76.242104
6.2732701 -12.9325 76.003502
7.8357601 -16.877001 74.565598
8.3291998 -16.6367 74.534103
8.0770197 -16.7593 74.498596
7.79495 -16.8328 74.584396
8.2243099 -16.465099 74.586403
7.9461799 -16.6019 74.568802
7.5401502 -16.508101 74.703796
7.60321 -16.6306 74.697998
7.33917 -15.7815 74.561203
7.9586501 -15.8458 74.554901
7.6602702 -15.9849 74.552498
7.4790502 -16.3505 74.684502
7.8270302 -15.28 74.477303
7.51649 -15.3942 74.456902
8.7878799 -16.4881 74.770798
8.5769997 -16.542801 74.626404
8.2952204 -16.573999 74.544098
8.0904999 -16.2227 74.601097
8.0261097 -16.069799 74.583603
8.6420498 -16.033701 74.888802
8.3802204 -16.1077 74.700104
8.1550503 -16.3458 74.607101
7.7993999 -16.356701 74.599403
7.8899298 -15.5693 74.515099
8.5447798 -15.6128 74.852997
8.2660704 -15.7128 74.653099
7.7653098 -14.9965 74.443604
8.4454699 -15.0177 74.761299
8.1521301 -15.1463 74.571503
8.0171804 -14.5773 74.524498
9.0876598 -16.415899 75.108299
8.9544601 -16.4571 74.925102
8.7312698 -16.318399 74.838501
8.7708502 -16.4231 74.789101
8.5964603 -15.8498 74.879402
8.8456697 -15.9868 75.102203
8.6861601 -16.1891 74.877197
8.4977102 -15.329 74.813499
8.7636099 -15.5412 75.076302
8.3910398 -14.7068 74.7062
8.6721001 -14.9088 74.967499
9.0616903 -16.2502 75.211098
9.0834904 -16.3594 75.133301
8.9383698 -15.7525 75.273499
9.0156498 -16.1143 75.263603
8.8474503 -15.1984 75.201202
7.1164799 -16.573099 75.775398
7.0952301 -16.725 75.2817
7.32758 -16.6646 74.873398
9.0023298 -16.3855 76.099602
9.1337996 -16.244499 75.444504
8.9190502 -16.2847 75.028297
8.5001802 -16.3708 74.68
9.18503 -16.3869 75.372101
9.0900898 -16.5669 76.033897
8.9959097 -16.4984 74.903099
8.6009798 -16.5872 74.595901
8.0992603 -16.796499 74.476501
7.5648999 -17.0033 74.703102
7.6114302 -17.2831 76.2547
8.0843496 -17.1292 76.549599
8.6493397 -16.981899 76.517799
7.4089599 -17.431801 75.621597
7.33745 -17.2913 75.106796
8.7955198 -19.1217 74.133698
8.7470198 -19.0147 73.767303
8.8469696 -18.806499 73.521301
8.5708904 -18.8505 74.363503
9.0592098 -19.122299 74.6082
8.8380604 -18.836201 74.856598
9.46696 -19.009199 74.901497
9.2469301 -18.711599 75.1735
9.9347897 -18.8016 74.871101
9.7013798 -18.4776 75.161499
10.2667 -18.5406 74.614098
10.0629 -18.207899 74.8741
10.3028 -18.265699 74.215401
10.1738 -18.021 74.366699
10.1029 -18.1003 73.860703
9.9732399 -17.896799 73.982201
9.6618605 -18.194401 73.5494
9.5167999 -18.0177 73.678299
9.1557102 -18.498301 73.417503
8.9853201 -18.3248 73.536301
8.6826601 -18.604099 73.631699
9.4327803 -16.7785 75.102097
9.1900902 -16.7134 74.715302
8.7423897 -16.7719 74.425301
8.2058897 -16.9765 74.316597
7.8032799 -17.299 74.483101
10.204 -18.222 73.748703
9.2834396 -18.587601 73.309601
9.7734299 -18.304001 73.422096
8.1146002 -17.951401 75.653702
7.9945102 -17.806101 75.819901
7.7462502 -17.7848 75.3162
9.7579803 -17.344299 74.788597
9.6060801 -17.2859 74.318001
9.1644497 -17.390499 73.967796
8.5539198 -17.6353 73.878197
8.1853504 -17.869801 74.065598
7.7999601 -17.5984 76.056503
8.3073902 -17.5084 76.3172
8.4818602 -17.705999 76.095497
8.5816402 -17.8524 75.947403
8.3728199 -18.260401 75.365196
8.8288898 -18.1418 75.667999
8.86061 -17.323299 76.256699
8.9633398 -17.5236 76.076401
9.2753496 -17.8895 75.680801
8.0840597 -18.2388 74.911598
7.6263099 -17.5709 74.874199
8.0167303 -18.089001 74.469803
8.5257502 -18.7542 73.9561
9.6371403 -17.5665 75.350899
9.3261404 -17.033199 75.7798
7.5308599 -17.286301 74.792099
7.4056001 -17.1555 74.892502
9.0195303 -17.0054 76.1782
8.9172096 -16.8505 76.297798
7.49332 -17.526699 75.209396
7.35673 -17.389 75.331497
7.5345402 -17.4674 75.928101
7.47861 -17.3745 75.9823
8.4741898 -17.2701 76.4823
8.3646002 -17.0637 76.589699
7.9217401 -17.4086 76.347
7.81777 -17.2054 76.443398
7.88694 -16.9795 74.480698
7.8566399 -16.905701 74.531502
8.3922501 -16.7493 74.453903
8.3517399 -16.6786 74.506897
8.8689003 -16.6063 74.677803
8.8164196 -16.533001 74.738503
9.2147999 -16.543501 75.007896
9.1312504 -16.450701 75.0718
9.3024797 -16.6255 75.5653
9.1902599 -16.423901 75.692398
7.7199798 -17.6919 75.677399
7.88024 -17.8463 75.544296
7.82165 -17.791401 75.6007
8.1480904 -17.696301 76.081001
7.9141798 -17.7257 75.9086
7.6092 -17.575199 75.842003
7.57724 -17.618601 75.435799
7.4688802 -17.4238 74.999397
7.8400002 -17.8908 74.911301
7.6581898 -17.6835 75.0765
7.7055998 -17.453699 76.1698
10.3763 -18.478701 74.317398
10.2851 -18.2262 73.962303
10.3564 -18.3323 74.128197
10.2673 -18.298401 74.4879
10.3228 -18.412399 74.416702
10.2528 -18.843599 74.608803
10.3552 -18.6555 74.478699
9.9510002 -17.788 74.8395
9.5546598 -17.143101 75.262398
9.7225704 -17.440701 75.072304
9.6995001 -18.0413 75.295898
9.85676 -17.901501 75.100304
10.1557 -18.104799 74.624397
9.9615097 -17.6532 74.311897
9.98456 -17.705099 74.558899
9.4260101 -16.875 75.426598
9.3091602 -17.4739 75.770203
9.4710798 -17.285101 75.563301
9.5260096 -16.9876 74.7258
9.5823898 -17.0406 74.9617
9.1978502 -16.800301 75.921204
9.2995796 -16.531099 75.237297
7.6781402 -17.1416 74.603104
7.8633699 -17.6534 74.490601
7.6831598 -17.4438 74.6661
8.3480301 -18.3722 73.981903
8.7115698 -18.8531 73.675598
8.5857296 -18.689699 73.772301
8.2777996 -18.517401 74.399902
8.2834501 -18.4503 74.1866
8.0709295 -17.9821 74.250999
8.6117401 -18.176001 73.689102
8.4610205 -18.2819 73.809196
8.1292 -17.3911 74.178101
7.9674401 -17.529699 74.300797
7.8207502 -17.7817 74.702797
8.9087095 -18.6015 73.489304
8.7862902 -18.745899 73.566101
8.8373899 -18.972601 73.569901
8.7746 -18.926001 73.634201
8.6605196 -18.975901 74.015503
8.66465 -18.916599 73.834999
8.0298996 -18.042801 75.332603
8.44419 -18.571501 74.872498
8.1990204 -18.2666 75.146599
8.4403296 -18.041 75.706703
8.21243 -18.0697 75.534103
7.9298701 -17.910801 75.4701
7.9113898 -17.9788 75.120201
9.1238298 -17.2363 76.029503
8.6737204 -17.541 76.215797
8.8957796 -17.4251 76.189102
9.18083 -17.3167 75.948097
9.0903301 -17.152901 76.0933
8.77174 -17.178699 76.383598
8.8975697 -17.8386 75.902496
9.1064196 -17.673 75.888603
9.4772196 -17.726299 75.556297
10.0349 -18.530199 74.890198
10.1271 -18.6688 74.771202
9.8331299 -19.098499 74.773903
10.0687 -18.990999 74.709297
9.2755699 -18.3176 75.461998
9.4975595 -18.186399 75.417702
9.90312 -18.340099 75.052101
8.81672 -19.0264 74.465797
8.71033 -19.0182 74.219398
8.5198298 -18.8132 74.149399
8.8509903 -19.1915 73.830002
8.7461395 -19.0765 73.938103
8.3305798 -18.559601 74.624802
8.0227098 -18.1812 74.685097
9.0132103 -19.285999 74.2575
9.3587399 -19.2334 74.667702
9.1676798 -19.2745 74.4897
8.9034204 -19.1371 74.371696
8.9058104 -19.2603 74.021698
8.6811895 -18.8577 74.613503
8.81598 -18.503901 75.300598
8.6086302 -18.5511 75.108597
9.5810204 -19.173901 74.769501
9.6098804 -18.7873 75.042801
9.70502 -18.917601 74.921204
9.0440102 -18.4268 75.423203
9.4773302 -18.6045 75.206596
9.0573902 -18.0298 75.715202
8.6797895 -17.962799 75.835098
8.7438898 -17.6686 76.089996
8.7819099 -17.732599 76.028702
8.2813902 -17.844801 75.906403
8.5267696 -17.775801 76.029297
8.7073698 -17.6206 76.142998
8.5854902 -17.4352 76.340401
8.42064 -17.630501 76.174599
8.1935596 -17.339399 76.448097
9.16012 -18.961399 74.897202
9.24967 -19.078501 74.789299
9.0301199 -18.7882 75.051003
8.5907698 -18.218399 75.544701
8.3455896 -17.928101 75.817101
8.22684 -17.774599 75.983101
8.0516901 -17.874001 75.749603
8.0333099 -17.5739 76.220596
9.03866 -18.708599 73.388603
9.4631395 -18.3925 73.391701
9.2236204 -18.551701 73.363197
9.1225796 -18.7591 73.320602
9.0955801 -18.7446 73.336304
8.9085398 -18.852501 73.461899
8.9724798 -18.658899 73.444504
9.0704098 -17.902201 73.690102
8.8089705 -18.0504 73.650101
8.8048697 -18.4767 73.557701
8.3450298 -17.7561 73.939796
8.6297102 -17.126801 74.1399
8.3416595 -17.2509 74.128098
7.9831901 -17.1359 74.365097
9.9636402 -18.1814 73.635201
9.7230701 -18.257401 73.483902
9.5476799 -18.459999 73.306702
9.5170603 -18.434299 73.334297
9.3330898 -18.2728 73.504799
9.3962803 -18.335699 73.4534
8.8516903 -17.5091 73.882797
9.6294003 -17.676201 73.941399
9.3699102 -17.761801 73.794098
9.2385902 -18.1612 73.578598
8.4672604 -16.864401 74.336098
9.1780701 -16.9781 74.362602
8.9282503 -17.026501 74.221703
10.1553 -18.1723 73.802299
10.0401 -18.261999 73.551498
10.0124 -18.2321 73.577904
9.8574495 -18.0415 73.746696
9.9075699 -18.1134 73.694702
9.4181099 -17.320101 74.120697
9.8355904 -17.641399 74.114098
9.77176 -17.9242 73.820503
8.9791403 -16.7164 74.5616
9.3811502 -16.9664 74.537102
10.1883 -18.0734 74.089401
10.2321 -18.1542 74.031898
10.3427 -18.2987 73.869301
10.3265 -18.2677 73.888298
9.7236605 -17.290701 74.541298
10.1065 -17.9384 74.166603
9.3558598 -16.732599 74.879601
9.8015699 -18.332199 73.391899
9.3168097 -18.6054 73.282402
10.2223 -18.247999 73.713799
8.13377 -16.861 74.428398
8.63941 -16.656 74.542397
9.0618896 -16.5749 74.838799
9.0890198 -18.4396 73.4636
9.6070299 -18.130301 73.601997
10.0567 -18.020399 73.909798
10.2545 -18.176701 74.283798
10.1865 -18.403799 74.723602
9.8379297 -18.664 74.993301
9.3761301 -18.8887 75.015999
8.9717598 -19.007299 74.708
8.8198099 -19.0783 73.696198
10.261 -18.261101 73.690002
9.8312597 -18.3442 73.348198
9.3359098 -18.620501 73.239799
8.9036703 -19.1339 73.588303
9.3014297 -19.431999 74.3237
9.7211599 -19.344601 74.589897
10.2056 -19.1199 74.481796
10.4352 -18.718201 74.3367
10.4224 -18.379 74.020599
8.9776297 -18.892099 73.379303
9.0257502 -19.351999 73.848701
11.3928 -20.184401 72.233002
11.4628 -20.003401 72.338898
11.3744 -20.1742 72.2687
11.1445 -20.4007 72.140602
11.1624 -20.4093 72.105202
10.8749 -20.4765 72.009399
10.8856 -20.4809 71.988602
10.7703 -20.458099 71.957603
11.4279 -19.923401 72.4319
11.489 -19.9559 72.313202
11.4878 -19.844 72.378098
11.41 -20.131901 72.213699
11.4241 -20.0818 72.2229
11.416 -19.7113 72.515297
11.15 -20.3687 72.093697
11.1519 -20.3612 72.071899
10.863 -20.4391 71.9561
10.8358 -20.438499 71.933502
10.7583 -20.446301 71.921898
10.5808 -20.382401 71.927299
10.6166 -20.4149 71.980904
10.8766 -20.461399 71.9617
10.3403 -19.2516 74.2621
10.5259 -19.4221 73.964798
10.7225 -18.989599 73.876404
10.5629 -18.8503 74.119499
10.7425 -18.620399 73.561096
10.561 -18.4841 73.8256
10.387 -18.314199 73.530701
9.9486704 -18.4053 73.163696
9.4494495 -18.687901 73.023903
9.1483002 -19.0347 73.136902
9.0725899 -19.2729 73.352997
9.1824598 -19.4942 73.617401
9.5145798 -19.6024 74.017502
9.9363203 -19.5277 74.263603
9.3536501 -19.6583 73.313499
9.7493601 -19.853399 72.459099
9.6790104 -19.867399 72.921501
9.9019098 -19.9097 73.3946
9.6842403 -19.7381 73.772499
10.3031 -19.8365 73.666397
10.0998 -19.669901 74.0186
10.7449 -19.6203 73.562202
11.1281 -19.3666 73.168198
10.9393 -19.170799 73.547897
11.3195 -19.1873 72.694901
11.0542 -18.8571 73.114197
10.3125 -20.2689 71.986504
9.9583302 -19.981501 72.566101
10.8306 -20.4146 71.843201
11.1876 -20.3417 71.955399
11.4791 -20.034901 72.165199
11.4316 -19.6919 72.492599
9.2881699 -19.466299 73.034698
11.4934 -19.868401 72.006302
11.1813 -20.174299 71.769096
11.3183 -19.7738 71.765404
10.1311 -19.994499 73.048698
9.7673998 -19.495001 72.2855
10.2316 -19.747601 71.763
10.251 -20.1362 71.8862
10.8841 -19.7099 73.241699
11.2214 -19.6057 72.810997
11.2677 -19.5299 72.833801
9.9892302 -19.112101 72.206398
11.2529 -19.3204 72.011803
11.4843 -19.490101 72.344002
10.58 -18.4366 73.269402
10.8977 -18.6919 72.783401
11.1108 -18.9769 72.301201
10.1366 -18.524401 72.867401
10.4783 -18.771299 72.3619
10.6688 -19.1173 71.923203
9.6324196 -18.8249 72.7118
9.3593702 -19.2113 72.817101
10.8599 -19.4347 71.6866
11.0433 -19.858101 71.593002
10.7635 -20.2565 71.665802
10.6342 -20.0042 71.5616
10.5009 -19.9139 73.2742
10.4702 -19.6632 71.602203
11.2168 -19.6915 72.791
10.0839 -20.0432 72.507698
10.4317 -20.317699 72.112602
10.9006 -19.756599 73.086899
10.5757 -19.920401 73.090897
10.2524 -20.0098 72.909798
11.0936 -20.3582 72.2257
11.3279 -20.1315 72.350502
11.174 -19.9897 72.620201
10.8941 -20.190599 72.559196
11.4142 -20.163099 72.205101
10.6041 -20.2847 72.373299
11.3377 -19.819901 72.587097
10.819 -20.4401 72.083603
11.1682 -20.401199 72.078796
11.0052 -19.850901 72.909203
10.7311 -20.053499 72.831497
10.3869 -20.1357 72.641296
10.2186 -20.1597 72.343102
11.0912 -19.5832 73.068199
10.1071 -20.1138 72.252403
10.1702 -20.134501 72.269402
10.007 -20.0012 72.157402
10.0132 -19.6458 71.990501
10.2015 -19.320999 71.909698
9.9857903 -19.9793 72.808296
10.1192 -20.0173 72.733101
11.0692 -19.629299 72.9935
11.0686 -19.682699 72.969398
10.6869 -20.417601 71.918404
10.837 -20.430099 71.949501
11.1282 -20.339701 72.114197
11.4043 -20.0991 72.227402
11.4993 -19.8983 72.345802
11.4551 -19.959299 72.3806
11.3546 -20.155701 72.304199
11.1246 -20.384199 72.173897
10.8553 -20.4629 72.036499
10.7079 -20.440201 71.9608
11.274 -20.082701 72.444603
11.0153 -20.292299 72.356598
10.7241 -20.3738 72.208
10.5199 -18.591801 74.086899
10.4503 -18.531 74.194603
10.3533 -18.9186 74.429703
9.2491198 -19.497499 73.926399
9.14429 -19.4198 74.084099
10.0866 -19.3409 74.389099
9.9770203 -19.2563 74.571999
9.6185799 -19.515301 74.324203
9.4959297 -19.400499 74.498596
9.6232004 -18.4956 73.173203
9.5734196 -18.4709 73.260803
10.1225 -18.301001 73.442398
10.0697 -18.273701 73.512398
9.1897097 -18.806999 73.190102
9.1334105 -18.772301 73.283401
10.4308 -18.3279 73.780098
10.3727 -18.2995 73.836502
8.9961996 -19.0861 73.361
8.9098501 -19.016701 73.474701
9.0193701 -19.315901 73.589996
8.9397402 -19.248899 73.706001
11.3056 -19.7134 72.677399
11.3219 -19.6723 72.664398
11.2114 -19.8281 72.7145
11.2743 -19.755699 72.693398
11.4324 -19.8246 72.475403
11.3812 -19.7673 72.561897
10.7763 -20.4557 71.980904
10.9948 -20.4536 72.086899
10.8661 -20.4702 72.021797
10.7339 -20.4375 72.005402
10.7579 -20.447201 71.991203
10.7217 -20.4417 71.933502
10.7384 -20.450399 71.956299
10.7889 -20.4615 71.970299
10.482 -20.3564 71.969398
10.2627 -20.2155 72.1595
10.3697 -20.288 72.050201
10.5887 -20.3738 71.931503
10.4787 -20.342501 71.954597
10.6413 -20.4147 71.935204
10.5772 -20.3937 71.942299
10.6535 -20.4053 72.069901
10.5403 -20.386801 72.018097
10.6785 -20.4042 71.899803
10.714 -20.388901 71.933098
10.676 -20.402201 71.913101
11.0138 -20.446899 72.011597
11.2992 -20.275101 72.150299
11.1617 -20.3871 72.083801
11.0249 -20.468399 72.020798
11.022 -20.458 72.009697
10.7752 -20.438101 71.9226
10.8704 -20.451401 71.958397
10.987 -20.412901 72.0261
11.0007 -20.429501 72.017197
11.4782 -20.011999 72.275703
11.4127 -20.1504 72.207901
11.3009 -20.3018 72.155502
11.3041 -20.288 72.146301
11.2846 -20.2379 72.169502
11.2916 -20.2568 72.159698
11.47 -20.048599 72.281403
11.4806 -20.0249 72.271698
11.4759 -19.983601 72.2882
11.4773 -20.000601 72.280098
11.4819 -19.8969 72.387299
11.4748 -19.8545 72.4142
11.4662 -19.7831 72.421898
11.3245 -19.945299 72.517799
11.3881 -19.879299 72.498199
11.426 -20.0504 72.339996
11.2655 -20.289301 72.222702
11.3646 -20.165001 72.286598
11.4345 -20.0639 72.320198
11.4855 -19.935101 72.357697
11.4616 -19.9739 72.3638
11.4064 -20.0292 72.375099
11.4169 -20.0399 72.356796
11.1351 -20.3929 72.156403
11.2834 -20.303499 72.190201
11.2743 -20.2969 72.207001
11.2432 -20.269699 72.2612
11.2558 -20.2808 72.239403
10.9698 -20.434099 72.125504
10.984 -20.445299 72.103798
11.0135 -20.466999 72.056999
11.0045 -20.461201 72.071999
11.3807 -20.006599 72.417397
11.1993 -20.2313 72.337502
11.3063 -20.112 72.388298
11.3932 -20.018499 72.395798
11.3617 -19.9874 72.4505
11.4104 -20.173401 72.215897
11.2925 -20.305099 72.171402
11.1685 -20.4098 72.088097
11.0219 -20.469101 72.0382
10.788 -20.461399 71.946899
10.8862 -20.4769 71.977203
10.7814 -20.4499 71.927101
10.7912 -20.4624 71.963501
10.7578 -20.454599 71.937401
10.919 -20.394501 72.203102
10.7821 -20.416401 72.130997
10.5359 -20.329 72.1922
10.5824 -20.3615 72.140297
10.6989 -20.4244 72.026604
10.4665 -20.0382 72.907097
10.3182 -20.065001 72.803497
10.0961 -19.9806 72.871902
10.1597 -20.0151 72.812302
10.1654 -20.0786 72.561203
10.2162 -20.063999 72.711899
11.0641 -20.333401 72.274902
10.807 -20.3067 72.376099
10.8663 -20.353399 72.283997
10.9506 -20.419201 72.154701
11.0158 -19.762699 72.974503
10.9909 -19.6698 73.068001
11.0064 -19.6968 73.031998
10.8089 -19.8922 73.014503
10.946 -19.803301 73.005203
11.1046 -19.742901 72.887199
11.0614 -19.746201 72.934402
10.7283 -19.810101 73.192902
10.753 -19.840099 73.112396
10.639 -19.976299 72.9851
10.9748 -20.033899 72.728798
10.8959 -19.959801 72.870201
10.3452 -19.958401 73.089897
10.3984 -19.982201 73.013
10.6596 -20.191401 72.603302
10.5619 -20.115999 72.750397
11.443 -20.07 72.299896
11.4799 -19.969801 72.332603
11.2267 -20.255301 72.289703
11.1046 -20.1485 72.502098
11.1564 -20.194 72.412102
11.3435 -19.6346 72.658302
11.3265 -19.651199 72.657402
11.1457 -19.626101 72.902603
11.2215 -19.6301 72.805801
11.4041 -19.478399 72.621597
11.3622 -19.607 72.651901
11.5402 -19.7929 72.239899
11.4823 -19.611601 72.443901
10.7025 -19.247101 73.855499
10.5486 -19.1299 74.091301
10.6342 -19.192699 73.961304
10.8726 -19.4044 73.575302
10.7746 -19.312401 73.740601
10.8911 -18.893 73.5345
10.8313 -19.075701 73.721703
10.3625 -19.9035 71.666298
10.4638 -20.1688 71.689697
10.4117 -20.068199 71.670502
10.1025 -19.902201 71.941399
10.2163 -19.9405 71.807503
10.3163 -19.738199 71.6856
10.7556 -19.7286 71.564598
10.5464 -19.826099 71.571098
10.9315 -20.107201 71.605698
11.1982 -20.0089 71.692101
11.1005 -20.0492 71.6493
11.0177 -20.3465 71.794899
10.9864 -20.2439 71.700897
10.7068 -20.149401 71.597198
10.856 -19.930099 71.543098
11.137 -19.5492 71.734901
10.9582 -19.6297 71.612099
10.5645 -19.391701 71.702698
10.6586 -19.5516 71.620697
10.1616 -19.555599 71.831902
10.2535 -19.6112 71.743797
10.381 -19.522301 71.680702
10.4781 -19.2768 71.809601
10.9992 -19.1688 71.945999
10.7751 -19.2705 71.790199
11.3266 -19.2097 72.347702
11.2018 -19.141399 72.154999
11.1439 -18.899599 72.714798
11.2484 -19.059099 72.511703
11.4046 -19.3298 72.534302
11.4564 -19.587 72.005898
11.4005 -19.377701 72.174004
11.3334 -19.365801 72.771202
11.3543 -20.156401 71.952698
11.5042 -19.9613 72.094597
11.5393 -19.6877 72.141998
11.4812 -19.8974 72.327003
11.5032 -19.870501 72.299896
10.4819 -20.335501 71.946297
10.4536 -20.3092 71.8526
10.4622 -20.334299 71.911797
10.6736 -20.401899 71.884003
10.2315 -20.198799 72.136597
10.3413 -20.273701 72.016998
11.3214 -20.250999 72.104698
11.335 -20.2139 72.040199
11.1884 -20.285801 71.870003
11.344 -20.0746 71.858704
11.1551 -19.5942 72.925903
11.2386 -19.5882 72.824997
11.4095 -19.714399 72.512802
11.1483 -19.134001 73.122299
11.2414 -19.238001 72.946404
11.1503 -19.4769 73.0588
11.2026 -19.440901 72.994301
11.0314 -19.007099 73.325203
10.8507 -18.6136 73.194397
10.8954 -18.729099 73.346298
10.6567 -18.714399 73.871803
10.7542 -18.792 73.727097
9.17589 -19.242201 73.102798
9.0848799 -19.1612 73.237099
9.3509197 -18.9314 72.923401
9.2344999 -19.1119 73.002296
9.5118198 -19.527599 72.638901
9.3060799 -19.355499 72.916199
9.1858597 -19.4678 73.341499
9.1638098 -19.352501 73.217796
9.6522503 -19.163099 72.476097
9.5579004 -19.362301 72.545601
9.8786097 -19.778099 72.204903
9.72752 -19.6877 72.377602
9.4916096 -19.646999 72.745598
11.1865 -19.788601 71.670502
11.2813 -20.0075 71.772697
10.9925 -19.5793 73.265701
10.6394 -19.7973 73.4394
10.8264 -19.679701 73.380898
11.0054 -19.6334 73.165703
11.0928 -19.508301 73.134399
10.9471 -19.495501 73.406097
10.4967 -18.7829 74.231102
10.4177 -18.998899 74.3078
9.8211603 -19.9319 72.732201
9.5033998 -19.7694 72.996498
9.6765099 -19.8599 72.7183
9.9553003 -20.014099 72.359001
9.8348503 -19.9352 72.527802
9.4053698 -19.639299 73.699699
9.2609501 -19.569799 73.4935
9.1019096 -19.391001 73.471703
9.3000202 -19.568501 73.160202
9.7996197 -19.655899 74.060799
9.5927801 -19.668699 73.907402
9.32759 -19.568399 73.816101
9.6153202 -19.813101 73.375504
9.4963598 -19.7215 73.560501
9.9036303 -19.959801 73.033699
10.0323 -19.9918 72.926598
10.2275 -19.961399 73.331902
10.0357 -19.976801 73.182297
9.7519703 -19.9004 73.183998
9.8490601 -19.9417 72.878601
10.8876 -19.714899 73.1567
10.6984 -19.8181 73.303001
10.5374 -19.8916 73.177803
10.4251 -19.9039 73.425102
10.4157 -19.657301 73.848602
10.5251 -19.732599 73.655502
10.2244 -19.4881 74.168503
10.0138 -19.597799 74.151398
10.3102 -19.569 74.022797
10.4102 -19.327801 74.139999
10.1514 -19.409201 74.287498
10.3056 -19.9765 73.179497
10.1866 -19.9776 72.974998
9.9902401 -19.8074 73.763603
10.0982 -19.8934 73.571098
9.8886204 -19.723 73.929703
9.72159 -19.589001 74.170898
10.8081 -20.355499 71.751701
10.1538 -20.157801 72.082603
10.283 -20.240101 71.951202
10.4465 -20.2346 71.766998
11.0121 -20.431101 71.959602
11.025 -20.4034 71.882103
11.0666 -19.3505 71.823303
11.3008 -19.5289 71.874802
10.7116 -18.894899 72.203903
10.8866 -19.0317 72.054199
10.0397 -18.771099 72.484001
9.8098898 -18.9582 72.451401
9.9750299 -19.4067 72.063904
9.8458595 -19.306 72.227402
9.4647598 -19.0194 72.742104
9.7642202 -18.574699 72.923698
9.5246201 -18.7432 72.888901
9.2706699 -18.870501 73.059402
10.3173 -19.067101 72.045197
10.109 -19.2283 72.036003
10.2081 -18.931499 72.234596
10.5592 -18.959101 72.118401
10.4189 -19.201401 71.888802
10.5437 -18.5741 72.8125
10.2995 -18.641001 72.601402
9.8724203 -18.652 72.747902
10.2684 -18.375999 73.236504
10.0263 -18.445999 73.042099
9.6884098 -18.522499 73.055
10.9122 -18.8288 72.409897
10.7126 -18.6898 72.580101
11.0389 -18.829 72.552498
10.3813 -18.455799 73.072197
10.7391 -18.558701 73.030998
10.5861 -18.421301 73.572701
10.4683 -18.3598 73.425102
10.1909 -18.3323 73.345703
11.0104 -18.749701 72.947601
11.1933 -19.0044 72.894203
10.6931 -18.4972 73.420799
10.5043 -18.365999 73.683296
10.6398 -18.542801 73.7127
11.4347 -19.791599 71.891502
9.9090405 -19.5821 72.118896
10.0712 -19.4848 71.945198
9.8934698 -19.930201 72.291901
9.9923401 -19.839001 72.071198
9.4903202 -19.7185 72.8573
11.4458 -20.0853 72.2034
11.48 -19.898001 72.329399
11.2804 -20.213699 72.168098
11.3081 -20.2484 72.1381
11.1686 -20.369499 72.0327
10.972 -20.393101 72.029297
10.9904 -20.4203 72.001999
10.8378 -20.4394 71.901398
10.115 -20.075199 72.411499
10.1323 -20.086599 72.456001
10.0746 -20.056499 72.409698
10.0975 -20.0606 72.406799
10.1842 -20.1453 72.278099
10.0267 -20.046 72.399101
10.0574 -20.087299 72.2202
11.0351 -19.2707 73.362503
10.6399 -19.5366 73.752197
10.1989 -19.753099 73.8545
9.7890902 -19.8276 73.594299
9.5251904 -19.784599 73.128899
10.2779 -19.1989 74.3591
10.4784 -19.0676 74.2024
9.8426905 -19.4545 74.411201
9.4242096 -19.533501 74.146896
9.1033697 -19.420099 73.7332
8.9867001 -19.200701 73.474098
9.0604601 -18.959499 73.2621
9.3816204 -18.647699 73.152298
9.88274 -18.373501 73.271698
10.3184 -18.2861 73.626198
10.4889 -18.4261 73.928101
10.5841 -18.6502 73.984703
10.6317 -18.916401 74.010498
10.7549 -20.4172 71.9254
10.7645 -20.426901 71.9244
10.6699 -20.4284 71.968399
10.6446 -20.403799 71.920601
10.6851 -20.4268 71.932999
10.7218 -20.430901 71.917801
10.7362 -20.403601 71.93
10.8532 -20.4254 71.959503
10.9743 -20.398701 72.035599
11.1392 -20.3528 72.104698
11.2796 -20.2237 72.176598
11.4069 -20.1127 72.221298
11.4797 -19.924601 72.3181
11.4723 -19.962601 72.298302
11.4967 -19.920099 72.3339
11.4858 -19.9149 72.372704
10.8815 -20.4809 71.997704
11.1534 -20.407 72.124702
11.3843 -20.183399 72.249001
10.0247 -19.9774 72.659798
10.0326 -20.002701 72.532997
10.1518 -20.1294 72.271599
10.1211 -19.7085 71.870499
10.1195 -20.0681 72.026001
10.1905 -20.186501 72.114799
10.2471 -20.2026 72.143402
10.3926 -20.2295 72.344704
10.3152 -20.2353 72.228996
10.4859 -20.293699 72.247902
10.5157 -20.221001 72.489601
10.2848 -20.154499 72.460197
10.7415 -20.255199 72.477699
10.8179 -20.1266 72.686501
11.045 -20.0963 72.605904
11.1039 -19.929701 72.738998
11.2725 -19.890699 72.608398
11.1505 -19.764 72.822502
10.2902 -19.4167 71.789703
9.95994 -19.978901 72.694
10.0892 -20.024401 72.619904
10.0518 -19.976601 72.771004
11.1361 -19.673201 72.894798
11.1458 -19.6054 72.910599
11.0702 -19.6485 72.9813
11.1596 -19.5492 72.979401
11.0783 -19.619301 73.007103
11.4807 -19.91 72.323997
10.8337 -20.424601 71.940598
11.1286 -20.332701 72.107399
11.401 -20.0763 72.230598
11.4991 -19.878599 72.356697
11.4461 -19.945801 72.398598
11.3425 -20.144501 72.325302
11.1112 -20.3729 72.196297
10.8399 -20.452999 72.055801
11.2295 -20.0415 72.522903
10.9581 -20.2444 72.452202
10.6668 -20.3312 72.287003
10.9979 -19.6586 73.094498
10.8872 -19.7255 73.123497
10.733 -19.812 73.156303
10.5492 -19.8922 73.1381
10.3664 -19.9552 73.055199
10.215 -19.980101 72.9487
10.0568 -20.0144 72.520302
10.0546 -19.988701 72.639603
10.0799 -19.9835 72.750504
10.1247 -19.983299 72.848
10.3547 -20.273001 72.030296
10.6637 -20.391701 71.855698
10.6207 -20.3419 71.7929
10.5354 -20.252399 71.725899
11.4031 -19.732 72.538002
11.4523 -19.797899 72.454102
11.2907 -19.308201 72.8508
9.8100595 -15.864 74.993103
9.3072395 -14.2984 75.107697
9.1284504 -13.8525 75.097099
9.45644 -13.6782 74.760902
9.5914297 -14.0961 74.737602
10.7751 -13.3164 75.014801
10.6728 -12.9333 75.059402
10.8609 -12.8043 75.467697
10.9416 -13.2006 75.510597
10.7537 -12.7436 75.919502
10.8415 -13.2153 75.9319
8.9819498 -13.6399 75.068398
8.9463997 -13.5646 75.611397
8.6750002 -13.0203 75.730301
10.4241 -12.2432 76.356697
10.4531 -12.7565 76.307899
10.7853 -12.4383 75.890999
9.3619299 -13.4137 74.758904
10.8813 -12.5861 75.376198
10.6156 -12.7367 75.068901
10.0835 -12.994 74.783997
9.6799002 -10.8345 76.849998
8.2184896 -11.7146 76.615402
8.6299801 -11.5321 76.834503
9.1532402 -14.1765 75.524101
8.3971004 -12.0605 76.407997
9.8076096 -11.2784 76.704597
9.2868099 -10.8858 76.997498
8.7177801 -11.2763 76.974602
8.5655699 -12.4776 76.114304
10.0796 -11.7073 76.537498
10.583 -13.3296 76.278
10.1286 -13.2164 74.783897
10.2166 -13.6154 74.748199
9.1216698 -13.4226 76.021698
8.8922596 -12.9108 76.062599
9.4404497 -13.3229 76.389297
9.2321901 -12.849 76.418999
9.9237204 -13.0778 76.501801
9.7512102 -12.622 76.547401
11.2519 -15.1461 74.820602
11.5777 -15.0238 75.277298
10.1429 -15.6058 74.636497
11.1053 -14.5301 74.849602
10.5458 -14.7758 74.595703
10.6783 -15.3566 74.608803
9.9740295 -15.0831 74.6418
9.6316004 -15.251 75.035004
11.3397 -14.4376 75.376297
8.7781401 -11.9404 76.651497
9.0217896 -11.1513 77.015999
9.1400099 -11.3884 76.918198
9.2733698 -11.7096 76.787697
8.9764605 -12.368 76.495201
9.4937401 -12.1194 76.648102
9.6467695 -13.9003 76.349998
10.109 -13.6282 76.452797
10.0212 -15.0033 76.291702
10.4688 -14.7745 76.371803
10.2046 -15.6528 76.279701
10.6224 -15.4153 76.378403
10.9383 -14.5303 76.223701
11.1123 -15.1594 76.1838
9.5554304 -15.2725 75.458099
9.88449 -15.7969 75.943398
9.7194996 -15.1649 75.937202
9.3301096 -14.0504 75.972397
11.2426 -14.4101 75.863503
11.49 -15.0283 75.796402
8.5003099 -11.3581 76.857803
9.9081402 -16.2106 75.080803
11.3966 -15.291 76.006203
9.8542805 -16.0023 75.794098
9.6532898 -15.645 75.234802
9.7407503 -15.9351 75.2229
10.0214 -15.8821 74.765602
9.9089098 -16.0149 74.929199
10.0852 -15.9174 76.124199
10.9219 -15.4888 76.314697
10.4639 -15.7505 76.358101
10.462 -15.6088 74.581902
11.0357 -15.3833 74.668503
11.4863 -15.2221 75.032898
11.6585 -15.233 75.540901
10.6268 -12.5212 76.134697
10.641 -12.3596 76.138702
10.6539 -12.927 76.122902
10.2629 -13.127 76.419899
10.4898 -12.9884 76.290199
10.9293 -13.8196 76.102898
10.738 -13.2519 76.118401
10.8297 -12.9142 75.722702
10.7604 -12.9145 75.931099
10.6333 -12.7215 76.128502
8.9090996 -13.5175 75.365601
8.8034496 -13.3674 75.407402
9.9517403 -12.1603 76.529701
10.236 -11.9669 76.457497
10.8436 -12.6355 75.665901
10.8701 -12.5335 75.622803
10.8022 -12.7424 75.238701
10.8679 -12.6861 75.436096
10.7599 -12.5813 75.909401
10.832 -12.7713 75.692101
9.6684904 -11.6891 76.687103
9.9319801 -11.4809 76.622902
8.6078596 -11.2993 76.929604
9.2789297 -11.0838 76.967796
9.4177198 -10.8653 76.950699
9.4747896 -11.309 76.835197
9.7146797 -11.0956 76.782303
10.4075 -12.9357 74.907303
10.6429 -12.8231 75.066002
10.7801 -12.6621 75.218597
10.8329 -12.9661 75.268204
10.8165 -12.8523 75.252701
9.1985397 -13.6851 74.883698
9.7434101 -13.3147 74.7313
9.4040899 -13.5319 74.762497
9.3202696 -13.9793 74.9049
9.2648802 -13.8309 74.893898
9.0524197 -13.6912 75.083504
9.15452 -13.5752 74.873001
9.0832996 -13.9348 75.341301
9.191 -14.0187 75.110497
9.3729696 -14.7589 75.265099
9.1989803 -14.2558 75.313301
9.0944595 -13.745 75.785896
9.0345201 -13.8222 75.570297
9.0069704 -13.7238 75.353798
8.3668203 -11.4796 76.760803
9.7097998 -13.2041 74.731102
10.3835 -12.8433 74.911499
10.1518 -12.6681 76.466904
10.4251 -12.5273 76.325104
8.8901701 -13.2063 75.861198
8.8311195 -13.3126 75.649101
11.1113 -13.7738 75.695702
10.9053 -13.1992 75.729202
10.8606 -12.9286 75.502998
11.0768 -13.831 75.181503
10.9081 -13.2387 75.253098
10.4571 -13.1635 74.890602
10.7024 -13.0456 75.051804
9.8080797 -13.5889 74.728401
9.5012598 -13.8265 74.761902
9.6358099 -14.7225 74.865997
9.4369202 -14.2514 74.898399
8.66852 -12.7172 75.985397
8.5823002 -12.7175 75.925598
8.6571398 -12.2034 76.411003
8.4742403 -12.2452 76.278702
8.4869099 -11.8109 76.626503
8.3285599 -11.8891 76.520401
8.4375095 -11.6419 76.713898
8.8720598 -11.3602 76.956398
8.7037802 -11.3912 76.925697
11.164 -15.3581 76.176102
11.5729 -15.2647 75.789902
11.2362 -14.8366 76.0326
11.3267 -15.0767 76.014397
11.6214 -15.1919 75.2901
11.4694 -14.7765 75.574699
11.5758 -15.002 75.5448
9.9288101 -15.9702 75.932999
9.7111702 -15.6082 75.698196
9.7817097 -15.8737 75.732597
10.2658 -15.8487 76.2687
9.9581499 -15.4566 76.139297
10.0291 -15.7302 76.134399
10.5366 -14.0368 76.361198
10.7627 -13.9044 76.257896
11.1137 -14.4483 76.067101
11.0428 -13.7779 75.911499
9.5583401 -15.2796 75.243698
9.8737297 -15.5092 74.789299
9.72505 -15.5926 75.014297
9.6534796 -15.6546 75.458603
9.4235096 -14.6733 75.712196
9.3618698 -14.7251 75.476601
9.5061398 -14.7764 75.079102
11.3232 -14.4134 75.630997
11.126 -13.7938 75.4534
10.8164 -15.0316 76.313599
11.047 -14.9239 76.199799
11.3834 -14.7893 75.817497
11.398 -14.8582 75.034798
11.4837 -14.7966 75.312698
8.8958302 -12.6441 76.268097
8.7623301 -12.4142 76.319397
9.1054697 -12.0517 76.677299
8.8695698 -12.1483 76.567497
8.5704098 -12.0054 76.521599
9.1554899 -13.1342 76.234596
9.0368204 -12.8877 76.248497
9.3488798 -12.5151 76.549599
9.1050997 -12.604 76.444504
8.7503996 -12.6822 76.0895
8.77847 -12.9632 75.900902
9.2148895 -14.1129 75.747597
9.3480396 -13.6348 76.205101
9.2093601 -13.687 75.996597
9.01085 -13.4721 75.828796
9.6659298 -14.5368 76.156898
9.4682798 -13.9869 76.184601
9.7517996 -13.4441 76.458504
9.5308905 -13.5594 76.370796
9.25846 -13.3839 76.223099
10.3314 -15.2615 76.358803
10.1267 -15.3758 76.284897
9.8475399 -15.0939 76.1436
9.8206301 -15.5272 75.933296
10.0525 -14.3235 76.395103
9.8374701 -14.4439 76.317001
9.5327797 -14.6096 75.945801
9.6150999 -15.2288 75.698402
10.8685 -15.2656 76.303902
10.6817 -15.6289 76.383499
10.7147 -14.6478 76.321899
10.5657 -15.15 76.368896
10.2877 -14.1846 76.408203
10.37 -13.4619 76.400703
9.9996004 -13.2963 76.475502
10.2065 -12.8972 76.445396
9.6275301 -12.3671 76.580902
10.0744 -12.4243 76.4888
9.8054104 -11.9082 76.606201
9.5569401 -11.4925 76.761299
9.3713198 -11.9021 76.719498
9.39359 -11.165 76.906097
8.9373798 -11.6618 76.822304
9.20117 -11.5365 76.854301
9.17134 -11.0156 77.015701
9.0795698 -11.2687 76.971603
10.4 -15.5448 76.3638
10.2333 -14.8935 76.368103
9.8654499 -13.777 76.436203
9.57446 -12.9946 76.502701
9.6653204 -13.2201 76.4823
9.4744997 -12.7627 76.521004
9.2188702 -12.2708 76.607498
9.0127802 -11.8503 76.747902
8.8871899 -11.4965 76.892197
8.6972599 -11.7365 76.739998
8.8622599 -11.2337 77.004097
10.9519 -15.0507 74.645599
11.2199 -14.9469 74.7967
11.2705 -14.4693 75.098198
11.4548 -15.0768 75.030296
10.6823 -14.024 74.768997
10.9334 -13.9038 74.935402
9.7703104 -15.186 74.813797
10.3527 -15.2974 74.551804
10.0881 -15.409 74.617104
9.9488297 -15.7501 74.783401
10.0596 -14.3924 74.633904
9.7760296 -14.5879 74.686996
10.7483 -15.4912 74.595901
10.2085 -15.7387 74.634804
10.3923 -15.4768 74.587799
10.6478 -15.1737 74.567703
10.2431 -14.9385 74.574699
9.8895998 -13.8622 74.702301
10.3788 -14.1844 74.667503
10.1056 -13.0927 74.786003
9.7787704 -13.4524 74.728897
10.9797 -15.2431 74.683502
11.29 -15.292 74.813499
10.8463 -14.6345 74.683899
10.5263 -13.4383 74.853203
10.4336 -13.0495 74.899803
9.8446398 -12.8582 76.5252
9.3425398 -13.0877 76.406197
9.0127001 -13.1629 76.041702
10.1472 -13.3393 74.781097
11.8486 -15.6176 74.836601
11.7227 -15.4375 75.125603
11.7687 -15.713 75.485001
11.927 -15.9856 75.187897
11.5365 -16.214399 75.750298
11.6891 -16.4321 75.450699
11.112 -16.551701 75.904503
11.2811 -16.7523 75.583702
10.7018 -16.745399 75.788597
10.8945 -16.945999 75.484398
11.6279 -17.065001 75.032799
11.2518 -17.3027 74.950699
10.5988 -17.0334 75.239304
10.9372 -17.377199 74.765602
10.4066 -16.8776 74.767502
10.7086 -17.2225 74.360397
10.3298 -16.5124 74.403801
10.6329 -16.9391 74.0019
10.5129 -16.119101 74.156799
10.8174 -16.572201 73.7258
10.9652 -17.3501 73.594002
11.1521 -17.0361 73.317398
11.2949 -16.2353 73.672699
11.6152 -16.715099 73.264503
11.8768 -16.0938 73.862701
12.2163 -16.682199 73.401703
11.9211 -17.006001 72.849503
11.8295 -16.948 72.976997
12.3415 -16.9133 73.119102
11.2097 -17.713301 74.352402
10.9968 -17.573999 73.972298
11.4015 -17.299101 73.035797
11.5161 -17.3535 72.869797
