# .PCD v.7 - Point Cloud Data file format
VERSION .7
FIELDS x y z
SIZE 4 4 4
TYPE F F F
COUNT 1 1 1
WIDTH 1669
HEIGHT 1
VIEWPOINT 0 0 0 1 0 0 0
POINTS 1669
DATA ascii
36.8517 5.10778 15.909
35.773701 6.74827 15.8609
35.3391 7.7815199 15.7602
35.031502 8.6257496 15.7167
34.700199 10.4312 15.8202
34.7215 11.2295 15.9674
35.537102 12.2484 16.3337
36.443802 12.5145 16.639099
37.617599 12.2892 16.935801
38.9865 11.6683 17.2307
39.885601 11.1477 16.3613
39.665501 11.1043 17.3503
39.353001 11.1021 18.5599
38.727299 11.2655 21.150801
38.131001 11.5016 24.2164
37.690601 11.6213 27.309999
37.416901 11.6153 29.957199
37.009998 11.3991 33.447498
37.194099 11.5277 31.9499
37.4673 10.301 32.3671
37.560501 8.7117701 32.6087
37.549099 7.6607499 32.552898
37.555 6.5594201 32.305
37.080898 5.1283898 31.663099
36.137699 4.0804501 30.741301
34.952202 3.8076899 30.044901
33.738098 3.8394201 29.457199
32.351799 4.3277202 28.8911
31.0688 4.8631501 28.2603
30.653799 5.1455998 27.922899
36.935101 9.7067204 35.802299
36.875198 8.0125399 36.166401
36.804699 6.8990898 36.203899
36.230202 4.1349201 35.238998
35.324501 3.1296599 34.124802
34.210701 2.9942801 33.380299
33.091099 3.1288099 32.8326
31.6999 3.59814 32.264099
30.422899 4.01302 31.528
29.8325 4.1736999 31.1987
35.759201 9.9683599 40.678299
35.836201 9.4571505 40.706001
36.002899 8.6388998 40.714401
35.997299 7.1591601 40.501202
35.807899 6.0158901 40.257702
35.737499 4.7547598 39.941898
35.369099 3.2908101 39.326801
35.008099 2.5992999 38.855301
34.164001 1.95287 37.893101
33.123699 2.00437 37.166599
32.0429 2.3251901 36.634899
30.6292 2.9207699 36.216
29.1257 3.3696401 35.7789
27.8375 3.58602 35.476101
26.3113 4.42698 35.355801
25.2707 6.29913 35.487598
34.312401 8.7101202 44.941799
34.672699 6.5834498 44.675098
34.5434 5.5310702 44.377399
34.5709 4.3457298 44.005798
34.242199 2.90294 43.354
33.571098 1.86525 42.728001
32.556198 1.22947 41.938801
31.455 1.3010499 41.189899
30.360201 1.66028 40.672798
29.103901 2.28719 40.2584
27.8237 2.8854799 40.0327
25.5424 4.1066198 40.0103
24.484699 5.77527 40.397301
32.645199 7.9004402 48.3041
33.117401 6.0564699 47.983601
33.087502 5.0822802 47.675098
33.1306 4.0088701 47.4011
35.346802 8.2755804 42.9949
34.5854 7.8749399 44.918701
33.645699 7.4581699 46.794201
32.944099 7.1695299 48.216801
32.280102 6.8633599 49.599899
32.306702 8.7643499 48.4702
33.094501 9.1325703 47.0051
34.0793 9.7353601 45.011799
34.953499 10.2759 42.9842
35.6255 10.8305 40.648899
36.133301 11.5764 37.999802
36.185001 12.0496 36.726898
35.885101 12.6902 35.708599
34.590199 13.7511 33.799702
25.5937 10.3643 46.312599
25.9582 10.7956 44.956001
26.452499 11.4447 43.168301
30.5811 13.4296 31.361
29.9853 13.5826 33.314098
29.1539 13.4311 36.011002
28.316799 13.0383 38.844398
27.603901 12.4812 41.223999
27 11.8178 43.298199
26.444901 11.1244 45.168098
26.0138 10.6738 46.569401
31.257299 13.9185 32.104301
30.3554 13.5449 32.129398
29.8179 13.145 32.124001
28.405199 11.6509 30.6201
27.805901 10.2175 29.785101
27.6514 8.4788103 29.1847
28.0427 6.7274799 28.947901
28.826799 5.41818 29.182699
29.303699 4.9338498 29.4217
29.9811 4.59303 29.681999
32.820801 14.1578 32.594601
25.693501 11.0759 42.826
26.3284 11.6995 40.5424
27.051701 12.2126 37.971298
27.881599 12.5957 34.9916
28.7094 12.5914 32.441299
29.1147 12.5545 31.4074
29.5203 12.4664 30.6105
29.9389 12.4623 29.628799
30.4494 12.4147 28.481501
31.110701 12.3477 27.248199
31.9146 12.2762 25.4851
32.8783 12.1386 23.051901
33.8218 11.9683 20.0186
34.638699 11.8259 17.3808
34.9911 11.7803 16.114599
35.310799 11.7474 15.0373
35.596401 11.7693 14.1412
35.882702 11.7843 13.3431
36.097 11.9238 12.6257
36.283798 12.1187 11.8886
36.337502 12.3104 11.2473
25.235399 10.4452 44.638699
23.653 5.1359601 44.758301
32.838902 2.5491099 46.868999
26.3675 3.0247099 42.287102
26.851999 3.25331 39.9272
25.629801 2.6868801 44.3036
24.9076 2.3726101 45.804298
27.217899 3.3975201 37.738701
41.769199 11.607 11.5722
36.964699 5.7504201 10.8109
37.266499 4.8671398 10.7527
37.617802 4.2028399 11.0446
37.651299 4.0317702 11.3976
37.393002 4.1110101 12.0784
36.679798 6.3699999 11.2681
36.365601 6.8034701 12.2014
36.467999 6.6779299 11.7668
41.4977 11.7917 10.7413
41.2309 11.7796 10.2484
35.785801 7.2807498 14.7564
35.9907 7.1492801 13.8275
36.203499 6.8649001 12.8534
31.8804 6.5121598 24.443701
33.016399 6.9967198 22.033701
31.006599 5.9246802 26.314699
30.372299 5.3847098 27.763399
34.088902 7.2425499 19.435499
35.0769 7.36759 16.958
35.492802 7.3462601 15.7976
36.4799 5.3733101 13.8295
36.448799 5.5581102 14.8249
36.147099 5.8856201 17.1304
36.337002 5.7676501 15.9279
35.206402 9.7823496 14.7469
35.571499 9.8021803 13.7865
34.244999 9.6301003 16.9748
33.110699 9.6028605 19.541401
31.8934 9.5950203 22.269199
30.687799 9.6813498 24.513399
34.7943 9.6916399 15.752
38.916401 12.0763 10.6027
36.864201 12.7864 10.5349
36.065601 12.04 10.5113
36.4828 9.7670698 10.6347
37.462601 4.9451799 10.2936
38.050098 4.1756101 10.5227
39.673599 3.26265 10.6451
40.7439 2.9774499 10.6623
43.584301 4.8502598 10.9826
42.448101 10.1268 10.1342
42.589401 9.2617798 11.2529
41.428799 11.4278 9.4330301
40.5695 11.8723 10.1691
40.2729 11.8233 11.032
39.815899 11.8819 10.7781
41.1446 2.86743 10.6548
41.5788 2.5501001 10.0571
41.040298 2.704 10.0055
41.368099 2.0556901 8.9172401
42.217899 1.6930799 9.0128202
44.112202 6.0924501 10.1231
43.267601 7.1203599 11.1897
43.668098 7.1946101 10.0504
44.998001 6.02739 8.4780903
44.558899 6.9960399 8.4567299
44.224602 5.1090698 10.0865
43.616299 5.0415602 11.0401
42.447899 2.4846399 10.1686
43.8414 4.0014501 10.1675
44.1674 4.6908202 10.0637
40.159599 11.8986 9.7606096
41.278999 11.4383 9.0253096
42.510799 9.8399897 9.45543
42.7309 8.8957396 11.023
42.924099 8.6768999 10.0917
42.494801 10.0052 8.1822205
43.246101 8.8454905 8.3703804
45.134499 5.0546198 8.592
43.180801 3.25121 10.2344
44.4897 2.55072 9.0574198
43.9109 2.0187199 9.1438999
44.925301 3.30352 8.8881998
45.149799 4.3847399 8.6799402
36.590302 13.0001 9.84412
36.333302 13.2639 9.1903601
36.7715 13.4104 9.1780005
37.0313 13.0809 9.8524904
37.764301 13.2514 8.9377899
37.928902 12.7377 9.7733002
39.403702 12.5151 8.4355497
38.978901 12.2174 9.7867699
41.9487 10.7102 9.0447903
41.012798 11.5885 8.0550804
41.959099 10.6347 8.1195297
40.017899 3.15661 9.9024
43.1063 1.58305 9.2120705
40.366798 2.5387199 8.8491001
39.208599 3.4498401 8.6828403
38.988098 3.7558401 9.8437099
38.386799 4.1922598 8.5657301
38.251499 4.21874 9.7845097
37.640099 5.2873101 8.4607496
37.5532 5.0634999 9.5693903
36.935902 6.4997501 8.4662304
37.006699 6.0925698 9.5790901
38.695999 3.7544501 10.6648
35.584801 12.4402 9.0498304
35.853802 12.1918 9.7600403
35.698002 11.4904 9.72616
35.330299 11.7182 8.9302502
36.084499 9.9225197 9.7762003
35.624401 10.1571 8.8726597
36.3759 8.1970596 9.6546001
36.0928 8.4678202 8.5787497
41.988098 10.8692 9.5814304
35.943401 12.9143 9.1453896
36.195999 12.7305 9.8236904
49.466801 2.89766 3.75056
49.281898 1.55014 3.97048
48.9347 0.12781601 4.09408
48.252102 -1.3209 3.8523099
47.805302 -2.0320499 3.8715401
47.570599 -2.3304701 3.9800601
46.968601 -1.4103301 5.1139898
46.744598 -3.3989 4.42588
46.2784 -3.7016301 4.5390601
45.9534 -3.08128 4.9878302
46.259602 -2.66291 5.05299
47.212002 -2.84477 4.2235298
46.6231 -2.1022899 5.006
48.5494 5.1713901 4.05795
49.493599 3.6394801 3.7007301
48.498199 3.34093 4.5482001
48.171299 4.6967101 4.6552601
45.5284 -4.0703101 4.1441302
45.340099 -4.1406798 3.9769399
44.929901 -3.47839 4.3049302
45.3055 -3.3662601 4.6268802
50.1026 5.0441899 1.81675
49.912601 4.9678302 1.45174
44.7379 -4.19203 3.3855901
44.355598 -3.4498501 3.7336099
44.499802 -2.0397699 1.06162
44.118599 -1.82868 1.6007299
44.225498 -2.8781199 1.56004
44.483799 -2.9736099 0.96925402
50.104801 5.0002899 2.3994501
49.970798 4.6501002 3.0639501
49.7798 4.3720598 3.1392801
48.403099 1.96489 4.7335
47.929699 0.56720501 5.0166001
47.343201 -0.80060601 5.0790401
49.465401 4.7188501 1.11808
49.288898 3.47069 0.667669
47.9361 2.6524799 0.83080602
49.3311 4.4391599 0.96300298
47.701302 3.1623199 1.04882
49.103401 4.0041599 0.88031799
47.206902 1.69087 0.89978898
46.8218 2.3281701 1.28637
46.680901 0.339196 0.93241203
46.543701 0.52157301 1.05963
44.2733 -0.83231598 1.64177
44.6045 -1.53598 1.04711
45.532398 -0.531524 0.98185498
45.053001 -0.021049 1.41755
45.7421 -0.71080399 0.83727401
45.000702 -2.1134 0.67501301
45.047901 -2.89098 0.54426497
47.9594 5.2230501 1.3715
46.100498 1.08161 1.44288
43.886501 -2.75964 2.27144
44.09 -3.24246 3.1619899
46.659302 4.43156 1.40841
46.529999 6.2426801 1.68401
44.752998 7.5192299 2.1710501
43.799801 6.5756798 2.1944001
45.450699 5.4194198 1.69916
46.818901 6.4478002 1.68559
48.280998 5.41571 1.36683
48.486099 5.5105901 1.4162
40.2757 1.78398 5.5002298
40.5299 1.69118 6.51999
41.641998 0.58732498 5.8902798
41.3279 0.783135 5.0356202
40.273399 2.08358 4.82829
41.342499 1.21745 4.3595099
41.0993 1.50272 7.30408
42.0765 0.39287299 6.5482502
42.0135 0.83346897 7.4217401
42.414001 0.302187 7.0395899
40.498299 6.0103302 3.2490101
40.027699 5.2721901 3.5741501
41.219299 4.1283598 3.3695099
41.8153 4.7474599 3.08234
41.201 6.8832698 2.88902
42.7425 5.7291698 2.66518
42.520699 2.66501 3.0707901
43.308998 0.69206101 2.4294701
44.134998 1.5494 2.22806
43.1782 3.32514 2.7106199
37.386002 5.7921901 5.2181101
38.679298 4.4362202 4.8140001
39.2117 4.96628 4.11374
37.792301 6.2074699 4.3299899
40.472198 2.7799001 4.1700602
41.747002 1.87203 3.6277101
42.233799 2.4191201 3.1990499
40.855598 3.5991001 3.6732299
39.719398 4.6005802 3.9646299
39.4105 3.71614 4.55867
43.915001 -2.5383799 4.2420402
43.154099 -1.31849 4.8748298
43.716202 -1.54054 5.4774299
44.459 -2.71667 4.7428899
44.949501 -2.74634 5.0233402
43.036201 0.22351401 7.4864998
44.286999 -1.64034 5.8968501
39.752102 5.4833798 3.66611
38.374901 4.1181502 5.6519799
39.3242 3.0191801 5.24406
39.823399 2.4269199 7.1616302
39.400002 2.7198701 5.91751
39.265701 2.91658 7.0831299
37.421501 5.4309402 6.9307399
38.3116 3.9207799 6.9182801
38.298302 3.9654901 6.37501
42.839401 -1.05821 4.2499399
43.424702 -1.87517 2.81709
42.673302 -0.57782602 3.57126
43.615501 -2.3125 3.6637101
43.7743 -1.22565 1.96199
42.889301 0.135879 2.7905099
46.182499 4.9935498 7.0109401
45.893501 5.9743099 6.89257
45.533199 1.8940901 7.7300501
46.747799 1.21899 6.2822599
46.242001 -0.055876002 6.3396101
46.506401 -1.91422 5.2271299
45.919498 -0.68695498 6.3134298
45.144299 1.0649 7.8341498
36.518398 12.6666 3.9776001
35.851898 11.8988 3.98137
36.294201 10.4126 3.68924
37.545502 11.6646 3.6034701
45.231701 2.70011 2.0195401
44.264801 4.2184501 2.32974
40.357101 6.1515799 3.2881801
39.8032 7.9163899 3.0510299
38.977299 7.2432499 3.30933
38.2654 6.6880798 3.74928
38.048599 9.2743502 3.3689499
36.9949 8.2666397 3.6501501
35.582199 9.5780802 3.902
34.778 12.1797 4.4886398
34.9002 10.9313 4.2073102
35.366798 11.4549 4.0690699
39.221001 10.4105 3.25265
40.931801 8.9788704 2.87761
42.183701 7.7102799 2.6599801
43.3633 6.4489698 2.3410499
44.778801 4.9402099 1.8858
45.864799 3.5596299 1.63661
48.915199 5.78333 1.75591
47.3027 6.7871099 1.96257
45.357399 8.0011902 2.5037601
43.219501 8.5589895 2.6823599
43.815201 9.0943899 2.96434
42.367599 10.3253 3.34817
41.881401 9.8993101 3.0555
40.260502 11.4806 3.4458899
40.791901 11.965 3.7355199
39.055901 13.4008 4.0171099
38.5639 12.8876 3.7799301
36.758202 12.9791 4.00735
37.621498 13.9225 4.22679
37.378601 13.6232 4.0875401
36.126801 13.5977 4.4056501
35.752399 13.337 4.42416
42.5228 10.4469 6.62325
43.755699 9.0253201 6.5236702
45.438999 7.0139298 6.70116
46.219101 4.2294402 7.1981001
45.9263 2.8206699 7.6051102
44.697701 0.41552201 7.8256302
35.726799 14.2338 6.2251801
35.855301 14.1305 5.3471599
36.700298 14.4856 5.4007301
36.4823 14.5399 6.2248998
37.633598 14.4695 5.3938498
37.670799 14.4242 6.1601901
37.625702 13.8183 7.7436199
36.4174 13.9212 7.9768801
35.920399 13.7474 7.9955702
37.653301 14.2673 6.7641902
39.215 13.7141 6.0623798
39.057899 13.4808 6.6018
39.208698 13.808 5.1490598
41.0994 12.42 5.0032301
41.079899 12.3453 5.82968
40.937901 12.1407 6.36025
42.8433 10.7169 5.3718901
42.669498 10.6031 5.9801798
42.840199 10.7832 4.4239101
40.9879 12.3256 4.1570301
42.652401 10.5457 3.6972101
39.180401 13.6587 4.3588099
37.638199 14.1841 4.5377598
36.9678 14.1835 4.58603
35.561298 13.6122 4.7543998
35.9916 13.8647 4.7107801
35.364498 13.7766 5.3463998
35.180599 13.8119 6.3112202
35.484699 13.3196 7.9853101
39.115799 13.0717 7.3092899
40.951302 11.9128 6.9591098
44.120602 0.052522 7.7303901
45.530102 -1.34864 6.2071199
45.0443 -1.6274199 6.1907101
46.0858 -2.3459899 5.33779
45.693802 -2.63311 5.3412199
48.8951 5.61689 3.4124999
47.4837 6.39785 4.3534098
47.662102 6.7828102 3.9129601
47.7388 7.0605502 3.18049
49.093601 5.8515801 2.68433
47.514599 6.9289198 2.31707
49.077202 5.8526001 2.11076
45.8666 8.0732803 4.5627799
45.799999 8.3948202 3.7065599
45.655602 8.1813297 2.8413701
44.199699 9.5558205 3.98209
44.0383 9.32967 3.3164401
44.004002 9.4884901 4.9847898
45.871498 7.8078299 4.8449502
45.738602 7.3787098 5.5162401
46.6623 5.8915601 5.4708099
47.256699 5.9439702 4.8698602
46.923401 5.5304298 5.48595
47.251999 4.2367702 5.6766701
47.102901 2.45806 5.9891901
44.000198 9.2413998 5.5982099
36.539902 6.8695502 7.1863699
34.8946 13.2239 5.3401899
34.280499 12.1893 5.25878
34.462502 12.1893 4.7945099
35.042599 13.0617 4.8007598
34.320099 10.547 4.9839602
34.5406 10.6188 4.5115499
35.049702 8.8128796 4.7290101
35.247601 9.1490202 4.17626
34.284599 10.4327 5.9131799
35.061001 8.5553398 5.5872302
36.215099 7.18501 5.45577
36.335201 7.4092698 4.5766301
36.6334 7.86833 3.9228899
34.787201 13.3437 6.3386798
34.267101 12.1974 6.1405401
35.201199 12.8769 7.9022002
34.786598 11.9444 7.7961001
34.834599 10.387 7.53338
37.325199 5.56358 6.1020098
36.374401 7.06989 6.3194699
35.633499 8.5185204 7.2634301
35.2421 12.8035 4.46805
37.080002 13.8629 4.2746501
45.801498 7.4793301 5.2530999
36.007301 11.3235 10.5481
37.285801 12.7633 10.5348
38.073601 12.4051 10.541
37.0401 5.8350101 10.4644
36.649502 7.9714699 10.7073
36.455799 12.5947 10.5365
42.9119 8.1645603 11.12
43.577702 6.0195699 11.2063
43.261902 4.3080702 10.8884
42.681301 3.58411 10.8182
41.9855 2.9017401 10.8055
36.1991 12.3327 10.5241
35.9744 12.4676 9.79492
35.690399 12.6606 9.0998096
36.3134 14.3213 7.1163101
35.709499 14.0384 7.24264
35.263401 13.5883 7.2666001
34.949902 13.1456 7.2161798
34.5392 12.0986 7.0199199
34.528301 10.397 6.7192502
35.314602 8.5160398 6.4461598
36.774799 6.9463701 10.6487
40.6716 11.7706 9.32868
40.894699 11.7566 9.6787205
40.2547 12.0728 8.23419
36.6726 7.1505799 9.6369305
36.502701 7.3731899 8.5722399
36.2658 8.8819504 3.7296
37.125099 9.8397799 3.49669
38.401798 11.0289 3.4078
39.4249 12.1993 3.6027601
39.8932 12.7497 3.8772399
40.139198 13.1798 5.0818
40.2085 13.0522 5.9452701
40.109402 12.8165 6.4723001
40.0672 13.0568 4.26056
40.0756 12.5169 7.1220798
35.626801 7.7670002 5.5125699
35.639801 8.0686302 4.63907
35.925999 8.4327202 4.0215402
35.810699 7.7072101 6.3783498
36.076 7.61657 7.2360601
50.6996 1.48746 2.83074
50.7229 0.93950802 2.8359201
50.737099 0.43025699 2.86621
50.495899 0.110988 2.95086
50.134701 -0.87851298 2.7529099
50.2229 -0.37898499 2.9745901
48.957001 -2.06833 2.9393301
49.251801 -1.62187 2.9631701
49.664398 -1.15588 2.9235699
48.3274 -2.50809 3.1844599
47.9711 -2.95279 3.3389499
51.012001 3.8956499 1.46469
50.822601 3.7930701 1.05902
50.958099 3.9711101 2.1131599
50.84 3.65398 2.79372
50.7188 2.8245201 2.9149699
50.785198 1.89179 2.8612101
47.716499 -3.5311999 3.50383
50.367699 3.6078 0.72995502
49.017601 1.88094 0.52570498
49.844101 3.12762 0.49652699
50.0634 3.4229801 0.570337
48.323502 0.90254903 0.588974
47.338902 -0.26090801 0.55563402
44.8302 -3.70818 0.794222
45.298698 -3.48229 0.403873
45.612202 -2.84007 0.35279399
46.4519 -1.38349 0.50902802
44.701801 -3.7855699 0.98274797
44.426201 -3.8817101 1.6870199
44.551399 -4.1229501 2.7071199
45.486698 -5.09726 2.94349
45.381401 -5.0735602 2.31565
47.274502 -4.0430398 3.76722
46.661598 -4.42205 3.9776001
45.914799 -4.8706598 3.57636
52.2384 -0.243599 0.668437
52.277302 -0.024489 0.60351402
52.323299 -0.085759997 0.61555803
52.2686 -0.28322101 0.73234099
52.0732 0.28118601 1.81081
51.578098 0.74904197 2.0643001
52.016102 0.24059699 1.71306
52.757801 -0.62690902 1.0246
52.534599 -0.42159599 1.14687
52.498501 -0.452833 0.918167
52.675701 -0.61192101 0.85685098
53.756401 -0.200386 0.34616601
53.541901 -0.191506 0.086917996
53.4781 0.201065 0.116768
53.695499 0.121341 0.40353301
53.333099 1.19971 0.96589398
53.155701 1.1402 0.66925102
52.556 1.71981 0.76588601
52.646801 1.87193 1.0596
52.148102 1.94901 2.2660899
52.595501 1.60501 2.0077701
52.5495 1.89323 1.81537
52.155602 2.31671 2.02105
52.785801 1.75345 1.38147
53.049702 0.118451 -0.067529999
53.345798 -0.259103 -0.020631
53.210999 -0.48635799 0.068963997
52.838902 -0.170697 0.036251999
52.842602 -0.61522102 1.2222199
52.597099 -0.377756 1.40702
53.584202 0.56968403 0.598782
53.389099 0.65965998 0.33337399
53.4491 -0.60623097 0.24625599
53.545502 -0.376333 0.143181
53.733501 -0.41305399 0.385068
53.664799 -0.650603 0.50788802
52.802502 0.57774198 0.075712003
52.562901 0.144816 0.204616
52.4025 0.285052 0.357831
52.5937 0.72030902 0.29372799
53.773701 -0.396804 0.58258599
53.701302 -0.59813702 0.67362201
53.557999 -0.78294599 0.75227302
53.548 -0.820701 0.59379202
53.636902 0.38657901 0.74507397
53.716 0.036697 0.554667
53.6889 -0.013958 0.62707603
53.590801 0.188668 0.86340898
53.5023 0.003757 1.1029
53.6595 -0.057441998 0.68739498
53.510899 -0.141518 0.86265898
53.3419 -0.262716 1.28239
53.3965 -0.34152201 1.03541
53.198601 -0.44638801 1.3421201
53.3354 -0.57555902 1.07844
53.463001 -0.77216703 0.93302
53.3036 -0.64384103 1.10639
53.174599 -0.73358297 1.10913
53.359901 -0.82614499 0.92855799
52.5303 -0.099393003 1.7122
52.6856 -0.295755 1.55467
52.9156 -0.161099 1.69636
52.641602 0.102622 1.92471
52.924999 -0.53260702 1.3513
53.1147 -0.37740001 1.46646
53.268002 -0.171846 1.4569401
53.106201 0.107162 1.81875
52.734001 0.44034401 2.0638101
52.956299 1.36437 1.82995
52.880199 0.93090397 1.9674799
53.291401 0.50923502 1.65624
53.410801 0.86687499 1.45145
53.4786 0.110927 1.27143
53.552299 0.35811299 0.98416799
53.4244 1.02485 1.23841
53.622898 0.478109 0.80949098
52.891102 1.6079 1.60748
52.0065 1.5560499 2.44115
52.509399 1.19956 2.1463599
51.8349 1.12107 2.3477001
52.353901 0.73788702 2.1995399
52.369202 -0.211804 1.18636
52.413399 -0.26069999 1.18276
52.4534 -0.198478 1.52494
52.322601 -0.083637998 1.50906
53.805801 -0.18539 0.49378601
53.039398 -0.78703201 1.0545599
53.241001 -0.91131699 0.84702301
53.009899 -0.60276997 1.2753201
53.415699 -0.88182199 0.76560402
53.185001 -0.91851801 0.721331
53.372002 -0.90262598 0.651833
52.942299 -0.80235398 0.88981998
53.345402 -0.79515898 0.37287599
53.120098 -0.68913698 0.200481
52.742401 -0.49478799 0.224029
52.4799 -0.24853 0.36248001
52.349701 -0.17648201 0.506374
53.128201 -0.9152 0.58645201
53.238701 -0.91235602 0.51774901
52.8568 -0.78114402 0.70240599
52.2146 0.420241 2.00616
52.415298 -0.43666601 0.638834
52.520302 -0.53019798 0.579193
52.792301 -0.71110398 0.43621799
52.3241 -0.302838 0.89214098
52.320999 0.345828 0.51172203
52.358299 0.33760899 0.50900602
53.077999 -0.86211801 0.42966899
52.507401 0.81532699 0.45180899
52.569698 0.763322 0.40718099
53.751999 -0.19020601 0.62065297
53.751202 -0.370006 0.69539702
53.682098 -0.55495203 0.76421499
53.540798 -0.737535 0.822496
53.345798 0.17767499 0.023672
53.0933 0.69981802 0.126222
52.7089 0.85128301 0.290353
52.983898 1.01246 0.38767099
52.435799 2.09079 1.55529
52.1702 2.3919401 1.7031
53.5919 -0.108412 0.733091
53.6087 -0.097378001 0.69641298
53.699402 -0.20249 0.64431697
53.3335 -0.59612602 1.06531
53.338699 -0.56979799 1.0225101
53.573799 -0.118182 0.698322
53.385101 -0.35393801 0.98870999
53.493599 -0.158655 0.82863897
53.7127 -0.35532701 0.75052601
53.6465 -0.52351898 0.80527198
53.491501 -0.69897097 0.85743499
52.5411 1.40332 0.50288701
52.346298 1.55048 0.54828399
52.174301 2.08283 0.90148997
52.2682 -0.0022 0.57763398
52.2388 0.229877 0.465911
52.304298 0.34434599 0.48858401
52.1385 2.1263299 0.88832998
52.265598 1.6108 0.53744102
51.367901 3.3143201 2.08073
51.3428 3.41763 1.97524
51.291901 -1.6930701 2.2623799
51.213799 -1.84401 2.3487599
51.584801 -1.92277 2.0385699
52.252899 -2.74739 0.71615303
52.065601 -2.5316 0.66205001
52.194199 -2.5723901 0.958978
52.405602 -2.7514601 0.97810298
53.972301 -4.0041299 0.64457101
53.9245 -3.7347901 0.70439398
53.9091 -3.7945399 0.91547501
53.9515 -4.0320501 0.76770103
53.855 -4.1012502 0.87159401
53.8297 -3.9681101 0.98031002
53.8134 -4.0247402 0.93994403
53.437901 -4.8295398 1.05874
53.5718 -4.7902098 1.00946
53.473499 -4.7590299 1.07657
53.268299 -4.6256499 1.29365
53.187099 -4.7180099 1.24954
53.547401 -4.7554798 1.00899
53.529301 -4.76127 1.02056
53.727001 -4.6332998 0.989456
53.6828 -4.61554 1.0045
53.879501 -4.2962899 0.90021402
53.838699 -4.2925901 0.90608102
53.897301 -4.0781002 0.83651102
53.361401 -4.4305201 1.3309
53.3521 -4.4216399 1.39943
53.271702 -4.6039 1.31476
53.299999 -4.6168098 1.23959
53.502899 -4.0973501 1.2967
53.4995 -4.0742202 1.37263
53.638699 -3.9374199 1.1794
53.640999 -3.89869 1.24765
53.660801 -3.89048 1.2160701
52.739399 -4.0373702 0.42236099
52.8647 -3.6946101 0.38711199
53.268299 -3.8970799 0.12436
53.108799 -4.1686902 0.127094
52.738098 -4.4915299 0.56481898
52.603901 -4.3264999 0.76537901
52.6026 -3.9492099 0.62245703
52.744099 -4.6546302 0.86866301
52.628101 -4.5524802 1.0358
52.8064 -4.7090902 1.13123
52.639599 -4.6068001 1.28801
52.8522 -4.6819901 1.33257
52.656101 -4.5931702 1.46032
52.906502 -4.6205101 1.45944
52.692799 -4.5394301 1.5851099
52.982601 -4.52635 1.59436
52.794102 -4.4406199 1.72843
52.242298 -2.61285 1.89766
52.014702 -2.4738801 2.0005801
51.724701 -2.4783599 2.2147701
50.812698 -1.9306 2.4110401
50.444302 -2.0604899 2.4665599
51.311699 -2.6972599 2.3418
53.598202 -4.8559399 0.92900801
53.358799 -4.9373298 0.94133002
53.476799 -4.7462401 1.06626
53.556599 -4.6326799 0.17485601
53.691601 -4.65693 0.39839801
53.498299 -4.8739901 0.54782897
53.4086 -4.7491398 0.27071899
53.7169 -4.35039 0.13959301
53.855801 -4.3466802 0.32701299
53.768002 -4.0740499 0.138188
53.8983 -4.07408 0.25769901
53.683102 -3.8467901 0.191064
53.808201 -3.7425301 0.33931801
50.290798 -2.2657199 2.4577301
51.1535 -2.8528199 2.3587501
53.7519 -3.63153 1.14397
53.508099 -3.45612 1.43968
53.4622 -3.6361899 1.60779
53.711899 -3.79144 1.215
53.544498 -3.30319 1.18314
53.787701 -3.48384 0.91202497
53.527599 -3.24581 0.958938
53.825401 -3.4582 0.67288297
53.240002 -3.2356601 0.69680798
53.6348 -3.42296 0.45839101
53.035198 -3.4270899 0.473084
53.3951 -3.6092501 0.25631401
52.9063 -3.37203 0.624327
52.734001 -3.6264501 0.56458801
52.555801 -3.43679 0.68258601
52.719799 -3.18505 0.80430698
53.768902 -4.6873102 0.65306997
53.594501 -4.8828602 0.777349
53.923801 -3.73698 0.53840297
53.963299 -4.0339499 0.482389
53.7864 -4.6663599 0.882792
53.936798 -4.3349199 0.57827199
53.922199 -4.3168998 0.80685902
53.861801 -3.9072399 0.97236598
53.3013 -3.9624701 1.6825
52.9491 -3.0353 1.11204
52.851898 -3.0370901 0.93383598
53.436798 -3.18713 1.07256
53.129501 -3.1866701 0.79473197
52.891998 -3.0262699 1.40492
52.857201 -2.99614 1.84192
53.402599 -3.3757901 1.56592
53.414902 -3.2191801 1.3207099
52.435799 -2.7448599 1.38857
52.1903 -2.5095799 1.40283
53.114601 -4.2951999 1.68932
52.970901 -4.2056599 1.81522
53.166801 -3.8587899 1.85085
53.0648 -4.7946 1.1749001
52.902699 -4.7841401 1.0163
53.212601 -4.9456902 0.70525098
51.8381 -4.1707101 1.68293
51.837399 -4.1454902 1.41452
51.944599 -2.93205 0.57622099
52.055401 -3.02882 0.58737898
51.893799 -3.30513 0.61942798
52.403599 -3.8034599 0.729523
53.661301 -4.0528002 0.089735001
53.555099 -4.32757 0.058718
53.080502 -4.85607 0.41604701
53.09 -4.6143498 0.241026
53.443401 -4.6127 0.138639
52.8074 -4.7139301 0.75978398
51.948898 -4.1181698 1.21474
52.176998 -4.0251498 0.91706997
51.537102 -3.7341199 0.87324399
51.737099 -3.59903 0.71279901
51.023499 -3.65063 1.67256
51.441101 -3.82903 1.19923
51.971001 -3.9637001 2.1075499
51.897499 -4.10324 1.88925
50.817501 -3.27701 2.24383
50.832401 -3.47312 2.02912
50.179699 -2.89589 2.2403901
50.4706 -3.17909 2.05916
50.981899 -3.0631001 2.3292201
50.079102 -2.5441301 2.3526299
52.114101 -3.7429199 2.25336
52.342499 -3.39201 2.3018799
52.605099 -3.1067801 2.12992
53.3386 -3.5451 1.77071
52.017899 -2.63116 0.54159498
52.148701 -2.74312 0.57176
51.863201 -2.1126399 1.69157
51.587101 -2.9643199 0.28174701
51.752499 -3.17063 0.459299
51.622601 -3.4928999 0.53265899
51.368999 -3.3576 0.299375
51.809299 -2.8392501 0.42933199
52.954399 -2.76332 0.888219
52.391701 -2.3620501 1.09952
52.3699 -2.3409801 0.833372
52.943802 -2.7444999 0.69671702
50.066799 -1.7215199 2.58584
50.328201 -1.47864 2.5364699
49.740898 -2.8174 2.38042
50.2201 -4.8182802 0.72176498
50.18 -4.8176498 0.708121
50.520802 -4.6769099 0.55938703
50.5509 -4.69104 0.59228897
50.942402 -4.3822799 0.59474999
50.901501 -4.36026 0.54417598
51.195599 -4.0359502 0.662458
51.214001 -4.1007099 0.70803601
49.7216 -4.9390302 1.85027
49.360199 -4.6795902 1.7922699
49.7019 -4.8332 1.35805
49.992298 -5.0483699 1.37911
50.044701 -4.8966098 0.93597001
50.248501 -5.0601401 1.01907
51.401699 -3.9497399 1.2172199
51.118401 -3.8506701 1.71742
51.4277 -4.0010099 1.22882
50.006901 -4.8941998 0.92244202
51.350899 -3.96099 0.92302501
51.351398 -4.0391102 0.95754302
50.347801 -3.2467 2.09987
51.2897 -3.8687899 0.67397201
51.105 -3.68957 0.37169701
51.367901 -3.7780199 0.65862399
50.578999 -3.6737299 2.2016101
49.835899 -3.16308 2.3787799
50.2523 -3.74681 2.4302199
49.254501 -3.17679 2.53269
49.8563 -4.052 2.5792799
51.425701 -3.7992201 0.87608701
51.366402 -3.86288 0.88787699
51.004799 -3.7091 1.5944
51.3442 -3.85219 1.1902601
51.4062 -3.81826 1.18959
50.801899 -3.9081099 0.293953
51.8246 -6.2406301 0.93870401
51.682701 -6.1729598 1.04634
51.5994 -6.0498199 0.77716398
51.669998 -6.0956898 0.69496
51.5765 -5.7719998 0.528211
52.664001 -5.6182399 1.4884501
52.3866 -5.4969702 1.80774
52.148399 -5.8505802 1.75623
52.445702 -5.9740701 1.45425
51.9813 -6.07305 1.60597
52.297401 -6.1676602 1.32739
51.852501 -6.15137 1.44191
52.198601 -6.25421 1.24861
52.295101 -6.1866002 1.3046401
51.745701 -6.19771 1.28781
52.0387 -6.3137698 1.14285
52.169498 -5.4068298 1.97767
52.5853 -5.1584802 1.76324
52.3652 -5.0577898 1.94022
52.718201 -4.9649701 1.5557801
52.5159 -4.8363299 1.7274899
52.7225 -4.8765898 1.38534
52.556702 -4.7873402 1.51294
52.662998 -4.8341398 1.17766
52.5354 -4.7630301 1.29125
52.500401 -4.8102102 0.88743001
52.354698 -4.76298 0.97705901
52.325001 -4.8454199 0.64714801
52.198101 -4.8150501 0.80148
52.039101 -5.0132799 0.54383802
51.9398 -4.9707398 0.69693297
51.7262 -5.3521099 0.473019
51.625301 -5.2945299 0.66197503
51.090698 -6.7028899 1.7368799
51.036999 -6.83394 1.70657
51.233501 -6.8056598 1.74798
51.503601 -6.71455 1.6158201
51.127499 -6.4760699 1.65492
51.7855 -7.7261801 0.417252
51.354599 -8.1192999 0.27886
51.6838 -7.6237001 0.36886901
51.9758 -7.2722802 0.61827803
52.021599 -7.5380702 0.67776197
50.876202 -8.7100801 1.62824
50.886398 -8.6670504 1.6682
50.087002 -8.2705402 1.66335
50.049198 -8.3759403 1.62816
49.291 -8.27314 1.35797
50.067902 -8.5465002 1.4422801
49.3764 -8.1773195 1.60443
49.010899 -7.7719202 2.09551
49.155602 -7.6695499 2.24247
48.494801 -7.2489901 2.4685199
48.382 -7.3255501 2.35605
47.656799 -6.6150498 2.5209
51.040199 -8.7001896 1.63317
50.487499 -6.5822401 2.0853801
50.919102 -6.8415599 1.79939
49.4468 -7.4207602 2.3926401
49.715099 -7.5232401 2.25278
50.2845 -6.96948 2.2390599
50.0509 -6.8383899 2.4002299
50.299 -6.46591 2.21454
50.6656 -6.3021898 1.89101
50.466499 -6.2013001 2.02282
50.743099 -6.0925598 1.56911
50.565601 -5.9792199 1.60645
50.5485 -5.8514099 1.31777
48.5751 -4.7133002 2.3812101
48.678902 -4.71772 2.1479599
48.561001 -4.6608701 2.3734
48.059898 -3.97598 2.99155
47.847198 -4.77881 3.1800399
48.362999 -4.7038002 2.67167
48.3885 -4.3147602 2.58337
46.099499 -5.67519 2.55562
46.138802 -5.7477598 2.0380499
46.220501 -5.76723 2.4895
46.572201 -5.63311 3.0317199
46.4249 -5.47998 3.12025
48.396099 -4.7563901 2.68205
47.931702 -4.8697801 3.13714
47.1782 -5.18607 3.4135699
47.269798 -5.3197598 3.3500299
48.8405 -4.9125299 2.14347
49.098499 -5.00876 1.63028
48.947701 -4.8463502 1.6645
49.4688 -5.1742802 1.1253999
49.399899 -5.0738902 1.17967
49.585899 -5.2853899 0.858136
49.6003 -5.2567201 0.81444299
49.1833 -5.24053 2.1531701
48.713902 -4.9232702 2.4082501
49.081299 -5.40134 2.4106801
46.6255 -6.1785402 1.95467
46.2798 -5.73768 1.20725
46.727901 -6.1436701 1.27376
46.642101 -5.6739202 0.441475
47.002602 -6.1676302 0.70406902
48.693699 -4.62076 2.12973
48.5662 -4.4808302 2.3442299
48.5485 -5.0974698 2.7049999
47.599899 -5.8122802 3.0922501
48.231899 -5.4043298 2.97106
47.0896 -6.1909499 2.7458
46.771801 -6.2255301 2.2946401
47.2374 -5.80863 0.29277599
47.889599 -5.7248702 0.144862
47.848202 -6.0651102 0.38404199
47.206799 -6.1826901 0.56874901
47.172699 -5.54038 0.090448998
47.794399 -5.4012198 -0.020133
46.8885 -5.0169702 -0.074203998
47.592899 -4.96065 -0.110122
50.432598 -3.91993 0.102469
49.849499 -4.2838998 0.024426
49.4501 -3.92045 -0.049378
50.0191 -3.5516801 0.0066049998
50.611401 -4.1259398 0.25481299
50.9249 -2.43015 0.108893
50.801102 -2.7342 0.098447002
49.041 -1.48163 0.056758001
51.526798 -2.5425999 0.172562
51.334301 -2.9161201 0.161617
51.751598 -2.3413601 0.264092
51.677898 -2.5836401 0.25503299
51.858398 1.3834 0.133687
51.5112 1.37998 0.0067759999
52.031799 -0.443578 0.457528
51.692101 -0.46849099 0.28637701
51.857101 0.051449001 0.17461701
52.098999 0.116716 0.3348
51.917801 -1.58007 0.26959899
51.668201 -1.69233 0.17846701
51.704399 -0.683447 0.28328499
52.008099 -0.84079403 0.41804701
51.041 -3.2612 0.155256
49.9884 -4.5859199 0.28373799
49.422699 -4.8498101 0.216122
49.284 -4.5735402 -0.0063680001
48.8601 -5.3685699 0.217021
48.747398 -5.0007601 -0.0095009999
45.887501 -4.8989601 0.358628
45.767899 -5.04073 0.64771003
46.629002 -5.4295502 0.19475301
51.870499 -1.98983 0.229877
51.626202 -2.1088099 0.163045
50.6689 -3.64502 0.134293
50.222401 -4.4535499 0.25265601
48.666199 -7.9099398 1.59488
48.800098 -7.8755999 1.8016
48.099499 -7.32301 2.01161
47.984901 -7.3081999 1.79685
50.098 -8.1545696 1.64195
50.891899 -8.61063 1.64581
50.076401 -8.0704498 1.596
47.434898 -6.7082701 2.17888
47.325802 -6.7406702 1.91287
47.3386 -2.7176299 0.112066
46.5602 -3.9051399 0.014482
48.467499 -4.4133301 -0.068608999
47.8806 -2.1982501 0.103394
47.694401 -2.4028001 0.108663
51.208401 -1.86725 0.11739
51.337399 -1.57335 0.127459
51.335701 -0.322124 0.145798
51.405998 0.054823998 0.075874001
51.2155 1.1372 -0.026539
54.105801 -1.95257 0.491065
53.926998 -1.92147 0.210839
53.8825 -1.6829799 0.36205801
54.0005 -1.67614 0.66610903
53.049702 -0.90574801 1.3200999
52.9958 -1.03705 0.96126097
52.297001 -0.32114699 0.889494
52.368698 -0.27473199 1.21561
51.712502 -0.195815 2.4300599
52.1959 -0.56544501 2.33284
52.123402 -0.15706199 2.0587001
51.617001 0.31924701 2.18309
52.286598 -0.17430501 1.54012
52.5107 -0.54330999 1.84623
53.6101 -1.97346 0.044179998
53.796902 -2.0929501 0.060922001
53.712601 -2.3891499 0.057751998
53.4506 -2.30389 0.021091999
52.9748 -2.7411399 1.13253
52.430401 -2.3861799 1.3895299
52.164501 -2.48873 0.94055498
52.102001 -2.3405499 0.93076199
52.035599 -2.2796299 1.3904001
53.125401 -5.23629 0.36589301
52.972599 -5.3282499 0.22360601
52.686001 -5.0706801 0.36122301
52.8731 -4.9977002 0.589194
53.041302 -5.5615201 0.16254701
52.891399 -5.52249 0.123263
53.083599 -6.25142 0.65549499
52.966702 -6.2031598 0.33045501
53.155201 -5.8780499 0.298168
53.306099 -5.8892202 0.63451201
52.7687 -6.1535401 0.11922
52.590801 -6.2577801 0.184559
52.5994 -6.1100302 0.090464003
52.473 -6.4842401 0.92299497
52.573601 -6.37992 1.07354
50.698799 -5.6136599 1.7130899
51.503101 -6.0959101 1.4244
51.598801 -6.0602002 1.58135
50.7537 -5.5381298 1.95951
50.680901 -5.60777 1.4074399
50.754398 -5.5694299 1.18498
49.643398 -4.8396802 2.1396
49.0797 -4.4401102 2.1357701
49.266701 -4.6234298 1.69638
49.653999 -4.8061399 1.35374
49.5392 -5.2486701 1.09281
49.3699 -5.2286501 1.5921201
49.9464 -5.5591302 1.08908
50.034401 -5.5620399 1.5501
50.5116 -5.85144 1.11822
46.201401 -4.3895602 0.072026998
50.217999 -0.76234502 0.072398998
50.873299 0.081666 0.015116
52.166401 1.4670399 0.335758
52.942699 -5.8526502 0.118021
52.715599 -5.8051801 0.050526001
52.4659 -5.3071599 0.207369
52.2626 -5.6220798 0.13924301
52.138401 -6.04879 0.195692
52.283901 -6.44488 0.61051399
52.706799 -6.4184198 0.42831701
52.804901 -6.4580302 0.73441601
49.9436 -7.0834498 0.14659899
49.216499 -6.63802 0.457544
49.809898 -6.3632798 0.57001901
50.4813 -6.7406702 0.205337
48.535999 -6.07623 0.44152901
49.080101 -5.9011998 0.55792302
49.8125 -5.6256099 0.832946
50.369801 -5.9433198 0.896577
50.8685 -6.2760701 0.73236001
51.5639 -6.89394 0.49689099
51.254299 -7.2233801 0.15751401
50.730801 -7.5999599 0.023543
51.997898 -7.9001498 0.75067198
51.5676 -8.4456501 0.64833802
50.948299 -8.6429501 0.46897301
50.993599 -8.3930101 0.25258601
51.186798 -8.6548796 0.54785597
50.4991 -8.5128202 0.40822101
49.6199 -8.1757898 0.38633001
50.195702 -7.9295201 0.055705
48.721401 -7.7240901 0.48760599
49.423 -7.39399 0.22111399
48.058399 -7.1676602 0.65054899
48.6824 -6.8990598 0.434513
47.482899 -6.5682702 0.65747601
48.034 -6.26402 0.410184
48.312302 -5.89504 0.41153201
48.906799 -5.6897202 0.53858203
49.485699 -5.3438702 0.642968
49.6572 -5.12672 0.69256401
50.491699 -4.9929299 0.81096601
50.737999 -4.8076801 0.72109801
51.269199 -5.1219401 0.76000202
50.984699 -5.41751 0.887173
51.444199 -5.6613998 0.73497802
51.854401 -4.6057901 1.03116
51.882599 -4.5481801 1.19189
51.573898 -4.8165202 0.770962
51.098598 -4.5356798 0.71653497
51.443298 -4.2704201 0.84535003
51.4519 -3.6791401 0.61859697
51.9314 -2.29759 0.406012
51.8857 -2.5364201 0.408553
52.878502 -1.20558 0.70254898
52.623699 -1.3155299 0.58910501
52.3493 -0.96709698 0.68462902
53.7257 -1.38618 0.93324202
53.593601 -1.39381 0.61577702
53.944099 -2.51386 0.25536799
54.0299 -2.1895599 0.231401
54.1343 -2.2143199 0.47297099
54.0448 -2.5603399 0.53885198
53.225601 -1.71173 0.240412
53.039902 -2.0847001 0.22749101
52.463799 -1.67363 0.41468501
52.629902 -1.45611 0.44791099
52.1049 -1.4394799 0.358347
52.069801 -1.59692 0.31834701
52.168098 -0.87674499 0.54933101
52.184601 -0.29861501 0.56637102
50.532001 -2.98247 0.073469996
48.9846 -4.0679002 -0.066606998
50.990002 -1.42747 2.3628199
50.925499 -1.55782 2.38028
51.641602 -1.66098 2.2599499
51.387299 -1.67856 2.23402
51.696499 -1.88714 2.0144899
51.512199 -8.5945501 1.47746
51.993698 -7.92836 1.4972
51.823002 -7.8541198 1.8147399
51.361301 -8.4976902 1.81627
48.053501 -6.3768401 2.78422
48.552799 -5.9235101 2.7841899
48.821499 -6.9931898 2.6426101
49.342701 -6.5269799 2.6457601
50.1996 -7.7121301 2.0297101
50.291801 -7.7543602 1.92169
50.707199 -7.211 1.95666
50.623299 -7.15769 2.0488701
51.0741 -4.8354802 2.50547
51.3041 -4.50211 2.38481
51.618198 -4.3371801 2.11132
50.8311 -3.8305199 2.1605899
50.932899 -5.1904998 2.40728
51.958 -5.7503901 1.89838
50.827702 -5.40516 2.2193501
51.743999 -5.9798498 1.75826
49.675499 -4.4477 2.55107
49.630501 -4.6798 2.4212601
48.8069 -3.6145899 2.60654
48.9897 -3.36327 2.65168
48.922699 -4.1932101 2.3661201
48.8032 -3.9540401 2.51528
48.680401 -4.2316298 2.2499299
48.497601 -3.9849899 2.47439
48.870899 -5.6296 2.6115601
49.939098 -5.6893001 1.98113
49.811901 -5.8884201 2.2733901
51.0741 -6.2244301 1.14811
50.982399 -6.2038202 0.941921
51.1357 -6.3383498 1.47498
51.661598 -6.6732202 0.97760898
52.018299 -7.17484 0.961676
51.633999 -6.7635398 0.72284901
52.064899 -7.47928 1.01397
52.039501 -7.9225402 1.1233799
51.5811 -8.5741196 1.03975
52.032398 -7.4189901 1.3697799
51.919998 -7.37499 1.62933
51.615799 -6.6546202 1.33585
51.865601 -7.2312598 1.69669
51.961201 -7.1339798 1.3444999
49.6171 -6.1697698 2.48316
51.381599 2.1752501 2.7407401
51.4734 2.81915 2.5580499
51.315701 1.52337 2.58692
51.209702 0.70643198 2.4495499
51.257 0.105046 2.55515
51.071701 -0.30435801 2.6015899
50.773998 -0.75853002 2.58882
49.567101 -2.27512 2.59146
49.298698 -2.4572501 2.6212599
49.054798 -2.66506 2.6979001
48.288898 -3.57898 2.77367
51.915798 -4.4888301 1.35211
51.804699 -4.4043698 1.64992
51.490799 -4.0973701 1.2445199
51.255798 -3.9691401 1.70295
51.5219 -3.72363 0.84107399
48.8368 -4.3913798 2.13094
51.194801 1.03822 2.4421501
51.2575 1.27678 2.51139
54.134602 -2.2119501 0.71981603
54.053699 -2.5161099 0.77508801
53.818901 -2.7736499 0.79204398
53.848701 -2.78863 0.583785
53.7285 -1.58447 1.15363
53.936699 -1.73386 0.918221
53.694698 -1.83776 1.34672
53.880199 -1.7660201 0.99867499
53.750099 -1.94046 1.1543
53.508099 -2.1957901 1.46971
53.598598 -2.2369599 1.26015
53.3218 -2.4611199 1.41423
53.484699 -2.5101299 1.20406
53.654499 -2.76034 0.93881702
53.444801 -2.6152201 1.17513
53.367901 -2.77337 1.0626301
53.553799 -2.8597 0.89896297
52.038502 -2.1082301 1.86323
52.485298 -2.3573799 1.6291
52.592999 -2.2314401 1.88173
52.0457 -1.92663 2.1256101
52.963299 -2.62993 1.3343101
53.185101 -2.4196301 1.54698
53.3493 -2.1540899 1.6406
52.702 -1.94889 2.1166501
52.176998 -1.62692 2.3196001
52.5881 -0.78180301 2.17998
52.415901 -1.21497 2.3078301
52.934101 -1.46767 2.0100601
53.055302 -1.09252 1.86178
53.570099 -1.76864 1.54177
53.613602 -1.48401 1.30768
51.6073 -0.61840302 2.4625101
52.067101 -0.94012302 2.40277
51.375401 -1.04386 2.4714999
51.8325 -1.33156 2.43222
51.0672 -1.3608299 2.3842001
45.499001 -5.0362101 1.3516901
47.936298 -7.2932501 1.45529
47.323601 -6.7107401 1.43608
47.377399 -6.6505899 0.81397498
47.962399 -7.2419701 0.80735898
47.053699 -6.1996198 0.74045199
50.1903 -8.68929 1.15721
49.278 -8.3429899 1.08845
48.552601 -7.9172902 1.17115
48.616901 -7.8097301 0.64674997
49.462601 -8.2761898 0.632487
50.385101 -8.6561098 0.69551599
50.946602 -8.8121796 0.79453999
51.260899 -8.7819099 0.88462597
51.236099 -8.8059502 1.3505501
50.969501 -8.8618803 1.2468899
49.476002 -8.0610199 1.78982
50.000401 -8.04286 1.70407
49.531502 -7.87075 2.0013299
47.245602 -6.2105098 0.60803199
47.872898 -6.0963001 0.428931
48.344601 -5.92311 0.45764899
48.9091 -5.72574 0.58422601
51.007 -6.8937101 1.6772799
51.842098 -7.2795701 1.70103
51.8139 -7.3340502 1.67255
51.855099 -7.3824501 1.64841
50.986801 -8.6521997 1.63472
51.755501 -7.8373399 1.81745
51.313999 -8.4593401 1.8205301
49.489799 -5.3858199 0.68663502
49.636101 -5.1469302 0.83199602
51.466999 -6.0781898 1.2098401
51.4515 -5.9626598 0.95112097
52.170502 -6.2709699 0.34452701
53.213501 -5.5598898 0.285409
53.322498 -5.53862 0.558375
52.812099 -6.4303899 0.94937003
53.0228 -6.1954298 1.05896
52.7528 -6.3667302 1.03602
53.1078 -6.2432899 0.95297801
51.450001 -4.1665401 1.04362
52.921398 -5.3668799 1.3731
53.2505 -5.8468099 1.02389
53.3074 -5.8755398 0.928271
53.282398 -5.5563698 0.95408499
53.353001 -5.539 0.81056499
52.954201 -5.3594599 1.34463
53.198101 -5.4303198 1.11078
53.253399 -5.3164501 1.06371
53.023499 -5.14429 1.2972701
53.292702 -5.2384 0.88518202
53.068199 -5.0479898 1.13675
53.242401 -5.2149601 0.64485002
53.014099 -5.0220098 0.88925302
52.601601 -6.3189802 1.0968601
52.695599 -6.3221698 1.04426
52.610298 -6.3014102 1.08654
52.343399 -6.1619 1.25349
48.6796 -2.9735701 2.8390901
52.929501 -5.3907299 1.29787
53.184601 -5.4766202 1.05751
52.6777 -5.6227899 1.41251
52.460999 -5.9649701 1.38668
53.2411 -5.5540199 0.97914499
53.195301 -5.82901 1.02421
52.959 -6.1608601 1.07133
52.7225 -6.3154302 1.0333
49.807201 -1.98967 2.6164601
50.5327 -1.17331 2.4981999
52.296001 -0.89465803 0.67788398
52.348202 -1.40741 0.45564899
52.263 -1.62876 0.41828099
51.892601 -2.8828001 0.53520602
51.850101 -3.27544 0.579678
51.697899 -3.57096 0.67668498
52.056099 -2.21755 1.31609
52.156399 -2.2467799 1.23852
52.101501 -2.1978199 1.5767699
51.908401 -2.09004 1.67377
54.1367 -1.95435 0.686845
53.266899 -2.88676 0.94043499
53.455101 -2.9590099 0.78141898
53.1222 -2.68401 1.23535
53.625999 -2.89465 0.76740599
53.4244 -2.98159 0.62533402
53.6147 -2.9473901 0.60432798
53.223 -2.9217899 0.738478
53.763599 -2.7567 0.30920699
53.566299 -2.6617899 0.14457799
53.3298 -2.6154101 0.112925
52.913898 -2.37766 0.281634
52.4375 -1.98842 0.43636301
52.219101 -1.8885 0.431541
52.029301 -1.86945 0.30753601
53.408901 -2.94839 0.440743
53.538399 -2.9231901 0.40748301
53.2243 -2.91312 0.52533799
52.151798 -2.0920501 0.54856002
52.018002 -2.02321 0.33184099
51.9818 -2.5727899 0.515149
52.0411 -2.37078 0.60084599
52.051498 -2.47102 0.63407999
52.083 -2.2534399 0.59793001
51.9403 0.099462003 1.78236
51.555801 0.52162999 2.0663199
52.372101 -2.2118299 0.56456602
52.873001 -2.60464 0.43054101
53.2873 -2.8171699 0.28427401
52.158901 -2.2370501 0.89488202
52.223598 -2.1120501 0.587888
52.250801 -1.8761801 0.469179
52.283001 -1.61974 0.449714
53.454201 -2.8584399 0.297086
52.389301 -1.40815 0.47691599
54.056099 -1.9473799 0.82489699
54.101501 -2.20959 0.83023202
54.0186 -2.4845901 0.87219501
53.794498 -2.7337699 0.86957598
53.791401 -1.75398 0.216647
53.393101 -1.47999 0.38047001
52.723499 -1.38737 0.49795499
52.176998 -0.42807901 0.57613802
52.2397 -0.33750999 0.71792001
53.819698 -1.83316 1.0398901
53.831902 -1.82104 1.00218
53.997398 -1.97499 0.85068899
53.480801 -2.5355201 1.18135
53.503799 -2.5031099 1.14846
53.810001 -1.86341 0.991216
53.598099 -2.2551799 1.20395
53.738998 -1.96931 1.10698
54.0625 -2.2221701 0.88244098
53.9823 -2.4645801 0.91164201
53.741402 -2.6847799 0.90639102
52.2192 2.31001 1.22552
51.387699 0.50704098 0.012141
51.7407 0.57710803 0.051093999
52.0956 0.62159503 0.220476
52.307899 1.13632 0.299162
52.485699 1.10681 0.44322801
52.5355 1.08023 0.46436799
52.377899 0.74693799 0.32396299
52.481602 0.81666201 0.43104801
51.705002 0.91939598 2.1712601
52.096199 2.4774799 1.73829
52.238701 2.26911 1.22699
52.697498 0.92808503 0.39851901
52.958401 1.05405 0.466663
53.492001 -0.69736397 0.88298702
53.652699 -0.51998299 0.832241
53.702599 -0.19878501 0.67167699
53.7164 -0.34788799 0.77558798
53.8232 -4.0267501 0.95885599
53.8661 -4.09442 0.90677601
53.486 -4.7389102 1.09271
53.547901 -4.7589002 1.0433199
53.687099 -4.6120901 1.04419
53.847301 -4.28263 0.94525599
53.6199 -4.5833201 1.12342
53.7617 -4.2472401 1.0469
51.119202 -8.3505697 1.93056
51.5606 -7.7276001 1.92677
52.855801 -6.1335001 1.19142
53.083199 -5.7830501 1.1676
52.6241 -6.3003402 1.11673
51.7314 -7.81674 1.88994
51.841999 -7.36233 1.7228
51.790001 -7.3179498 1.71209
53.195202 -5.4846201 1.07903
53.2071 -5.82967 1.0669399
53.255901 -5.5558701 1.01783
53.734901 -2.67241 0.937819
53.973598 -2.46685 0.94128501
53.990799 -1.96805 0.885517
54.0597 -2.2214401 0.91024202
50.890099 -8.5980597 1.68562
51.2906 -8.4514399 1.89442
50.979801 -8.6447401 1.7064199
52.960499 -6.1676202 1.11426
52.725498 -6.3302898 1.06953
51.4221 2.58358 0.67697102
51.464401 2.6517 0.79531902
51.625599 2.94788 1.3460701
51.707901 2.91886 1.86405
51.766899 2.7995801 2.073
51.813499 2.37958 2.4423299
51.689701 1.85919 2.6258199
51.618099 1.28662 2.4688301
51.559502 1.16729 2.3590801
51.443298 0.99690503 2.28982
51.403702 0.88508499 2.25647
51.397701 0.76217502 2.23786
51.566101 2.87865 1.1828001
50.745201 -1.37078 2.4270401
50.576 -1.69821 2.4742
51.052601 -0.88508701 2.5236599
50.806 -1.2728 2.43135
51.442799 0.50208497 2.2880099
51.435101 -0.021119 2.49123
51.305401 -0.448295 2.52704
50.7808 -1.30907 2.4182601
50.267799 -1.89103 2.5310199
50.0602 -2.12796 2.5409601
49.816799 -2.4040899 2.4816201
49.510601 -2.6440699 2.49454
49.116699 -2.90399 2.6191499
48.801899 -3.13802 2.7458601
48.560699 -3.5919499 2.67678
48.2598 -4.1872101 2.7361801
51.255001 2.22488 0.32055601
51.2472 1.75804 0.081350997
45.787998 -5.4400101 2.17295
45.878201 -5.3874602 1.26247
46.187698 -5.2044301 3.3233399
45.872601 -5.4646802 2.70912
46.947498 -4.8357301 3.6605799
46.131901 -5.2992301 0.52628899
47.617699 -4.4675999 3.4126401
46.322899 -5.2138901 0.24375799
47.3139 -6.3273702 0.62670898
47.180302 -6.3889098 0.77514201
47.368698 -6.4046001 2.62549
47.824699 -6.10004 2.91997
47.0993 -6.46699 2.24576
47.035198 -6.43999 1.35268
46.9893 -6.47437 1.93925
48.3936 -5.67693 2.8615401
48.707199 -5.3590698 2.6512101
49.020901 -5.0839801 2.14814
49.206299 -5.0974102 1.6148
48.8876 -5.14819 2.4094801
51.729698 -2.8377199 0.34985
51.811798 -2.5309999 0.343095
51.329399 -3.6593001 0.482328
51.525299 -3.4280601 0.41608199
50.384201 -4.5663099 0.41872501
50.763 -4.2554202 0.405393
49.441299 -5.1099501 0.437374
49.5177 -4.9739399 0.45009899
47.875301 -5.88802 0.25556701
48.1133 -5.81881 0.28310201
48.4716 -4.9261498 2.69326
48.085098 -5.1391802 3.04615
48.6381 -4.8084798 2.3936801
46.8601 -5.9702301 0.59898901
47.2272 -5.9970598 0.42525399
51.252701 -3.7409 0.50635302
51.0089 -3.9863 0.472693
50.0844 -4.7104502 0.49984199
48.890598 -5.53544 0.378939
46.490002 -5.9970999 2.3714199
46.367699 -5.9566202 1.97566
46.833801 -5.9223099 2.87011
47.4482 -5.5755501 3.2067699
46.510799 -5.95122 1.24468
51.189701 -3.80936 0.50724
51.671001 -3.07339 0.36415899
50.021599 -5.7474999 0.85856599
50.140598 -5.6694498 1.1012501
49.5961 -5.3364201 1.58088
48.3675 -6.5943699 0.42865601
48.875999 -6.3674698 0.454979
49.2663 -5.9257698 2.5634999
49.4524 -5.6614799 2.3463399
47.660198 -6.9415202 0.82438302
47.776798 -6.8850498 0.66924602
48.025002 -6.9879799 2.44699
47.7808 -7.0310102 2.09375
48.089401 -6.9504399 2.50418
48.441101 -6.7006001 2.73683
47.636101 -7.0062599 1.45933
47.6544 -7.0234199 1.85437
48.947102 -6.2364802 2.7386601
49.566002 -5.4664698 2.0650499
49.4408 -6.1300802 0.56962502
50.737202 -6.0201101 1.04255
50.614498 -6.1082301 0.82524699
49.586899 -6.8667102 0.32028499
49.065701 -7.1576099 0.33447301
48.821499 -7.46415 2.3638
49.130402 -7.2114902 2.52262
49.9678 -6.30969 2.35412
50.162102 -6.04847 2.14868
50.760399 -5.9986601 1.25625
50.276501 -5.8362899 1.79444
50.3246 -5.70223 1.43082
48.345402 -7.4387898 0.56941497
48.2411 -7.5032301 0.72847098
48.445202 -7.6032801 1.92296
48.687901 -7.55128 2.23733
48.210602 -7.5851402 1.31821
48.323002 -7.6058202 1.70693
49.700298 -6.6831498 2.52841
50.143398 -6.54983 0.39695299
50.326599 -5.76371 1.11192
51.202099 -6.5643601 0.62171799
51.302502 -6.4723301 0.83312303
49.808601 -7.6658301 0.128269
50.334 -7.3308001 0.087127
49.364899 -7.77812 2.1073899
51.3568 -6.4383502 1.07648
51.359798 -6.48317 1.4171799
49.191002 -7.9826498 0.42273799
49.046799 -8.0767698 0.62880599
49.2453 -7.9067898 1.96201
49.0812 -8.0261402 1.70555
48.894501 -8.1356401 1.1346101
48.955299 -8.10958 1.48332
50.882099 -6.9745202 0.170157
51.358398 -8.1002903 1.95733
51.5201 -8.2129297 1.92597
51.537998 -8.23209 1.849
50.5065 -7.4781499 1.95532
51.763199 -8.3266096 1.52659
51.806301 -8.3329802 1.09051
51.592999 -8.2567997 1.84869
50.426498 -7.4204602 2.06005
51.740898 -8.3018103 0.70451099
51.410999 -7.1054602 1.70496
51.433201 -7.0982599 1.64872
51.1521 -7.4884801 1.9447
50.481201 -8.35289 1.61833
50.489601 -8.3373299 1.64399
50.7071 -8.0576 1.92009
50.943001 -7.8162799 1.96447
51.824799 -7.0058298 0.66654497
51.7757 -7.0690699 0.548823
51.468498 -7.40734 0.235168
51.8111 -6.8860002 1.35104
51.8671 -6.9184899 0.96945697
51.019402 -7.8277001 0.116554
50.564098 -8.1451902 0.12321
50.7248 -8.5930204 0.43055201
50.654999 -8.7502804 0.74359202
51.469398 -7.0492001 1.68564
51.575802 -7.00033 1.69689
50.469002 -8.4946899 1.66364
50.474602 -8.4346704 1.65179
50.058102 -8.0594501 1.62078
50.566101 -8.7964001 1.1943001
50.452202 -8.6546001 1.5266
50.448399 -8.5741701 1.62604
50.983299 -6.87924 1.7113301
50.683102 -7.1947198 1.98419
50.277599 -7.7460699 1.94028
51.316101 -6.5996599 1.65149
51.707001 -6.96524 1.65439
50.493301 -7.46702 1.97566
49.790298 -8.2251101 1.70947
49.8731 -8.1052599 1.7983
50.077801 -8.3579702 0.378499
49.9077 -8.4655399 0.65097898
49.712799 -8.34694 1.53582
49.750801 -8.5087795 1.12099
49.691601 -8.4244003 1.40567
