# .PCD v.7 - Point Cloud Data file format
VERSION .7
FIELDS x y z
SIZE 4 4 4
TYPE F F F
COUNT 1 1 1
WIDTH 1598
HEIGHT 1
VIEWPOINT 0 0 0 1 0 0 0
POINTS 1598
DATA ascii
-0.76091701 -63.8955 72.289497
-0.74822903 -63.907398 72.294701
-0.75131297 -63.934299 72.247704
-0.75940502 -63.9622 72.218102
-0.76100397 -63.9687 72.213799
-0.78285098 -63.864799 72.3256
-0.76191998 -63.888302 72.288597
-0.76345199 -63.892399 72.288597
-1.41587 -64.222702 72.239601
-1.51219 -64.260696 72.247101
-1.6102 -64.215202 72.229401
-1.6221 -64.255798 72.246002
-1.65307 -64.384399 72.304398
-1.64612 -64.3368 72.283401
-1.27621 -64.141403 72.226898
-1.33843 -64.183098 72.233704
-1.3954 -64.162598 72.213997
-1.40634 -64.192596 72.2276
-1.4287699 -64.293404 72.266197
-1.42145 -64.256104 72.252197
-1.3378299 -64.0345 72.160599
-1.4147 -64.042603 72.154503
-1.43564 -63.947399 72.075401
-1.4773 -63.995201 72.111
-1.57028 -64.130402 72.186897
-1.54398 -64.0868 72.165199
-1.22542 -64.011703 72.170502
-1.27593 -64.022598 72.165298
-1.27828 -63.969601 72.128502
-1.3123 -64.001198 72.145103
-1.37208 -64.0998 72.1884
-1.35659 -64.066902 72.173798
-1.28 -64.192703 72.246597
-1.28074 -64.226898 72.258698
-1.18973 -64.116997 72.237602
-1.2293 -64.1493 72.2407
-1.27803 -64.164597 72.236702
-1.3458101 -64.244003 72.255798
-1.18857 -64.145103 72.248596
-1.1543601 -64.093498 72.232597
-1.18871 -64.078499 72.218803
-1.19013 -64.093102 72.226501
-1.17027 -63.958698 72.146599
-1.20772 -63.991199 72.161598
-1.25281 -64.0588 72.190804
-1.23755 -64.029701 72.18
-1.1600699 -64.028 72.1978
-1.1844701 -64.0625 72.211403
-1.098 -64.008598 72.202698
-1.12421 -64.019501 72.202202
-1.08588 -63.9445 72.152802
-1.12737 -63.989201 72.179199
-1.20798 -64.042503 72.192802
-1.08442 -64.0467 72.221497
-1.11315 -64.037598 72.214401
-1.02312 -64.0233 72.205002
-1.0403 -63.9846 72.193298
-1.0500799 -64.005203 72.203499
-0.96179402 -64.025803 72.190102
-0.984981 -63.979698 72.184196
-0.99111801 -63.997101 72.191299
-1.07648 -63.998299 72.1996
-0.88502502 -64.029999 72.176498
-0.92718101 -63.987301 72.1782
-0.92780602 -64.004501 72.181801
-0.82856202 -64.024399 72.169098
-0.842237 -64.001999 72.167801
-0.85124898 -64.012497 72.170197
-0.88128299 -63.998699 72.171204
-0.88755602 -63.957699 72.135201
-0.91619903 -63.9757 72.163498
-0.96372497 -63.9823 72.180397
-0.79785502 -64.000603 72.166702
-0.81545299 -64.002602 72.166298
-0.79508603 -63.984699 72.1371
-0.82353503 -63.993698 72.157898
-0.80291498 -64.016502 72.169701
-0.81000501 -64.009399 72.168503
-0.77369797 -63.9925 72.191803
-0.77116102 -63.991699 72.179901
-0.78295302 -63.999401 72.179298
-0.78446698 -63.997601 72.170403
-0.74553698 -63.985298 72.1408
-0.77677 -63.993301 72.161598
-0.74532002 -63.947102 72.2202
-0.75785702 -63.9757 72.195999
-0.72248203 -63.9767 72.151703
-0.75239003 -63.983601 72.172501
-0.75355601 -63.925301 72.252502
-0.75498098 -63.954899 72.221603
-0.78042799 -63.8596 72.3181
-0.74532402 -63.873798 72.281601
-0.75667 -63.882301 72.2873
-0.73908502 -63.910801 72.250504
-0.69906998 -63.931599 72.187302
-0.72717202 -63.938999 72.208702
-0.76132399 -63.843201 72.306801
-0.69684601 -63.858299 72.246101
-0.72538298 -63.865101 72.267899
-1.3505 -63.9673 72.110802
-1.3440599 -63.849899 71.987503
-1.38929 -63.8993 72.037201
-1.53988 -63.905602 72.0149
-1.21848 -63.965 72.139999
-1.19978 -63.8997 72.082603
-1.2402101 -63.934399 72.107803
-1.24299 -63.7645 71.891098
-1.29669 -63.805901 71.9412
-1.1181999 -63.839199 72.023201
-1.17422 -63.8111 71.972397
-1.10975 -63.677601 71.768898
-1.18049 -63.728001 71.8368
-1.322 -63.7033 71.787498
-1.1599 -63.869099 72.058502
-1.03171 -63.861301 72.061203
-1.0699 -63.853901 72.0495
-1.00428 -63.769199 71.907402
-1.06692 -63.805401 71.970299
-1.13089 -63.9534 72.1511
-1.08946 -63.896 72.109001
-1.1283 -63.9245 72.128304
-0.99275899 -63.936699 72.147903
-1.04208 -63.939999 72.154198
-1.01924 -63.889599 72.1035
-1.04985 -63.912201 72.1278
-1.06056 -63.877102 72.089302
-0.96941 -63.862099 72.054398
-0.99920201 -63.862499 72.060204
-0.93511403 -63.810398 71.960297
-0.99330801 -63.8405 72.019302
-0.99468201 -63.874699 72.080704
-0.89760101 -63.8717 72.044403
-0.93556499 -63.864498 72.048698
-0.88987899 -63.824299 71.972198
-0.93725801 -63.846001 72.0205
-0.939937 -63.943199 72.139397
-0.94602001 -63.901199 72.098099
-0.96429503 -63.912102 72.117302
-1.0226099 -63.966202 72.177299
-0.79870802 -63.904202 72.0401
-0.85198498 -63.8839 72.038696
-0.83093703 -63.8368 71.968399
-0.861278 -63.850899 72.001602
-0.928397 -63.890202 72.079399
-0.83574802 -63.9748 72.1343
-0.85136199 -63.933601 72.093903
-0.76265699 -63.987301 72.136497
-0.69615501 -63.942299 72.048798
-0.74859297 -63.966599 72.096397
-0.73636198 -63.927898 72.042198
-0.71026999 -63.867401 71.962196
-0.65105301 -63.9505 72.059097
-0.66923499 -63.9492 72.052803
-0.61742699 -63.9048 71.982803
-0.73674202 -63.983898 72.145798
-0.70488298 -63.973202 72.104202
-0.71064198 -63.961102 72.162804
-0.62838602 -63.939201 72.081299
-0.68236703 -63.963799 72.121101
-0.63819402 -63.947701 72.069702
-0.57503402 -63.913101 71.997704
-0.61950999 -63.9011 72.125198
-0.622917 -63.924999 72.096802
-0.555125 -63.901798 72.027298
-0.69176 -63.8946 72.2155
-0.66328901 -63.919201 72.158096
-0.710383 -63.830002 72.265701
-0.627653 -63.838402 72.186798
-0.66403103 -63.851002 72.217201
-0.618577 -63.870201 72.155701
-0.55564499 -63.870701 72.074203
-0.63676399 -63.811501 72.207298
-0.57377201 -63.818802 72.144203
-1.00978 -63.609699 71.685501
-0.82067901 -63.596199 71.670898
-0.94416398 -63.446201 71.483299
-0.90728998 -63.716999 71.821198
-0.747513 -63.677601 71.757698
-0.84499699 -63.765202 71.874199
-0.70809698 -63.712898 71.794197
-0.80709898 -63.786701 71.893997
-0.67735499 -63.739399 71.813103
-0.773359 -63.813202 71.916199
-0.63139701 -63.7883 71.853203
-0.53873301 -63.8493 71.894402
-0.48495999 -63.871399 71.9216
-0.459153 -63.8745 71.952904
-0.45468599 -63.8526 71.989098
-0.47433299 -63.816299 72.050102
-0.503057 -63.768902 72.100098
-1.90977 -64.738197 72.537399
-1.63116 -63.783501 71.854401
2.0034399 -62.530602 71.923203
-1.75455 -64.230499 72.2416
-1.91625 -64.174797 72.2248
-1.48958 -64.189301 72.217598
-1.59183 -64.173203 72.207703
-1.27389 -64.105698 72.210403
-1.32453 -64.133202 72.211502
-1.3843499 -64.131798 72.200897
-1.27686 -64.120399 72.217102
-1.2671 -64.088402 72.202797
-1.3059 -64.078598 72.189003
-1.45775 -64.118103 72.186401
-1.7123899 -64.1371 72.189499
-1.78394 -64.575203 72.416397
-1.95239 -64.533997 72.439102
-1.5300699 -64.4533 72.325104
-1.655 -64.442101 72.330704
-1.34487 -64.329201 72.283501
-1.43235 -64.337601 72.2799
-1.53095 -64.3405 72.2799
-1.7959 -64.422997 72.342903
-1.23162 -64.1054 72.221901
-1.22689 -64.208 72.261597
-1.43749 -63.7976 71.901001
-1.2685699 -63.8857 72.0494
-1.13657 -63.898899 72.100304
-0.96560001 -63.793999 71.940102
-1.05171 -63.732101 71.852997
-1.18811 -63.595402 71.655899
-1.05202 -63.892101 72.109398
-0.98480803 -63.892799 72.100403
-0.86784798 -63.828602 71.973297
-0.91097599 -63.819302 71.969299
-1.00535 -63.980301 72.188499
2.5006001 -58.827499 67.746803
2.5836101 -58.777302 67.815201
2.7440701 -58.807701 67.830902
2.22627 -58.8381 67.675797
2.34937 -58.794601 67.737198
1.77141 -58.810902 67.612
1.99257 -58.7855 67.683701
1.41057 -58.766899 67.584702
1.56019 -58.741798 67.6353
1.28183 -58.746498 67.584198
1.35024 -58.694302 67.637199
1.16113 -58.721901 67.610603
1.2355601 -58.663101 67.6586
1.08224 -58.7159 67.649597
1.12419 -58.649899 67.694603
1.0415 -58.716499 67.6763
1.05923 -58.6492 67.724998
1.05555 -58.717499 67.675903
1.029 -58.665699 67.759804
1.1265399 -58.715599 67.671204
1.0656 -58.6903 67.7882
1.23849 -58.728298 67.648697
1.17058 -58.709801 67.793602
1.39666 -58.757702 67.619904
1.30857 -58.729198 67.760803
1.57056 -58.779099 67.603401
1.4599299 -58.761398 67.738701
1.8178 -58.810501 67.610497
1.64463 -58.7939 67.727699
2.2469499 -58.853401 67.654701
1.99792 -58.827801 67.745796
2.57618 -58.881802 67.683502
2.38991 -58.860699 67.779404
2.8035901 -58.896999 67.707497
2.6340201 -58.877201 67.792603
3.0617299 -58.893002 67.747597
2.87883 -58.884998 67.818298
3.25002 -58.849899 67.824402
3.10115 -58.861099 67.877197
3.4428699 -58.7757 67.897301
3.2873099 -58.797798 67.959702
3.58951 -58.723 67.936798
3.45346 -58.733501 68.035599
3.7005501 -58.677399 67.9571
3.5695701 -58.679699 68.061996
3.8359799 -58.617001 68.0093
3.6953101 -58.626202 68.102501
3.8004899 -58.5798 68.146103
3.6731701 -58.5606 68.189598
3.6865301 -58.501598 68.245697
3.50857 -58.631599 68.1166
3.55742 -58.5592 68.185997
3.3403499 -58.688301 68.051804
3.3996201 -58.620602 68.115601
3.0077801 -58.7673 67.924004
3.1450701 -58.690102 68.0205
2.83009 -58.751999 67.900299
2.5773301 -65.568298 73.3386
2.3410699 -65.689201 73.305199
2.0334699 -65.6884 73.199402
2.0789001 -65.921097 73.374802
2.756 -65.461502 73.384399
2.51057 -65.296501 73.218102
2.54865 -65.434601 73.263802
2.6171601 -65.812599 73.601501
2.6028299 -65.694 73.4506
2.8390701 -65.07 73.288902
2.78511 -64.939102 73.248901
2.6930499 -65.186798 73.252701
2.88304 -65.209 73.342201
2.9760301 -64.937897 73.326698
2.5954299 -64.967102 73.2052
2.80917 -64.664398 73.232697
2.28072 -65.413002 73.186897
2.45998 -65.175499 73.1931
5.1800399 -61.713299 68.6474
4.9904399 -61.811001 68.611099
5.0801101 -61.762402 68.622902
5.2662401 -61.910301 68.698303
5.2237101 -61.803799 68.664703
5.0889001 -61.555099 68.634804
5.1362 -61.633598 68.637299
5.0023198 -61.4207 68.637901
5.04316 -61.4842 68.635002
4.9005899 -61.265701 68.6651
4.9569998 -61.351601 68.646202
4.8073101 -61.553902 68.597
4.8975401 -61.4837 68.611702
4.65137 -61.663799 68.614899
4.6940699 -61.769501 68.618896
4.6752 -61.7159 68.613602
4.72645 -61.619202 68.599503
4.6089201 -61.581299 68.635002
4.62854 -61.618801 68.622299
4.5230398 -61.698601 68.652496
4.5780902 -61.691002 68.637001
4.0812702 -61.706902 68.794601
4.1570201 -61.633598 68.752502
4.1203899 -61.6712 68.770302
3.9602799 -61.650398 68.820099
4.0006199 -61.7799 68.865097
4.03859 -61.741501 68.824997
4.2691102 -61.7645 68.744904
4.1777 -61.739399 68.770401
4.7681999 -61.079899 68.725098
4.83571 -61.1698 68.696297
4.7467799 -61.311001 68.655098
4.8057599 -61.299702 68.655296
4.5281701 -61.267899 68.790802
4.5869002 -61.2906 68.723602
4.5560598 -61.277599 68.757103
4.4747 -61.182301 68.844704
4.5102 -61.227001 68.813103
4.4660301 -61.262402 68.886101
4.4952898 -61.260601 68.831497
4.5142798 -61.357399 68.764801
4.5307899 -61.3102 68.774803
4.1413102 -61.435001 68.841103
3.8617201 -61.3102 68.959099
4.0155001 -61.3866 68.891998
4.1642299 -61.502899 68.786301
4.15236 -61.466099 68.810402
4.1355901 -61.381901 68.928497
4.13271 -61.409401 68.875397
3.6152401 -61.146999 69.057503
3.64659 -61.142101 69.131401
3.6329501 -61.141201 69.093903
3.5365901 -61.028999 69.119797
3.56233 -61.079601 69.092499
3.59498 -61.177799 68.978699
3.60671 -61.1618 69.019798
3.7166901 -61.227798 69.015503
4.2227502 -60.3619 68.904099
4.3573799 -60.373501 68.9748
4.32446 -60.351601 68.952904
4.7765298 -61.745499 68.597801
4.8212099 -61.871399 68.624603
4.7976098 -61.805302 68.608803
4.89854 -61.666401 68.595398
4.8281498 -61.7187 68.592102
4.94767 -61.736099 68.599403
4.9889202 -61.6119 68.608002
4.8481202 -61.607101 68.593498
3.62938 -64.736801 73.753304
3.62165 -65.127899 74.038902
3.63363 -64.924896 73.881401
3.7971499 -64.640999 73.841003
3.7158 -64.680603 73.794701
3.59986 -64.433197 73.554199
3.6192501 -64.570297 73.6409
3.4437001 -64.877098 73.651398
3.5392799 -64.8041 73.704597
3.5506499 -64.196404 73.408203
3.7314999 -64.1166 73.474297
3.6419599 -64.153297 73.438301
3.53492 -64.066299 73.319702
3.3955801 -64.387398 73.401497
3.5744901 -64.319397 73.483299
3.8274701 -63.771099 73.155602
3.90365 -63.745899 73.2015
3.9727499 -63.570999 72.801102
3.8992801 -63.670101 73.005302
3.65487 -63.804401 73.094803
3.7399499 -63.789299 73.119797
3.7490799 -63.945499 73.334099
3.7808399 -63.864201 73.257103
4.1610599 -63.396 72.293701
4.0596499 -63.4771 72.5606
3.7848201 -63.5961 72.744102
3.8777399 -63.5924 72.761803
4.4017 -63.271099 71.726196
4.2825298 -63.332001 72.005501
3.9716499 -63.423 72.250099
4.0658498 -63.418098 72.264297
4.6046 -63.158901 71.247299
4.5081701 -63.211899 71.472702
4.2019901 -63.293499 71.6903
4.3048601 -63.292801 71.698303
4.75912 -63.056599 70.866501
4.8810301 -62.9534 70.5298
4.82233 -63.004398 70.6959
4.5605102 -63.084202 70.842697
4.6617198 -63.076401 70.848602
4.6869998 -63.108002 71.048698
4.9925098 -62.848701 70.200302
5.0929298 -62.750301 69.896896
5.0439501 -62.797001 70.043198
4.7957501 -62.882 70.161598
4.8938398 -62.873001 70.177101
4.9377098 -62.900501 70.365402
5.1750202 -62.647301 69.635399
5.2412601 -62.540001 69.405602
5.2098799 -62.592098 69.515099
4.9893999 -62.697498 69.581398
5.0774398 -62.678699 69.605904
5.13726 -62.700699 69.7621
5.2845702 -62.4534 69.239899
5.2663398 -62.493401 69.313301
5.0565901 -62.601101 69.3564
5.1454201 -62.575802 69.377998
5.3229599 -62.274502 68.978302
5.3066101 -62.377399 69.117699
5.3157301 -62.331001 69.051399
5.31704 -62.120399 68.826103
5.3244801 -62.2048 68.901604
5.1388798 -62.345901 68.946198
5.2272601 -62.3153 68.958
5.3007998 -62.0214 68.752403
5.0729599 -61.992401 68.667397
5.1675801 -61.953499 68.676003
4.6402798 -60.916 68.782501
4.7017999 -60.993401 68.749496
4.6679502 -61.1315 68.721901
4.6956902 -61.1227 68.718803
4.5242801 -60.7826 68.843697
4.5819001 -60.847698 68.812698
4.4951401 -60.992199 68.798798
4.5571699 -60.9646 68.780701
4.4116702 -60.6497 68.899597
4.4669099 -60.718601 68.873497
4.3166099 -60.518002 68.9384
4.3652601 -60.581799 68.922699
4.24999 -60.7472 68.908302
4.3214698 -60.705502 68.897301
4.0447898 -60.534 68.902
4.11342 -60.4776 68.882896
4.25915 -60.453201 68.928101
4.2199502 -60.436001 68.920898
4.7379799 -61.4893 68.614502
4.7705898 -61.508301 68.606003
4.70856 -61.215698 68.6931
4.6574602 -61.302299 68.680801
4.6985898 -61.305801 68.6698
4.7630601 -61.4035 68.630699
4.6504502 -61.463799 68.646301
4.7002101 -61.486198 68.625603
3.7681 -60.541199 68.897003
3.8780799 -60.488701 68.846497
3.7216101 -60.489498 68.839798
3.56673 -60.640999 69.035698
3.65803 -60.5914 68.964401
3.8422201 -60.624199 68.975601
3.8108101 -60.5863 68.939102
4.32197 -60.389702 68.966301
3.5261199 -62.899601 71.439301
3.1124799 -62.7103 71.452698
3.2948201 -62.798698 71.483398
3.41645 -62.9394 71.718697
3.93771 -63.0704 71.311798
3.7465601 -62.992802 71.376099
3.7455201 -62.821499 70.936798
3.6427801 -62.8619 71.177101
4.1189299 -62.980301 70.889999
4.2551498 -62.872898 70.509201
4.1920199 -62.9282 70.695503
3.94718 -62.910801 70.915497
4.0355802 -63.027699 71.094398
4.3604398 -63.060398 70.854797
4.2518802 -63.028198 70.869003
4.1851001 -61.567101 68.751099
4.1794801 -61.591 68.747704
4.4509301 -61.532902 68.701302
4.3305998 -61.577599 68.7192
4.18045 -61.543499 68.761002
4.5163999 -61.605598 68.6604
4.4858699 -61.5756 68.678101
4.56879 -61.4105 68.699303
4.5292702 -61.477501 68.694504
4.3961701 -61.454601 68.765198
4.42594 -61.4967 68.728699
4.6045198 -61.440102 68.670998
4.5872898 -61.347698 68.7089
4.5416098 -61.382301 68.7314
4.6188998 -61.2985 68.700104
4.5320601 -61.165401 68.780602
4.5681801 -61.2272 68.749199
4.2799702 -60.468399 68.937897
4.1339698 -60.633598 68.9328
4.2193899 -60.581402 68.921402
4.0859799 -60.584099 68.930199
4.0032701 -60.681 68.9935
4.0563302 -60.666901 68.968002
4.1875701 -60.690102 68.926598
4.3730102 -60.873299 68.852997
4.4390998 -60.8354 68.841797
4.3127398 -60.811699 68.8825
4.2706099 -60.933399 68.917099
4.31005 -60.904202 68.8825
4.4354601 -60.931198 68.824997
4.1357598 -60.828201 68.970901
4.2040501 -60.878201 68.945602
4.2105198 -60.993801 69.007202
4.23913 -60.9599 68.959198
4.41431 -61.044102 68.848602
4.3359399 -60.986698 68.885399
4.0718598 -60.904499 69.084999
4.14189 -60.9496 69.047897
4.2088499 -61.040298 69.1371
4.1986198 -61.023899 69.065201
4.3543801 -61.0872 68.929298
4.2786698 -61.039101 68.966202
4.0827799 -60.950199 69.217697
4.1476898 -60.996201 69.1763
4.2386599 -61.043999 69.245903
4.33529 -61.1175 69.030403
4.2686701 -61.0774 69.0896
3.4844999 -60.5723 68.979698
3.5582099 -60.494099 68.858498
3.2428401 -60.552299 69.001297
3.34883 -60.638199 69.087097
3.35286 -60.612202 69.052399
3.4326301 -60.550499 68.960197
4.8989902 -62.7892 69.849602
4.9924102 -62.776299 69.869598
4.1852298 -62.3615 69.578102
4.1743698 -62.339699 69.545502
4.3130999 -62.384201 69.423203
4.4067702 -63.182701 71.216499
4.5078301 -63.178398 71.2239
4.6827998 -62.983501 70.501999
4.7835102 -62.9743 70.511497
4.1898699 -61.839401 68.815399
4.2244301 -61.801201 68.779404
4.44662 -61.788601 68.692497
4.3583202 -61.7799 68.719902
4.3610702 -61.6875 68.698898
4.3137298 -61.726501 68.719101
4.4442401 -61.697601 68.675499
4.2725902 -61.669102 68.724098
4.3800998 -62.274799 69.093399
4.44034 -62.389 69.2342
4.4109998 -62.334801 69.162201
4.6554999 -62.361698 69.004601
4.5139999 -62.321098 69.048698
4.34831 -62.1464 68.958801
4.3575802 -62.211201 69.0252
4.1273398 -62.170601 69.1866
4.2505798 -62.222698 69.142601
4.3582602 -62.004398 68.843903
4.35043 -62.076801 68.899597
4.6172099 -62.041199 68.758797
4.4807501 -62.0252 68.805
4.3881302 -61.885399 68.7537
4.3708601 -61.939201 68.794403
4.1408601 -61.944599 68.912498
4.24542 -61.976898 68.880699
4.6088901 -61.8951 68.6838
4.4926801 -61.8946 68.722099
4.4105401 -61.835701 68.723602
4.2881198 -61.864899 68.785301
4.6023002 -61.789299 68.6465
4.5307598 -61.791698 68.6689
4.4862599 -61.743999 68.670303
4.4867301 -61.645901 68.663902
4.6067801 -61.8382 68.660004
4.6119599 -61.962299 68.718201
4.7210302 -61.884602 68.651604
4.5324202 -62.5984 69.566101
4.5351701 -62.546001 69.462402
3.8703599 -62.194099 69.716499
3.86025 -62.169601 69.672798
3.8857801 -62.258598 69.8423
3.87922 -62.2178 69.763
3.5587699 -62.089401 69.971603
3.7149799 -62.170101 69.918297
3.91926 -62.4104 70.030899
3.89814 -62.325298 69.9375
4.2143302 -62.441898 69.690399
4.0625501 -62.356201 69.759903
3.5223999 -62.2052 70.140099
3.6962399 -62.2925 70.1007
3.9390299 -62.567501 70.243202
3.9402299 -62.490002 70.123596
4.21631 -62.5658 69.915199
4.1278701 -62.521801 69.9524
3.5083899 -60.790199 69.1586
3.4496801 -60.745998 69.112503
3.4849401 -60.772301 69.133301
3.49119 -60.836601 69.151901
3.4988599 -60.812302 69.155296
3.5309701 -60.813301 69.222298
3.5240099 -60.804199 69.187302
3.54108 -60.758301 69.144798
3.523 -60.773499 69.151199
3.51302 -60.8512 69.208199
3.52179 -60.8312 69.215599
3.53632 -60.8354 69.2799
3.5367 -60.8246 69.251801
3.5638399 -60.7887 69.219597
3.54442 -60.8018 69.222198
3.5216601 -60.868698 69.260803
3.5268099 -60.8564 69.2677
3.51756 -60.838402 69.323799
3.5636401 -60.804798 69.290001
3.5469201 -60.8158 69.289001
3.62287 -60.6861 69.068298
3.7156701 -60.655201 69.030296
3.6048901 -60.667702 69.053398
3.63414 -60.731899 69.1185
3.6289799 -60.705898 69.086098
3.6712201 -60.7808 69.294197
3.6610401 -60.7616 69.383904
3.5232699 -60.9417 69.225899
3.4983499 -60.937801 69.292801
3.5624101 -61.046101 69.175903
3.5422299 -61.062 69.234596
3.6399801 -61.1656 69.185204
2.17593 -68.429901 80.080704
2.34059 -68.381897 79.621002
2.7567401 -68.184097 79.847702
2.5611899 -68.280197 79.745201
2.6268499 -68.245003 78.929001
2.4944999 -68.324097 79.261902
1.88436 -68.561501 79.401703
2.0778601 -68.500099 79.489899
2.9957199 -68.065102 79.119598
2.8221099 -68.1511 79.028503
2.86256 -68.013298 78.246597
2.7439699 -68.145103 78.606201
2.21433 -68.416397 78.736801
2.4080701 -68.339104 78.824097
3.03069 -67.746101 77.6604
2.96033 -67.866402 77.912003
3.3736 -67.580299 77.837196
3.20419 -67.663399 77.7481
3.1491201 -67.524101 77.218201
3.0890901 -67.639702 77.445602
2.6472299 -67.914001 77.479301
2.84512 -67.8283 77.5737
2.8231001 -68.1465 79.885696
2.8944499 -68.135696 79.461197
3.1235499 -68 79.182503
3.20875 -67.842598 78.426003
3.10096 -67.977699 78.786797
3.30496 -67.696701 78.089798
3.49036 -67.363197 77.3993
3.4312699 -67.476196 77.624298
3.71014 -66.825699 76.483101
3.60886 -67.098999 76.919701
3.6656599 -66.959602 76.686203
3.7737701 -66.583504 76.151802
3.74628 -66.699303 76.306602
3.3824501 -66.984596 76.317398
3.5518701 -66.907097 76.398499
3.82006 -66.355003 75.864403
3.7962301 -66.468399 76.007599
3.47245 -66.733101 75.997498
3.6268499 -66.6577 76.0737
3.86538 -66.1073 75.554497
3.8425701 -66.235199 75.712799
3.546 -66.494797 75.728996
3.6851399 -66.425102 75.796799
3.9170499 -65.730301 75.107101
3.8906701 -65.945702 75.361397
3.6177499 -66.234398 75.438904
3.7427499 -66.172501 75.496902
3.9602599 -65.3032 74.622803
3.9410701 -65.501297 74.846703
3.6986401 -65.844002 74.995598
3.8096499 -65.788101 75.051399
3.9728701 -64.935204 74.247498
3.97381 -65.122299 74.424103
3.76718 -65.409897 74.517998
3.8642199 -65.355904 74.570602
3.95402 -64.569603 73.940598
3.96579 -64.750801 74.086502
3.7983301 -65.027802 74.145798
3.8847799 -64.979599 74.197601
3.9168601 -64.266701 73.7183
3.9352901 -64.4039 73.817902
3.87534 -64.605499 73.891899
3.8821399 -64.052101 73.554001
3.89623 -64.151802 73.632896
3.76774 -64.332703 73.629799
3.8422799 -64.297302 73.674797
3.88902 -63.8951 73.4049
3.8801301 -63.968102 73.477203
3.8115201 -64.083603 73.514
3.9147799 -63.817799 73.327499
3.8223901 -63.9189 73.372398
5.1282902 -62.189701 68.792297
5.21944 -62.157299 68.803497
4.9106202 -62.228001 68.801903
5.0308299 -62.214001 68.790199
5.13763 -62.274502 68.869301
5.1077499 -62.096298 68.721199
4.6241002 -62.210499 68.866203
4.7699299 -62.2244 68.829102
4.9285998 -62.384602 68.950203
4.9198399 -62.309502 68.874496
4.8710999 -62.0415 68.689201
4.8949699 -62.1376 68.740601
4.4783502 -62.1819 68.915901
4.6356502 -62.290001 68.932503
4.6215501 -62.126598 68.807899
4.1935101 -62.274899 69.323799
4.15769 -62.226002 69.257401
3.93262 -62.144901 69.412003
4.0643401 -62.2108 69.370003
4.2381902 -62.323399 69.381599
4.3119798 -62.3312 69.280602
4.7074699 -62.487301 69.157898
4.5728798 -62.440701 69.192398
4.91292 -62.535301 69.1595
4.8012099 -62.511002 69.1464
4.6835299 -62.430199 69.081001
4.9320698 -62.474998 69.057701
4.9270101 -62.4977 69.093697
5.12569 -62.4492 69.0802
5.0357699 -62.469601 69.067101
4.93331 -62.443298 69.019897
5.1030202 -62.520699 69.194099
5.1163402 -62.486099 69.135803
5.2135901 -62.4198 69.095703
5.1343598 -62.405399 69.017502
5.2967501 -62.416801 69.178001
3.89551 -62.058102 69.254303
3.9099801 -62.104 69.334801
3.65418 -62.009399 69.4813
3.7992699 -62.0784 69.446999
3.9662299 -62.187599 69.480103
4.0276198 -62.279301 69.644501
4.1967902 -62.3895 69.616402
4.1110802 -62.060299 69.041496
4.2249498 -62.103901 69.004204
4.5960202 -62.486801 69.271004
4.8696499 -62.611401 69.326599
4.8917298 -62.571201 69.235397
5.0120702 -62.536098 69.176697
5.08356 -62.5588 69.266197
5.1920099 -62.492901 69.214104
3.9825101 -63.245399 71.726799
4.20614 -63.155899 71.235901
4.0991101 -63.1968 71.466797
3.72084 -63.158199 71.811897
3.86221 -63.208302 71.762199
3.78828 -63.395802 72.253899
3.8795099 -63.315201 71.991798
4.0936699 -63.274799 71.702797
3.56955 -63.324699 72.295998
3.68659 -63.367199 72.269402
3.6059501 -63.565399 72.733902
3.69487 -63.478901 72.504501
3.88115 -63.415298 72.247398
3.4107001 -63.498402 72.728401
3.5118201 -63.537201 72.730797
3.47528 -63.808701 73.066704
3.5334699 -63.6791 72.918297
3.69414 -63.586102 72.736801
3.2702301 -63.7327 73.030197
3.3752 -63.780701 73.051399
3.3527601 -64.093597 73.2584
3.4300301 -63.958401 73.189201
3.5731599 -63.815601 73.079803
4.6113601 -62.861698 70.1409
4.7023802 -62.878899 70.150497
4.7251701 -62.7761 69.818604
4.6693301 -62.8158 69.972
4.3608298 -62.769798 70.154999
4.50489 -62.829601 70.138702
4.49297 -62.960999 70.493797
4.5525899 -62.909901 70.317703
4.81076 -62.6926 69.549797
4.7718701 -62.7365 69.679802
4.9035802 -62.702301 69.562897
4.8421001 -62.650101 69.431602
4.6898699 -62.6623 69.547997
4.96766 -62.613499 69.340302
4.7396202 -62.578201 69.328796
5.0434999 -62.369202 68.942703
4.7966299 -62.385399 68.972801
3.4388499 -64.087402 73.287804
3.16398 -64.032303 73.195602
3.26103 -64.079498 73.230797
3.2529099 -64.416298 73.330902
3.2946801 -64.240501 73.303596
4.9773302 -62.023201 68.6726
4.8447299 -61.950001 68.652397
4.7476001 -62.0439 68.721802
4.9064698 -61.848 68.6129
4.0963302 -61.811298 68.841698
4.1619501 -61.886799 68.858498
3.8872299 -61.733101 68.8843
3.7765 -61.622002 68.867897
5.0302901 -61.8927 68.6334
4.3839998 -61.0667 68.886299
4.4797401 -61.105301 68.815002
4.4492898 -61.021099 68.818199
4.5026698 -61.174599 68.810303
4.6079798 -61.145699 68.738098
4.5675302 -61.1548 68.7556
4.02811 -60.760101 69.008797
4.06844 -60.786499 68.993103
4.0111399 -60.733299 69.010696
3.9511001 -60.830799 69.142899
3.9735 -60.797001 69.0728
3.82973 -60.701801 69.068497
3.9369299 -60.691299 69.027298
3.4277201 -60.662498 69.087402
3.4865301 -60.700401 69.096603
3.451 -60.674301 69.090897
3.44824 -60.6357 69.0569
3.39872 -60.652599 69.089798
3.31055 -61.910999 69.895401
3.3062201 -61.928101 69.9627
3.5638199 -62.037399 69.851196
3.4317601 -61.974602 69.892899
3.26845 -60.629101 69.081398
3.1326101 -60.6049 69.065804
3.1635101 -60.6474 69.088097
3.3545899 -60.701 69.094002
3.3512199 -60.665401 69.099602
3.5189199 -60.677502 69.075699
3.45944 -60.721001 69.1101
3.5167999 -60.735199 69.116203
5.0245099 -62.648102 69.463203
4.9475498 -62.744499 69.711403
4.3594599 -62.514 69.617203
4.4615102 -62.684799 69.8395
4.5072098 -62.647598 69.693901
3.3371501 -61.914101 69.8106
3.5624399 -62.016499 69.797401
3.4340799 -61.959801 69.841499
4.1101599 -62.113098 69.114403
4.0081701 -62.1143 69.226402
3.4135301 -61.8909 69.434196
3.6575301 -61.948898 69.290802
3.5290301 -61.8997 69.313797
4.0433302 -61.913399 68.941803
4.1233802 -62.006599 68.972397
3.8580501 -61.4701 68.842598
3.84093 -61.514599 68.8396
3.52442 -60.608799 69.013603
3.2838399 -60.687401 69.0858
3.36043 -60.743999 69.0839
3.40453 -60.718399 69.1026
3.5799999 -61.196201 68.9468
3.8710301 -61.388699 68.882103
3.70927 -61.279598 68.940102
3.5287499 -61.0919 69.011101
3.51791 -61.0257 69.077499
3.50946 -61.026299 69.062798
3.46404 -60.965599 69.052002
3.48839 -60.905602 69.122803
3.47559 -60.903599 69.099602
3.4433801 -60.813099 69.107597
3.4434199 -60.850101 69.095001
3.4457901 -60.778301 69.113297
4.1826901 -60.784302 68.937103
4.5578399 -61.067902 68.765404
4.6455498 -61.136902 68.726196
4.22335 -62.506699 69.793198
3.2702301 -62.0145 70.104897
3.2161901 -62.134899 70.2677
3.3795199 -62.138401 70.165604
2.4312501 -67.344299 75.910698
2.02881 -67.462303 75.778603
1.68109 -67.433701 75.473099
1.4818 -67.851501 76.0569
1.5601799 -67.707603 75.842796
2.6000099 -66.625603 74.994904
2.2678199 -66.719597 74.859596
1.95456 -66.638496 74.533501
1.85155 -66.956596 74.909798
3.0098701 -67.1371 76.151398
2.76652 -67.2304 76.044601
2.47157 -67.116402 75.579399
2.4581499 -67.226303 75.7416
2.30636 -67.628502 76.322098
2.3724 -67.484398 76.105003
3.0630701 -66.478897 75.209602
2.87448 -66.543701 75.124901
2.78724 -66.246498 74.595596
2.6698101 -66.4561 74.801498
2.52109 -66.895103 75.300301
2.55127 -66.774002 75.162102
3.20281 -67.0606 76.2369
3.1345201 -66.878098 75.846703
3.07041 -67.007004 75.979698
2.89539 -67.418701 76.565201
2.9547 -67.274696 76.346703
3.3414199 -66.361099 75.322304
3.4849801 -66.296204 75.382698
3.4503701 -65.965103 74.885597
3.3938899 -66.190399 75.135597
3.19731 -66.422798 75.264801
3.2495899 -66.629501 75.599098
3.2943499 -66.499001 75.466599
2.38673 -65.926697 73.556702
2.5843699 -66.045998 74.013901
2.61638 -65.926697 73.791603
2.8011401 -65.705803 73.643898
2.9521201 -62.630299 71.395203
2.8947999 -62.503601 71.116302
3.3401699 -62.6278 70.952103
3.1573601 -62.5392 70.940697
3.0402801 -62.392899 70.738197
3.8740001 -62.699699 70.550003
3.82304 -62.763699 70.727699
3.53584 -62.7206 70.952499
3.319 -63.103901 72.192802
3.55142 -63.0896 71.886002
3.2564199 -63.303398 72.573601
3.43821 -63.270401 72.335999
3.1266301 -63.505901 72.898399
3.3033199 -63.452099 72.734299
3.0132599 -63.775002 73.098999
3.16501 -63.681499 73.017303
3.04987 -64.606003 73.282097
3.2320099 -64.583199 73.360199
3.13573 -64.621803 73.318298
3.0852699 -64.384804 73.258698
2.9549699 -64.552399 73.251602
3.21312 -63.881599 73.130501
3.0650799 -63.981499 73.170097
3.12133 -64.194397 73.231499
3.33553 -63.606701 72.900398
3.4963801 -63.4095 72.521301
3.63537 -63.230701 72.0653
3.82744 -63.106602 71.555702
4.2884402 -63.108299 71.039299
4.4587998 -63.077702 70.847198
4.4289799 -63.0116 70.673401
4.3070002 -62.819901 70.331398
4.4061699 -62.719299 69.992401
4.17238 -62.682098 70.188904
3.61237 -63.9645 73.273102
3.62275 -63.901501 73.207001
3.7139101 -63.701302 72.938797
3.8715 -63.5019 72.512299
4.08319 -63.3535 71.969398
4.3129401 -63.237701 71.434799
4.6240201 -63.034901 70.670799
4.48666 -63.131001 71.0242
4.8482699 -62.8325 69.999603
4.7409201 -62.931499 70.332001
3.2485001 -64.994499 73.528297
3.34322 -64.943604 73.591301
3.4086499 -65.260498 73.913597
3.44154 -65.055199 73.769402
3.41629 -64.583702 73.485603
3.43051 -64.719299 73.559303
2.9756999 -65.849899 74.152702
2.89042 -66.047699 74.372803
3.2981 -65.669899 74.293701
3.14977 -65.7472 74.218201
3.0522599 -65.675797 73.946297
2.7846601 -65.950203 74.074799
3.55334 -65.530197 74.415398
3.5943501 -65.332703 74.217102
3.43343 -65.597801 74.357201
3.5067 -65.735001 74.632599
3.6645801 -65.467697 74.4674
2.4339399 -66.357498 74.432999
2.26933 -66.409698 74.3871
2.0087099 -66.3479 74.089104
2.3461101 -66.140999 73.951103
2.08374 -66.125198 73.675102
3.7105401 -65.075699 74.092598
3.5230999 -65.182503 73.977402
3.5146999 -62.3554 70.319397
3.7001901 -62.443401 70.295998
3.91187 -62.633701 70.390701
3.1500499 -62.263 70.461403
3.3426199 -62.268902 70.346298
4.0357399 -61.469101 68.8228
3.86625 -61.348301 68.918404
3.86903 -61.4286 68.852898
4.30371 -61.495399 68.764397
4.4223599 -61.134998 68.8871
4.4377198 -61.193001 68.929001
4.4503198 -61.188801 68.886902
4.3407202 -61.102798 68.977402
3.72245 -60.720501 69.096603
3.8261299 -60.775398 69.203697
3.82007 -60.752102 69.129799
3.84835 -60.6563 69.016998
3.56443 -60.797199 69.252899
3.65416 -60.768002 69.207703
3.59727 -60.7775 69.212799
3.5594299 -60.776699 69.181602
3.5090799 -60.9193 69.170998
3.5173099 -60.975498 69.140297
3.5180299 -60.932201 69.199097
3.5090401 -60.873798 69.196297
3.49933 -60.910099 69.143303
3.5520699 -61.037399 69.148804
3.5256701 -61.0266 69.094299
3.8758399 -61.2794 69.050301
3.86835 -61.289398 68.996399
3.6629 -60.7784 69.248299
3.7386799 -60.766201 69.208504
3.64604 -60.7537 69.1586
3.86501 -60.772499 69.330299
3.8559501 -60.784801 69.262398
3.89783 -60.799999 69.170898
3.98314 -60.858398 69.280899
3.9605899 -60.854198 69.204201
4.0088701 -60.866402 69.113899
3.20346 -60.727901 69.066597
4.0195198 -61.3456 68.992401
3.87339 -61.293098 69.110703
3.7418599 -61.205299 69.091499
4.3421698 -61.3918 68.877197
4.2564201 -61.403801 68.885597
4.1350999 -61.383499 68.998398
4.4457102 -61.326599 68.872597
4.4025898 -61.363098 68.869102
4.3101702 -61.378502 68.9608
4.36972 -61.421799 68.810898
4.4618301 -61.295101 68.877998
4.4080801 -61.3204 68.9645
4.4802399 -61.340599 68.810699
4.4561 -61.229099 68.903297
4.4303699 -61.265999 68.968102
4.4012599 -61.156601 68.978401
4.4253998 -61.195099 69.009003
4.3535199 -61.1213 69.121696
3.9286399 -60.8027 69.317497
4.0184698 -60.854099 69.385902
4.0294199 -60.9086 69.248001
3.7794001 -60.773998 69.309097
3.86006 -60.739399 69.444298
3.5876501 -60.7957 69.287697
3.5371599 -60.994301 69.198097
3.5183301 -60.889198 69.251999
3.5910101 -61.090698 69.161003
3.68769 -61.334999 68.888496
4.0166898 -61.567799 68.792999
4.6293502 -61.540001 68.637398
4.4692602 -61.4086 68.762497
3.49733 -60.967098 69.095299
3.4872501 -60.8629 69.142601
3.57377 -60.743999 69.133202
3.9537899 -60.5826 68.936302
4.0110102 -60.4841 68.861099
2.9351699 -64.104103 73.187401
3.16958 -65.459396 73.8022
3.2857399 -65.364799 73.862701
3.02754 -65.430901 73.595802
2.5107601 -66.194397 74.226303
3.1733401 -66.095001 74.771301
3.0023799 -66.1688 74.703003
2.57212 -66.311996 74.488998
3.2341499 -64.726799 73.405602
3.2442901 -64.841103 73.462097
3.3240299 -64.658096 73.443001
3.02929 -65.564003 73.738197
3.3571801 -65.466698 74.085999
3.2448499 -65.875999 74.514603
3.57939 -65.900597 74.943001
3.31512 -66.031097 74.827301
3.1368501 -65.052696 73.456497
3.11285 -66.307503 75.010399
2.9826801 -66.741096 75.489403
3.0253 -66.610397 75.358398
1.14829 -68.786102 79.589699
1.68425 -68.632896 79.321404
1.43524 -68.675499 78.818298
2.0592401 -68.499603 79.046097
3.4226699 -62.0228 70.005798
3.4309101 -66.855698 76.142799
3.2723801 -67.259102 76.744301
3.3308201 -67.119904 76.517197
3.6561799 -66.067497 75.249496
3.5811801 -66.369301 75.588699
3.7344799 -65.610901 74.740097
3.7895801 -65.222504 74.323097
3.80074 -64.8321 73.984901
3.78475 -64.468903 73.725197
3.7479899 -64.216904 73.550598
3.7290599 -64.024498 73.399803
3.5072801 -64.502296 73.523499
3.40099 -64.477303 73.4375
3.6883399 -64.374802 73.590103
3.1735001 -64.4114 73.294098
3.3148301 -64.406303 73.360802
3.66995 -63.961399 73.298897
2.99244 -64.336502 73.231003
1.07997 -68.462898 77.239998
2.03512 -68.133003 77.236198
1.6167001 -68.251701 77.1008
1.32862 -68.128998 76.5205
1.24933 -68.246101 76.759499
1.84444 -68.391701 77.823196
1.95628 -68.251999 77.489899
2.3913901 -68.013199 77.369698
2.1697099 -67.902802 76.783699
2.10238 -68.022903 77.0131
2.76896 -67.686096 77.032898
2.70736 -67.804398 77.260803
2.4760201 -68.180496 78.066002
2.5740399 -68.032501 77.7332
1.96631 -68.500099 78.637001
1.71118 -68.514297 78.179901
2.35179 -68.314003 78.421501
2.1143701 -67.218201 75.4506
1.77065 -67.194199 75.186203
2.8936601 -66.961998 75.7295
2.7532201 -67.017998 75.689499
2.49314 -67.008003 75.435997
2.99471 -66.925499 75.771797
2.93855 -66.8526 75.604897
3.3097301 -66.807999 75.921898
3.19873 -66.7556 75.724403
3.51106 -66.614799 75.864304
3.4021399 -66.562698 75.663597
3.10743 -66.689796 75.540604
2.8048699 -66.803802 75.417503
2.17887 -66.993698 75.177101
4.12363 -60.959 69.321899
4.0661898 -60.932499 69.143898
4.0964999 -60.871101 69.0233
4.3140702 -62.614601 69.873299
4.6124701 -62.743401 69.8162
4.81042 -62.7892 69.835098
3.37695 -61.923302 69.650398
3.6059401 -62.0214 69.688103
3.4712901 -61.964199 69.721298
3.3038399 -60.772701 69.062897
3.4072599 -60.794498 69.087402
3.47293 -60.827702 69.1287
3.5039699 -60.843102 69.177002
3.5206001 -60.861698 69.234703
4.0848098 -63.119598 71.2686
4.3077698 -63.175701 71.220802
3.46433 -62.5005 70.579498
3.2773399 -62.406601 70.591301
3.65975 -62.596199 70.568199
4.0806499 -62.7981 70.527496
4.3865399 -62.926102 70.498398
4.58602 -62.9785 70.497101
4.6592002 -61.383499 68.6623
4.64081 -61.222401 68.7089
3.90482 -61.975498 69.095299
4.0060201 -62.019402 69.072403
3.5090001 -61.951599 69.519699
3.8937199 -62.013699 69.1754
3.7812099 -62.003601 69.274902
3.92503 -61.9282 69.0252
3.7978799 -61.922901 69.116501
3.9707501 -61.824902 68.9105
3.7042201 -62.107101 69.790802
3.6856 -62.059898 69.665497
-3.0759001 -67.818001 77.191597
-3.3642499 -67.470497 76.746597
-3.8655601 -67.2015 76.867699
-3.0111699 -67.241302 76.013
-3.1224301 -67.330002 76.241402
-2.56287 -67.539299 76.139999
-2.9045601 -67.1492 75.795799
-3.3865199 -66.9412 75.9076
-2.15889 -68.310501 77.496597
-2.33061 -67.983299 76.765099
-2.4732201 -68.041199 77.055
-2.19786 -67.904503 76.510902
-1.89554 -67.608498 75.830597
-1.98508 -67.714798 76.041603
-1.58095 -68.435699 77.312698
-4.2172699 -65.980003 75.610298
-5.2228699 -65.476303 76.400803
-4.8938298 -65.927696 76.450798
-4.4904499 -66.498901 76.6036
-3.95504 -66.340698 75.725197
-1.73772 -67.392799 75.439201
-1.81313 -67.500397 75.630203
-0.85954398 -67.747704 75.601898
-1.2872699 -67.592796 75.5299
-1.60489 -67.1819 75.0802
-1.6675 -67.285896 75.255096
-2.5987501 -66.8759 75.226898
-2.1866601 -67.146599 75.333702
-2.6943099 -66.964203 75.402802
-2.51562 -66.788696 75.059998
-2.94168 -66.619499 75.135101
-4.00071 -65.287003 74.589798
-3.5592301 -65.992798 74.892899
-3.6171701 -65.677101 74.604897
-4.10075 -64.872299 74.282799
-3.1714599 -66.2798 74.876198
-2.80216 -67.7118 76.622002
-2.0443299 -66.955902 74.989998
-2.76847 -66.458199 74.804001
-3.6804299 -65.328598 74.296204
-3.2628601 -65.963699 74.582397
-1.15819 -67.367302 75.147499
-1.55038 -67.0793 74.909401
-0.79185897 -67.624702 75.394501
-3.3408201 -60.326599 69.523102
-3.3695199 -61.089401 69.949203
-3.43853 -62.311798 70.878799
-3.46913 -62.497898 71.071198
-3.41522 -61.784901 70.444901
-1.79901 -66.556 74.289902
-2.47451 -66.0858 74.118202
-3.1673701 -65.374702 73.841301
-3.53599 -64.673302 73.482002
-3.67274 -64.027496 72.957298
-3.6951001 -63.5924 72.509804
-3.6787601 -63.329498 72.161797
-3.6909001 -63.459202 72.3396
-3.4478099 -59.686401 69.238899
-3.7330301 -59.004799 68.969597
-3.59604 -62.948399 71.640503
-3.6198001 -63.044998 71.769096
-1.44991 -66.875999 74.5755
-2.7970099 -63.3279 71.464401
-2.3833399 -63.360699 71.3395
-3.0454199 -63.1021 71.341003
-3.3303499 -63.0937 71.562202
-3.8968699 -62.781502 71.747902
-3.5694201 -62.8438 71.5056
2.6668301 -62.733101 72.111504
2.97821 -62.734402 71.715401
3.6665499 -61.9091 69.204903
3.5601201 -62.023399 69.821602
3.56497 -62.056801 69.897003
3.5741 -62.018002 69.7659
3.6556301 -61.9846 69.384003
3.53877 -62.142799 70.059196
3.5178499 -62.278301 70.223602
3.2353101 -62.674599 71.192703
3.41503 -62.570099 70.746399
3.48893 -62.422199 70.447601
3.6503999 -62.028801 69.5849
-6.7122598 -60.1908 73.280403
-6.80867 -60.572899 73.641899
-5.6333699 -56.175301 68.854103
-5.9716101 -56.325901 69.396202
-6.4064798 -57.466702 70.780998
-6.2867599 -56.808498 70.141502
-6.5276899 -59.1423 72.409599
-6.6339302 -59.675301 72.875702
-6.4253898 -58.477798 71.714996
-6.4166899 -58.166302 71.406998
-2.81478 -63.0676 71.142899
-2.5346401 -63.2024 71.172501
-3.2546699 -62.8368 71.215897
-7.06634 -57.027 72.047096
-7.1666498 -56.829498 72.311203
-7.3148799 -56.5737 72.506203
-6.8772702 -57.317799 71.712303
-6.5871801 -57.649399 71.292603
-0.42159 -60.263 68.276001
-0.309163 -60.3041 68.310303
1.72567 -62.502201 71.752701
1.34571 -62.547901 71.5093
0.91713101 -62.656898 71.280098
0.50439399 -62.779999 71.132896
0.15018301 -62.891602 71.073097
-0.19736899 -63.009998 71.077301
-0.53529298 -63.141499 71.145798
-0.86894703 -63.2845 71.258904
-1.18196 -63.440102 71.419197
-1.37072 -63.5672 71.585403
-1.50984 -63.6758 71.721703
-0.93432403 -67.866501 75.813499
-0.465354 -67.857498 75.658997
-0.164106 -68.067902 75.945198
0.28503501 -67.9702 75.783997
0.59208399 -68.109703 76.0895
1.0721101 -67.929001 75.951797
1.40588 -67.997101 76.283302
1.90571 -67.746101 76.181602
2.2377 -67.769997 76.550797
2.6467299 -67.513 76.458
2.8323801 -67.558502 76.798897
3.0918901 -67.3386 76.656403
3.2114899 -67.398697 76.982101
3.44485 -67.182404 76.829697
3.55054 -67.238197 77.162598
-2.3633299 -67.3423 75.709602
-1.43586 -67.823997 75.938698
-0.61346799 -68.114899 76.105598
0.128437 -68.239601 76.247498
0.91109699 -68.195396 76.418297
1.76161 -68.022003 76.6436
2.51701 -67.7826 76.920799
2.96717 -67.603897 77.126602
3.3208201 -67.444504 77.309097
-1.86555 -68.203697 76.896103
-1.03631 -68.5009 77.108498
-0.27851099 -68.643204 77.289803
0.50929898 -68.646103 77.473602
1.4079 -68.502296 77.6838
2.2156501 -68.276901 77.958298
2.67557 -68.095398 78.157204
3.04143 -67.930901 78.334503
3.3590701 -67.760201 78.5028
-0.25441101 -62.6507 70.4217
-0.72634202 -62.829899 70.453697
0.35196999 -62.4394 70.466202
0.980331 -62.277 70.607697
-1.11172 -62.956299 70.528702
2.4224 -68.308296 80.215202
1.95509 -68.3526 80.883797
0.91892302 -68.735901 80.355003
1.85111 -68.558601 79.912804
1.5058399 -68.681602 79.744904
-0.88252801 -68.966797 79.515099
-0.36413801 -68.955399 79.760002
-2.2158101 -68.658096 78.7379
-1.79395 -68.830399 79.029503
-3.29106 -68.132896 78.352798
-5.5545902 -65.565804 76.956703
-5.2923198 -64.934196 75.886497
-4.62676 -65.138702 75.178497
-5.9415698 -64.2995 76.118896
-6.2979202 -64.255302 76.585602
-6.5373802 -64.3041 76.971603
-6.0767002 -63.370499 75.296097
-6.4709601 -63.428799 75.905701
-6.6319098 -61.698101 74.351898
-7.1192598 -61.610901 74.958298
-6.44701 -61.0116 73.476303
-6.60677 -60.932899 73.6353
-7.4109902 -60.596199 74.494598
-6.9008398 -60.840801 73.9739
-7.0893202 -60.778099 74.190002
-7.3008499 -58.069199 72.641998
-7.2375798 -58.091999 72.626099
-0.40957701 -63.1269 72.649696
-0.43641299 -63.155602 72.579201
-0.63164902 -63.3279 72.538902
-0.57971197 -63.273102 72.624702
-0.25304699 -63.0089 72.690498
-0.26335201 -63.027199 72.620102
-0.017741 -62.8433 72.764603
-0.0039940001 -62.842602 72.707703
0.251605 -62.698101 72.8936
0.296731 -62.682098 72.854599
0.521276 -62.5881 73.060501
0.594078 -62.555901 73.049202
0.783562 -62.4781 73.211304
0.89217597 -62.4328 73.214302
0.97578198 -62.390202 73.274902
1.11001 -62.339199 73.281303
1.0251499 -62.374699 73.2948
1.16588 -62.3279 73.300102
1.04993 -62.375801 73.314903
1.1921099 -62.3298 73.315903
1.06187 -62.3787 73.3256
1.20086 -62.3312 73.320503
1.05224 -62.400501 73.341202
1.1893899 -62.346802 73.333199
1.01559 -62.453499 73.373703
1.14854 -62.402401 73.367897
0.95327199 -62.525501 73.405899
1.08187 -62.481701 73.409203
0.881782 -62.606499 73.432999
1.0011801 -62.571098 73.443802
0.81131601 -62.699902 73.4627
0.91982001 -62.674801 73.480797
0.74058199 -62.814701 73.503899
0.841129 -62.802799 73.529999
0.62525201 -62.970501 73.540497
0.712901 -62.977402 73.570297
0.428626 -63.1707 73.559097
0.49607301 -63.203602 73.587303
0.19479799 -63.375198 73.5466
0.23322301 -63.433102 73.575798
-0.023002001 -63.525101 73.489502
-0.012381 -63.599499 73.513298
-0.226228 -63.632702 73.398598
-0.241166 -63.724602 73.410698
-0.419148 -63.734798 73.283096
-0.45699701 -63.842701 73.278099
-0.571015 -63.799599 73.161003
-0.62320399 -63.9128 73.136902
-0.68440002 -63.822601 73.042801
-0.75096101 -63.9375 73.000801
-0.78588301 -63.7892 72.889297
-0.88713998 -63.896 72.833099
-0.845743 -63.726601 72.7659
-0.95829701 -63.814602 72.708298
-0.89418697 -63.673 72.672501
-1.0122499 -63.749401 72.618896
-0.89611799 -63.6562 72.660103
-1.01029 -63.735298 72.611298
-0.87736601 -63.636101 72.659599
-0.99882603 -63.714901 72.610603
-0.84507 -63.599899 72.654099
-0.960307 -63.680302 72.602997
-0.81354201 -63.5588 72.651604
-0.924384 -63.6334 72.594398
-0.77190697 -63.504299 72.645103
-0.87204999 -63.576302 72.576698
-0.67724198 -63.3713 72.613197
-0.74314398 -63.438301 72.5261
0.036012001 -63.5406 72.012497
-0.237427 -63.642101 72.038002
0.27758601 -63.4244 72.0289
0.545165 -63.2771 72.124702
0.79920399 -63.092201 72.3433
0.95717198 -62.872898 72.684196
1.14807 -62.705601 72.921898
1.33532 -62.6092 73.010201
1.4085799 -62.596901 73.033096
1.44075 -62.6138 73.0327
1.45231 -62.627499 73.028297
1.43147 -62.617599 73.059998
1.38952 -62.658501 73.093201
1.3212301 -62.7202 73.136299
1.24579 -62.795799 73.174301
1.19556 -62.914001 73.188202
1.16085 -63.0755 73.177498
1.11876 -63.292198 73.129601
1.02666 -63.606998 73.008797
0.85373598 -63.888302 72.899902
0.63156301 -64.067001 72.829102
0.39277199 -64.1763 72.736198
0.144006 -64.246201 72.651001
-0.088293001 -64.265404 72.574898
-0.312103 -64.242699 72.532997
-0.56840998 -64.112602 72.489998
-0.73917502 -63.9729 72.461601
-0.85764903 -63.853199 72.420403
-0.86067897 -63.8475 72.382896
-0.84182501 -63.840698 72.368599
-0.804353 -63.8237 72.343803
-0.738038 -63.801701 72.3032
-0.63025701 -63.771999 72.229698
-0.446565 -63.704102 72.096397
-0.42324299 -63.7239 72.062798
-0.59950101 -63.782101 72.177696
-0.69854599 -63.807999 72.2575
-0.77028602 -63.817902 72.312897
-0.809443 -63.834702 72.339996
-0.82667798 -63.844299 72.353104
-0.81389499 -63.867699 72.368202
-0.70704299 -63.973701 72.418404
-0.54695499 -64.109596 72.464302
-0.302457 -64.220001 72.503502
-0.062318001 -64.241501 72.544403
0.168929 -64.231102 72.618103
0.41392401 -64.168098 72.699799
0.64912301 -64.055603 72.797798
0.86575598 -63.875599 72.877602
1.03049 -63.5895 72.984901
1.1288 -63.284401 73.096703
1.20629 -63.110298 73.102501
1.25823 -62.972 73.096603
1.30782 -62.862099 73.083702
1.3818901 -62.793499 73.047203
1.44949 -62.740501 73.008499
1.4859101 -62.698799 72.982903
1.4979399 -62.687099 72.969704
1.4953001 -62.683998 72.969597
1.46401 -62.679199 72.959396
1.38143 -62.6959 72.930298
1.2027 -62.797401 72.851799
1.02341 -62.940601 72.603996
0.82444602 -63.118999 72.312302
0.57540202 -63.289001 72.097603
0.31808099 -63.445099 71.991997
0.070710003 -63.564999 71.972099
-0.20795099 -63.659901 71.999199
-0.32437301 -63.694401 72.024399
-0.069063999 -63.618301 71.981697
0.197202 -63.506901 71.976196
0.44506899 -63.370602 72.040497
0.70166701 -63.209499 72.1847
0.93474901 -63.028301 72.469597
1.11068 -62.864799 72.734703
1.30006 -62.729401 72.901604
1.43516 -62.6847 72.947304
1.48851 -62.684399 72.9645
1.49863 -62.687 72.969498
1.4947799 -62.689301 72.973099
1.47272 -62.7202 72.991402
1.41931 -62.7649 73.026299
1.34276 -62.825401 73.066002
1.28045 -62.909599 73.094498
1.23777 -63.043098 73.095802
1.1688401 -63.189098 73.100601
1.08138 -63.439899 73.050903
0.95778799 -63.736198 72.925903
0.75807399 -63.977699 72.841698
0.53721303 -64.115501 72.751297
0.290999 -64.209297 72.659599
0.053296998 -64.242897 72.577202
-0.176002 -64.240303 72.515099
-0.43212399 -64.170998 72.488197
-0.62974399 -64.041901 72.441704
-0.76907802 -63.913799 72.385597
-0.82883602 -63.850498 72.358299
-0.81901401 -63.839001 72.346397
-0.79201198 -63.824799 72.328598
-0.73751497 -63.818001 72.285301
-0.65489399 -63.7994 72.224602
-0.518022 -63.755699 72.114601
3.6161599 -61.453701 69.613998
3.67609 -61.3522 69.372704
3.93647 -61.484798 69.274902
3.87254 -61.637001 69.489098
4.1588898 -61.4935 69.1968
4.1145201 -61.645401 69.445099
4.30896 -61.422501 69.215698
4.3168802 -61.5779 69.460297
4.4043698 -61.332401 69.270798
4.4174099 -61.450901 69.534798
4.4590101 -61.252899 69.323402
4.4274201 -61.384499 69.584198
4.4533901 -61.186001 69.386398
4.4145999 -61.339298 69.625298
4.3573999 -61.127701 69.505402
4.3277798 -61.236599 69.721802
4.2480798 -61.050499 69.594498
4.21663 -61.148201 69.807999
4.1504698 -60.970402 69.655098
4.1210399 -61.075001 69.875999
3.9426501 -60.800701 69.771599
3.9305 -60.949299 70.023399
3.6149499 -60.681301 69.904503
3.4609001 -60.7467 70.351601
3.4510801 -61.1852 69.503899
3.21489 -60.908298 69.789101
3.2037399 -60.796501 69.867897
3.2988701 -60.730099 69.884903
4.1953902 -61.1982 69.851402
4.2859201 -61.2813 69.776703
4.1021099 -61.1217 69.916397
3.1224301 -60.878502 70.335297
3.10342 -60.8591 70.268997
3.1319499 -60.976299 70.142303
3.1071501 -60.974098 70.255898
3.2184501 -60.791599 70.403603
3.2097499 -60.7719 70.353996
3.4368601 -60.772999 70.4048
3.9121201 -61.001202 70.048897
4.3629599 -61.362701 69.701897
4.3800302 -61.416401 69.661201
4.3607001 -61.480301 69.612999
4.2718801 -61.570801 69.556099
4.0957799 -61.6278 69.535202
3.8581901 -61.589699 69.587196
3.6561999 -61.468201 69.672699
3.4779301 -61.3036 69.816299
3.4209001 -61.254799 69.777496
4.3013301 -61.094501 69.555702
3.44872 -60.702202 69.879501
3.23492 -60.756802 69.886497
3.19419 -60.839401 69.841797
3.3329401 -61.0606 69.632599
3.5680399 -61.2868 69.410698
3.8069501 -61.4198 69.330597
4.0542302 -61.5084 69.224998
4.2419 -61.462898 69.194
4.3608699 -61.376701 69.244102
4.4429202 -61.283401 69.304703
4.4638 -61.221802 69.346603
4.41114 -61.1563 69.437103
4.0984602 -60.918301 69.675003
3.7922201 -60.730999 69.8423
4.2002902 -61.011799 69.629898
0.045386001 -63.261398 72.3116
-0.159749 -63.380699 72.277397
-0.41015199 -63.5089 72.274498
-0.57357198 -63.596699 72.289902
-0.73971897 -63.675499 72.398003
-0.834324 -63.718102 72.446701
-0.89556497 -63.745899 72.483902
-0.92637801 -63.7742 72.4981
-0.94322598 -63.783699 72.519699
-0.94187301 -63.799599 72.531303
-0.84445602 -63.8997 72.568901
-0.70396698 -64.018799 72.658501
-0.49893701 -64.124702 72.750099
-0.34479401 -64.125801 72.866501
-0.120934 -64.094002 72.955597
0.092955999 -63.990002 73.085999
0.35236001 -63.8936 73.152901
