# .PCD v.7 - Point Cloud Data file format
VERSION .7
FIELDS x y z
SIZE 4 4 4
TYPE F F F
COUNT 1 1 1
WIDTH 1680
HEIGHT 1
VIEWPOINT 0 0 0 1 0 0 0
POINTS 1680
DATA ascii
-1.68208 -40.034901 157.362
-1.79207 -39.977402 157.381
-1.4964 -40.019501 157.233
-1.57971 -39.9958 157.248
-1.6706899 -39.961899 157.265
-1.9126199 -39.904598 157.40401
-1.35944 -39.904701 157.04601
-1.3666199 -39.973099 157.132
-1.57862 -39.7173 156.64999
-1.39684 -39.786499 156.793
-1.2625901 -39.823502 156.821
-1.13287 -39.870602 156.605
-1.22522 -39.8265 156.51401
-1.38141 -39.750702 156.299
-1.18063 -39.8451 156.812
-1.12214 -39.874298 156.79401
-1.04084 -39.920399 156.63499
-1.07944 -39.898701 156.634
-1.13323 -39.899799 156.91701
1.8662 -38.911499 149.94501
1.9762599 -38.870899 149.963
2.1210899 -38.947899 149.966
1.58944 -38.850498 149.935
1.73237 -38.833199 149.944
1.15863 -38.688999 149.94099
1.3904099 -38.718102 149.952
0.829732 -38.532299 149.953
0.98912299 -38.544498 149.959
0.71652001 -38.468399 149.963
0.80872601 -38.427502 149.96899
0.62034702 -38.3923 149.992
0.71800202 -38.350399 149.989
0.56211001 -38.341301 150.034
0.63079202 -38.282799 150.03101
0.53329903 -38.315102 150.063
0.58128297 -38.244999 150.06599
0.54579598 -38.321201 150.061
0.56092298 -38.232201 150.10899
0.60976702 -38.347801 150.045
0.59776199 -38.253399 150.14
0.70200199 -38.409302 150.01401
0.69103599 -38.305599 150.13699
0.83059001 -38.504101 149.98
0.80222797 -38.3866 150.09801
0.979451 -38.5928 149.95
0.92607701 -38.478298 150.07201
1.20075 -38.706402 149.93201
1.0839601 -38.577702 150.05
1.59791 -38.879902 149.922
1.40535 -38.727501 150.026
1.90202 -39.0117 149.908
1.76745 -38.883801 150.008
2.11447 -39.097198 149.89999
1.9914 -38.981201 149.98801
2.3648601 -39.1712 149.89
2.22208 -39.066399 149.974
2.5723701 -39.171398 149.901
2.4504299 -39.102699 149.97501
2.79024 -39.149399 149.89301
2.6626799 -39.083 149.98199
2.9498301 -39.142899 149.875
2.8546801 -39.058102 149.985
3.0689499 -39.137299 149.85001
2.9823599 -39.044998 149.961
3.2242 -39.114799 149.841
3.1233201 -39.029701 149.946
3.2447901 -39.011101 149.942
3.1468201 -38.929501 149.989
3.19119 -38.861401 150.00301
2.95557 -38.959202 149.991
3.0399599 -38.887402 150.004
2.7670701 -38.972301 149.993
2.8580699 -38.910599 150.002
2.4023399 -38.970901 149.981
2.5776401 -38.915699 150
2.2355399 -38.9034 149.98199
2.1428599 -42.014599 158.131
1.88691 -42.041599 158.20399
1.57112 -41.9743 158.164
1.6141599 -42.1049 158.425
2.3466899 -41.972599 158.08501
2.1073 -41.820099 157.899
2.1241701 -41.927299 158.00301
2.20626 -42.114399 158.472
2.17256 -42.077999 158.286
2.48493 -41.723999 157.78799
2.45368 -41.614399 157.69501
2.3117099 -41.782101 157.842
2.5094099 -41.830799 157.89799
2.65398 -41.649502 157.729
2.25914 -41.586899 157.703
2.5357399 -41.405102 157.534
1.859 -41.844898 157.97099
2.08164 -41.7132 157.823
3.9258399 -41.868 151.772
3.7172501 -41.894299 151.823
3.8147399 -41.882198 151.793
3.9744599 -42.038898 151.903
3.94994 -41.950699 151.826
3.87591 -41.710201 151.69299
3.90137 -41.790901 151.729
3.82953 -41.566898 151.64
3.85093 -41.635201 151.664
3.78197 -41.3904 151.59801
3.8071101 -41.489899 151.618
3.60603 -41.622299 151.70599
3.71013 -41.591499 151.668
3.4428799 -41.647301 151.804
3.4581599 -41.747898 151.855
3.4519 -41.699299 151.826
3.5172701 -41.645 151.756
3.4300699 -41.555302 151.784
3.43504 -41.598801 151.78999
3.32921 -41.612202 151.87399
3.37644 -41.632999 151.84801
2.96857 -41.394299 152.069
3.04177 -41.380402 151.983
3.0050001 -41.389999 152.02299
2.87942 -41.292198 152.08
2.9001501 -41.393501 152.179
2.9310701 -41.3936 152.119
3.1108601 -41.532299 152.02699
3.0413401 -41.466999 152.05
3.7242801 -41.163101 151.573
3.75542 -41.2743 151.58501
3.62709 -41.375401 151.638
3.6838701 -41.387699 151.623
3.4809899 -41.200199 151.765
3.5076499 -41.269901 151.711
3.49331 -41.2332 151.737
3.4698 -41.0867 151.774
3.4814799 -41.1502 151.765
3.4561901 -41.1311 151.85201
3.46579 -41.1642 151.80099
3.43859 -41.2799 151.79201
3.4681699 -41.242802 151.77299
3.10322 -41.172901 151.95599
2.9149301 -40.916 152.035
3.0159299 -41.064701 151.994
3.0903399 -41.261101 151.942
3.096 -41.216 151.94501
3.13884 -41.089001 152.00301
3.11251 -41.133701 151.97301
2.7597699 -40.648499 152.073
2.81354 -40.6236 152.127
2.78915 -40.634201 152.097
2.7359099 -40.495499 152.076
2.7386401 -40.558399 152.075
2.7084301 -40.700802 152.026
2.7362499 -40.674 152.05
2.8199401 -40.770401 152.063
3.4531701 -40.2953 151.437
3.59658 -40.323299 151.481
3.56457 -40.302799 151.457
3.5325601 -41.767799 151.812
3.5522599 -41.875702 151.89301
3.54124 -41.819801 151.849
3.66236 -41.748798 151.74899
3.5843799 -41.7673 151.785
3.69209 -41.8223 151.78101
3.7621601 -41.7318 151.717
3.6296401 -41.682499 151.72501
3.43817 -41.537601 157.877
3.43049 -41.730301 158.321
3.4387701 -41.637299 158.08099
3.64293 -41.4823 157.873
3.54406 -41.505199 157.868
3.41888 -41.3652 157.556
3.4321001 -41.446701 157.69701
3.2018001 -41.629101 157.894
3.32389 -41.5811 157.88499
3.38287 -41.2169 157.31799
3.58885 -41.188999 157.30299
3.4865 -41.2019 157.30701
3.37075 -41.143299 157.179
3.1933 -41.3195 157.437
3.39976 -41.293598 157.442
3.6558001 -41.0807 156.841
3.7463901 -41.068001 156.854
3.7218101 -41.1255 156.416
3.69698 -41.090199 156.651
3.47014 -41.071301 156.83501
3.5597401 -41.079201 156.834
3.60026 -41.116699 157.09399
3.62378 -41.095501 156.98199
3.77177 -41.2738 155.869
3.7459199 -41.186001 156.151
3.52526 -41.102001 156.411
3.6169801 -41.125401 156.409
3.8383701 -41.508801 155.28999
3.8050399 -41.392399 155.575
3.57779 -41.245399 155.877
3.6698101 -41.269901 155.871
3.8959899 -41.7015 154.797
3.86796 -41.6106 155.02901
3.63849 -41.469501 155.30299
3.7354901 -41.503201 155.293
3.9386899 -41.8414 154.399
3.9660201 -41.949299 154.04401
3.95384 -41.896702 154.21899
3.7425201 -41.801498 154.42599
3.83901 -41.8297 154.41
3.9193499 -41.7771 154.591
3.9864199 -42.049 153.69501
4.0036998 -42.138199 153.373
3.9950399 -42.094398 153.528
3.78579 -42.020901 153.71201
3.8827901 -42.042801 153.70399
3.97733 -41.998901 153.869
4.0187998 -42.1987 153.08701
4.0306501 -42.235802 152.828
4.02495 -42.219002 152.952
3.8193901 -42.195301 153.09801
3.91243 -42.2015 153.09399
4.0124898 -42.173 153.22701
4.0373001 -42.253502 152.63699
4.0348501 -42.247299 152.722
3.83108 -42.239601 152.84801
3.9254501 -42.2421 152.839
4.0303998 -42.2356 152.31799
4.0360398 -42.2528 152.491
4.0339999 -42.2472 152.41
4.0123801 -42.173801 152.11099
4.02354 -42.2127 152.217
3.83445 -42.240601 152.358
3.92647 -42.242802 152.338
3.99721 -42.1189 152.00101
3.76791 -42.048698 151.951
3.8666 -42.047798 151.923
3.6646399 -40.956402 151.55701
3.69192 -41.056999 151.55901
3.6191499 -41.169998 151.614
3.6456499 -41.174301 151.60201
3.6098499 -40.777599 151.55701
3.63715 -40.8657 151.556
3.5188601 -40.958401 151.633
3.57639 -40.966499 151.59399
3.55638 -40.602699 151.55299
3.58215 -40.691002 151.558
3.51316 -40.442699 151.532
3.5374701 -40.519798 151.545
3.3879399 -40.6194 151.63699
3.45976 -40.616299 151.595
3.24861 -40.371899 151.554
3.3187001 -40.3592 151.49699
3.47258 -40.373001 151.49899
3.4384401 -40.347599 151.49001
3.56355 -41.536201 151.69901
3.5861599 -41.567501 151.696
3.6270199 -41.266602 151.627
3.55567 -41.3242 151.67
3.5889399 -41.347 151.65601
3.61215 -41.467999 151.664
3.4997399 -41.469101 151.726
3.5332699 -41.514999 151.71201
2.9918301 -40.278301 151.59801
3.0887101 -40.297798 151.511
2.9430399 -40.2439 151.53101
2.8285401 -40.2253 151.799
2.9008901 -40.249401 151.698
3.0654199 -40.3391 151.69501
3.03388 -40.3125 151.64999
3.5576 -40.327202 151.48801
3.0318999 -41.008099 154.996
2.7023201 -40.695 154.976
2.8582599 -40.820999 155.01801
3.01232 -40.877899 155.269
3.32704 -41.355499 154.912
3.1912301 -41.193298 154.957
3.0889001 -41.245201 154.49899
3.0629001 -41.135101 154.73801
3.3780601 -41.533199 154.483
3.40521 -41.662201 154.08501
3.39449 -41.6026 154.28101
3.2455201 -41.401798 154.495
3.35654 -41.451801 154.692
3.56883 -41.703098 154.45599
3.4816501 -41.6306 154.468
3.08283 -41.3368 151.94299
3.0708799 -41.3559 151.953
3.3183401 -41.428299 151.84
3.2033 -41.412899 151.89799
3.0873599 -41.311401 151.939
3.34777 -41.529999 151.83299
3.33268 -41.486401 151.83701
3.45474 -41.3722 151.756
3.4010401 -41.414799 151.793
3.30743 -41.316002 151.862
3.3129001 -41.377499 151.84801
3.4712801 -41.422001 151.742
3.4896901 -41.323299 151.728
3.4469099 -41.325001 151.77299
3.5274999 -41.298401 151.69
3.5056 -41.122101 151.702
3.51385 -41.199799 151.702
3.49123 -40.388802 151.51199
3.3165901 -40.472801 151.617
3.4035499 -40.4664 151.567
3.28352 -40.415798 151.597
3.20524 -40.437 151.714
3.24895 -40.4562 151.677
3.35026 -40.541599 151.633
3.45275 -40.792301 151.63699
3.5186901 -40.790401 151.597
3.42173 -40.706699 151.63901
3.3654201 -40.775799 151.73801
3.3973 -40.781502 151.688
3.4871399 -40.875 151.633
3.2843101 -40.616299 151.75
3.3267701 -40.6936 151.744
3.32515 -40.763699 151.855
3.34391 -40.767502 151.79201
3.44858 -40.949501 151.715
3.4023499 -40.857399 151.729
3.2445199 -40.6054 151.896
3.2859499 -40.684399 151.877
3.3545899 -40.744301 151.98801
3.3258801 -40.758598 151.92101
3.4095299 -40.927399 151.815
3.3635499 -40.843899 151.83299
3.2865701 -40.588699 152.02901
3.3217399 -40.6684 152.008
3.4161999 -40.710499 152.077
3.4175601 -40.900902 151.91901
3.38521 -40.817501 151.95799
2.75144 -40.1633 151.729
2.7983301 -40.179401 151.575
2.5418401 -40.0485 151.776
2.64625 -40.1203 151.875
2.6449001 -40.1157 151.832
2.7028201 -40.1348 151.71001
3.8015001 -42.119598 153.38499
3.89663 -42.134602 153.38
3.1615801 -41.625599 153.05
3.14626 -41.618099 153.013
3.2232201 -41.759102 152.911
3.6991899 -41.661701 154.815
3.79515 -41.692101 154.80299
3.7683101 -41.9133 154.06799
3.8657999 -41.938599 154.05499
3.0432601 -41.533699 152.138
3.07236 -41.530899 152.082
3.2507901 -41.640301 151.967
3.18082 -41.588699 151.99899
3.1984999 -41.523201 151.933
3.15241 -41.5289 151.978
3.2647099 -41.5723 151.905
3.1300001 -41.4645 151.959
3.2039199 -41.838799 152.567
3.2775199 -41.892799 152.735
3.2402101 -41.869099 152.651
3.4068201 -42.050201 152.493
3.3011301 -41.945499 152.532
3.1617999 -41.7808 152.392
3.1763699 -41.808201 152.48
3.0273299 -41.619499 152.631
3.11359 -41.726799 152.60201
3.16751 -41.718399 152.22
3.16114 -41.7505 152.306
3.3684499 -41.8811 152.12601
3.2622001 -41.797501 152.179
3.19401 -41.671299 152.078
3.17853 -41.691299 152.14301
3.0047901 -41.559299 152.282
3.0826099 -41.638199 152.255
3.37129 -41.7911 151.989
3.2773299 -41.731201 152.039
3.21661 -41.652 152.02299
3.11747 -41.603901 152.11
3.37831 -41.7183 151.903
3.3194699 -41.6842 151.935
3.2904999 -41.628101 151.91901
3.31218 -41.550598 151.862
3.37517 -41.754101 151.94
3.36924 -41.832298 152.052
3.46608 -41.837898 151.938
3.41943 -41.952702 153.10699
3.4008701 -41.9562 152.992
2.9577401 -41.311798 153.129
2.94013 -41.307201 153.08099
2.99719 -41.3153 153.26601
2.97523 -41.314201 153.179
2.77969 -40.999599 153.339
2.88638 -41.1465 153.311
3.0527799 -41.369301 153.498
3.0234599 -41.332699 153.37801
3.20544 -41.653 153.181
3.1092701 -41.496399 153.21899
2.77334 -41.007301 153.54601
2.8991101 -41.16 153.53101
3.1022 -41.4123 153.754
3.08305 -41.4016 153.61301
3.25052 -41.6567 153.43401
3.1919999 -41.5718 153.45599
2.7793901 -40.272202 151.989
2.7212 -40.234699 151.937
2.7539999 -40.259998 151.96201
2.7504499 -40.3069 152.00999
2.7643299 -40.2883 151.99899
2.81516 -40.271599 152.05099
2.79965 -40.276901 152.01801
2.8124299 -40.264198 151.955
2.7943399 -40.2672 151.97099
2.7851601 -40.3022 152.061
2.80037 -40.285801 152.056
2.8334401 -40.266399 152.11
2.82727 -40.27 152.08
2.85026 -40.264599 152.03
2.83022 -40.267101 152.04201
2.8059499 -40.2966 152.11301
2.81583 -40.2854 152.112
2.8297601 -40.242699 152.151
2.86901 -40.246899 152.09801
2.85077 -40.250198 152.105
2.8797801 -40.2686 151.84
2.9598501 -40.293999 151.778
2.86287 -40.253399 151.821
2.8954501 -40.2882 151.90401
2.8864501 -40.279202 151.86501
2.9746001 -40.264999 152.071
2.9988301 -40.2061 152.138
2.7788 -40.372398 152.12199
2.7785101 -40.3307 152.17999
2.7736499 -40.4944 152.12801
2.77036 -40.474201 152.189
2.8192899 -40.616798 152.185
3.2753899 -41.256401 165.339
3.28897 -41.479198 164.90199
3.7904501 -41.370499 164.922
3.5553701 -41.422401 164.91701
3.35992 -41.7757 164.20399
3.32757 -41.645802 164.54601
2.7574999 -41.554901 164.88499
2.9778299 -41.536999 164.896
3.80215 -41.680199 164.211
3.59326 -41.726799 164.207
3.4101901 -41.971699 163.47301
3.3865499 -41.878399 163.86301
2.87918 -41.8489 164.19901
3.10322 -41.818501 164.2
3.4381199 -42.071499 162.81599
3.42646 -42.033901 163.101
3.84881 -41.984001 162.82201
3.64505 -42.028999 162.81799
3.4563799 -42.126999 162.31
3.4474599 -42.099899 162.571
2.98844 -42.147598 162.813
3.2206099 -42.1087 162.81599
3.8724501 -41.347401 164.923
3.8031099 -41.550999 164.55
3.95506 -41.646198 164.209
3.82585 -41.880299 163.479
3.8117099 -41.793201 163.869
3.8399701 -41.943401 163.106
3.86573 -42.041 162.323
3.8575201 -42.013302 162.58
3.8984699 -42.082901 161.24001
3.8819599 -42.0783 161.765
3.8916099 -42.0872 161.487
3.9072101 -42.053001 160.826
3.9045401 -42.07 161.02
3.507 -42.165401 161.237
3.70683 -42.128502 161.237
3.91097 -42.008701 160.45799
3.9084699 -42.030201 160.64101
3.5457499 -42.132599 160.823
3.7297299 -42.094101 160.823
3.9111099 -41.958199 160.062
3.9110301 -41.985199 160.265
3.5829101 -42.082001 160.46201
3.7488599 -42.0462 160.46001
3.9033501 -41.8643 159.483
3.9102199 -41.919701 159.812
3.6166799 -42.022202 160.071
3.7646699 -41.991798 160.06799
3.88781 -41.742401 158.847
3.89555 -41.799599 159.14101
3.6402299 -41.926201 159.48399
3.77321 -41.896702 159.483
3.8654301 -41.609901 158.339
3.8789599 -41.686199 158.584
3.65171 -41.804901 158.84599
3.7704301 -41.773201 158.84599
3.8357999 -41.437801 157.894
3.85074 -41.5266 158.10899
3.6506701 -41.666302 158.33
3.75807 -41.635799 158.334
3.8018999 -41.273102 157.556
3.8183801 -41.348701 157.70799
3.73949 -41.459599 157.88499
3.7679601 -41.156502 157.312
3.78268 -41.208801 157.42799
3.62099 -41.311298 157.53999
3.71224 -41.289902 157.548
3.76336 -41.095699 157.104
3.76122 -41.120602 157.20399
3.6828499 -41.173901 157.30701
3.7802701 -41.075699 156.995
3.6861401 -41.105 157.10001
3.8120999 -42.176102 152.14999
3.9069099 -42.178101 152.127
3.60672 -42.123299 152.213
3.7163701 -42.161098 152.17599
3.8253901 -42.215302 152.257
3.79251 -42.1231 152.045
3.36924 -41.975399 152.304
3.48751 -42.056599 152.256
3.63393 -42.193298 152.416
3.6192901 -42.161598 152.314
3.5783999 -42.005199 152.02699
3.5940599 -42.070202 152.117
3.25862 -41.876499 152.354
3.38236 -42.015701 152.399
3.36798 -41.931198 152.211
3.1075399 -41.669102 152.78999
3.0648899 -41.645 152.715
2.9279599 -41.428001 152.838
3.0193701 -41.548901 152.81599
3.1556201 -41.700001 152.85699
3.1887 -41.777802 152.76401
3.4741399 -42.105099 152.679
3.3731101 -42.002201 152.705
3.6514499 -42.2192 152.672
3.5506699 -42.164001 152.666
3.4409201 -42.083099 152.588
3.6503799 -42.2215 152.552
3.65203 -42.222401 152.595
3.84114 -42.2617 152.526
3.7497101 -42.250999 152.541
3.6468301 -42.212502 152.504
3.84025 -42.261902 152.66299
3.84181 -42.264 152.59399
3.9336801 -42.263 152.50999
3.8392 -42.256401 152.45
4.0371699 -42.255001 152.564
2.8636301 -41.4123 152.66701
2.8919899 -41.419899 152.756
2.72755 -41.184101 152.871
2.8329599 -41.309101 152.854
2.9706199 -41.445499 152.912
3.0582399 -41.4711 153.088
3.1779101 -41.636002 153.09399
2.99173 -41.5867 152.455
3.0736001 -41.680698 152.42799
3.4087801 -42.014 152.791
3.6477699 -42.192402 152.85899
3.6480501 -42.2076 152.758
3.7476499 -42.248699 152.67101
3.8366799 -42.254398 152.746
3.9348099 -42.2631 152.651
3.46068 -41.333401 155.34399
3.5280499 -41.557499 154.85001
3.4949601 -41.4505 155.082
3.2692499 -41.128399 155.412
3.3708 -41.243198 155.37399
3.41752 -41.154099 155.896
3.4354701 -41.2365 155.619
3.54775 -41.408901 155.321
3.2476799 -40.996899 155.929
3.33618 -41.086498 155.91
3.3654201 -41.015598 156.416
3.39325 -41.077999 156.164
3.4958501 -41.2071 155.88499
3.2007101 -40.8913 156.408
3.28493 -40.959202 156.414
3.2955301 -41.021099 156.842
3.33165 -41.001301 156.64101
3.44223 -41.063702 156.41499
3.1139901 -40.899399 156.80499
3.20558 -40.967999 156.83099
3.1776099 -41.125599 157.17101
3.2581201 -41.073502 157.03
3.3878 -41.056999 156.841
3.6150501 -41.945499 153.713
3.6974199 -41.988899 153.716
3.6354101 -42.058498 153.38
3.6244299 -42.0033 153.539
3.4119599 -41.7719 153.718
3.52443 -41.8811 153.71201
3.59712 -41.828701 154.08
3.60693 -41.885899 153.896
3.6467099 -42.1395 153.09801
3.6427 -42.104099 153.23599
3.73364 -42.1758 153.099
3.64729 -42.167999 152.97099
3.5425999 -42.070999 153.10001
3.7414701 -42.224098 152.856
3.5372601 -42.116402 152.864
3.7404101 -42.226101 152.383
3.52019 -42.135502 152.45599
3.2674601 -41.139198 157.179
2.99896 -41.033501 157.117
3.08799 -41.092499 157.15601
3.0329199 -41.321701 157.416
3.1041 -41.204899 157.295
3.67469 -42.036499 151.987
3.56408 -41.936699 151.953
3.47525 -41.947498 152.076
3.6321299 -41.893002 151.85699
2.97277 -41.464699 152.16
3.02037 -41.5434 152.203
2.8136201 -41.305099 152.189
2.7333 -41.180401 152.13499
3.74155 -41.966099 151.877
3.4276299 -40.9403 151.763
3.4830999 -41.038502 151.70799
3.4762399 -40.956799 151.672
3.48613 -41.105701 151.737
3.5660901 -41.152401 151.644
3.5325301 -41.137402 151.67
3.2141399 -40.504299 151.76401
3.2397399 -40.5476 151.758
3.20559 -40.4753 151.754
3.1701701 -40.475101 151.925
3.1760399 -40.4865 151.845
3.0655701 -40.357399 151.815
3.15295 -40.4063 151.758
2.7128 -40.169102 151.87601
2.7606699 -40.2178 151.894
2.7324901 -40.185799 151.881
2.7281301 -40.167999 151.83299
2.6893899 -40.1493 151.877
2.57008 -40.795502 153.222
2.5838399 -40.778301 153.28799
2.75776 -41.011501 153.21001
2.66522 -40.8932 153.233
2.5729499 -40.0858 151.879
2.4492099 -40.0229 151.875
2.4746301 -40.059299 151.911
2.6388299 -40.170898 151.91299
2.6460199 -40.138 151.89999
2.78901 -40.2201 151.85899
2.7353001 -40.2188 151.92
2.7864599 -40.248798 151.923
3.8250501 -42.219601 152.967
3.8119199 -42.1614 153.23801
3.2976 -41.797501 153.134
3.4223299 -41.877602 153.39301
3.4259601 -41.927799 153.244
2.5663199 -40.844898 153.14799
2.74406 -41.017502 153.15401
2.6542201 -40.904499 153.18201
3.0018899 -41.597698 152.54401
2.9444301 -41.512001 152.655
2.52004 -41.0191 152.808
2.6834199 -41.2192 152.679
2.5848501 -41.121498 152.69299
2.9323499 -41.485001 152.306
2.9934101 -41.577499 152.367
2.83588 -41.097 152.021
2.80866 -41.128502 152.045
2.7902801 -40.193001 151.77
2.5746 -40.137402 151.91
2.6306901 -40.2127 151.92599
2.6832199 -40.199799 151.92101
2.6800001 -40.7244 152.011
2.87989 -41.0177 152.00999
2.7764201 -40.8433 152.028
2.6786499 -40.591801 152.019
2.70592 -40.504501 152.04201
2.69329 -40.508202 152.03101
2.6626101 -40.446499 151.998
2.72207 -40.375198 152.022
2.7033 -40.379101 152.004
2.6979001 -40.289501 151.968
2.68507 -40.325401 151.97701
2.7102301 -40.259399 151.955
3.3267901 -40.6124 151.69099
3.5474999 -41.058201 151.63499
3.5987501 -41.164299 151.62399
3.23158 -41.664299 153.299
2.5763299 -40.773499 153.45799
2.5508499 -40.781101 153.666
2.66661 -40.888699 153.556
2.41874 -42.2892 161.23599
1.97939 -42.295898 161.25101
1.56889 -42.278599 161.036
1.47585 -42.291901 161.77499
1.51262 -42.2966 161.508
2.4479599 -42.163502 160.067
2.07762 -42.177799 160.056
1.7044801 -42.139301 159.78999
1.65625 -42.197102 160.28799
3.07582 -42.226299 161.237
2.7962 -42.2603 161.235
2.4026999 -42.262402 160.83299
2.41676 -42.276402 161.028
2.3698599 -42.295799 161.74899
2.3943999 -42.2971 161.481
2.9763801 -42.119301 160.09599
2.76086 -42.140301 160.089
2.58042 -42.0966 159.504
2.48964 -42.134998 159.80499
2.4103799 -42.2216 160.476
2.4221301 -42.193901 160.29201
3.2983799 -42.196999 161.23801
3.1530001 -42.193401 160.826
3.1066401 -42.2173 161.015
3.0378399 -42.2337 161.74899
3.0557401 -42.2332 161.481
3.2957699 -42.0756 160.084
3.46222 -42.048599 160.078
3.34847 -41.982399 159.494
3.32406 -42.036701 159.83
3.1305301 -42.0984 160.091
3.2374001 -42.140499 160.47099
3.2665701 -42.108002 160.284
1.9536 -42.142899 158.53101
2.2541399 -42.112801 158.94501
2.2399499 -42.124199 158.69099
2.4138701 -42.075802 158.423
2.55586 -40.5956 154.912
2.4433 -40.592999 154.621
2.76859 -40.930599 154.476
2.61852 -40.795799 154.45
2.4805701 -40.7215 154.22301
3.11043 -41.362202 154.091
3.10601 -41.318001 154.28101
2.92589 -41.078499 154.493
3.0372601 -40.7691 155.76801
3.1543601 -40.977299 155.466
3.0557001 -40.742599 156.201
3.1532099 -40.8866 155.955
2.9937201 -40.718399 156.60001
3.11531 -40.811199 156.40601
2.89081 -40.809502 156.92599
3.02562 -40.824402 156.785
2.7860701 -41.424 157.507
2.9835801 -41.438 157.53101
2.8726699 -41.452702 157.53101
2.8635001 -41.2659 157.366
2.7020199 -41.358601 157.468
3.0587299 -40.956501 156.976
2.9121799 -40.966702 157.08501
2.93297 -41.134998 157.23801
3.1617701 -40.876999 156.62
3.2333701 -40.940701 156.174
3.2557001 -41.0452 155.67599
3.29632 -41.237598 155.153
3.5511701 -41.634998 154.647
3.65238 -41.756802 154.44299
3.5845499 -41.767899 154.267
3.4078 -41.715801 153.89999
3.4129 -41.818501 153.548
3.2711599 -41.615799 153.731
3.45083 -41.1087 157.075
3.4539299 -41.089901 156.985
3.49827 -41.076801 156.64101
3.5520799 -41.158298 156.15401
3.60567 -41.352699 155.588
3.6707499 -41.576599 155.04201
3.75683 -41.859798 154.246
3.72246 -41.733101 154.614
3.7932601 -42.070702 153.54201
3.7789199 -41.966599 153.88901
2.9553199 -41.7076 157.883
3.0745299 -41.6731 157.894
3.1633799 -41.815701 158.319
3.1956401 -41.722698 158.086
3.1928101 -41.451199 157.60699
3.1974499 -41.535198 157.737
2.7040801 -42.034901 158.896
2.6501501 -42.069199 159.19701
3.0877399 -41.944 158.869
2.90909 -41.986 158.87
2.7488201 -42.010799 158.62
2.4800601 -42.0811 158.914
3.3940599 -41.8699 158.85699
3.4144499 -41.810001 158.58099
3.2493701 -41.906799 158.86301
3.3729401 -41.9254 159.153
3.5276301 -41.8368 158.85001
2.17785 -42.129101 159.483
1.99985 -42.1315 159.498
1.67946 -42.1157 159.258
1.9930201 -42.130699 158.98
1.66722 -42.1423 158.783
3.5416801 -41.696602 158.32401
3.30739 -41.765701 158.314
2.78859 -41.048901 153.776
2.9300101 -41.199501 153.772
3.1092801 -41.391899 153.91701
2.52246 -40.776798 153.90601
2.6602199 -40.902901 153.78101
2.99248 -41.1702 151.976
2.8968799 -40.966801 152.02
2.8591499 -41.062401 152.007
3.2128 -41.3158 151.897
3.4468 -41.010101 151.793
3.4606199 -41.044899 151.856
3.4595799 -41.064499 151.817
3.40889 -40.914001 151.866
2.9719901 -40.320999 151.866
3.0885 -40.357201 151.968
3.06461 -40.368198 151.895
3.0768199 -40.349499 151.746
2.85953 -40.257301 152.062
2.9340701 -40.286098 151.995
2.8813601 -40.270699 152.013
2.8368001 -40.269798 151.993
2.75333 -40.373001 152.06599
2.7376101 -40.435501 152.06799
2.76757 -40.3745 152.095
2.77231 -40.324501 152.064
2.7376699 -40.373901 152.03999
2.7574699 -40.4953 152.10201
2.71826 -40.500599 152.05499
2.9646699 -40.855999 152.09399
2.93802 -40.885101 152.05499
2.9527099 -40.279999 152.033
3.0121701 -40.3153 151.981
2.91413 -40.2929 151.948
3.16575 -40.313499 152.06599
3.1326101 -40.349998 152.017
3.1377299 -40.418098 151.94099
3.2375901 -40.449001 152.05
3.19311 -40.471001 151.98801
3.20526 -40.5383 151.91
2.4851401 -40.149399 151.92799
3.06183 -40.988499 152.056
2.9787099 -40.839802 152.15199
2.87288 -40.727901 152.11099
3.30913 -41.195499 151.93201
3.2304699 -41.170101 151.959
3.16063 -41.059399 152.062
3.4179699 -41.182098 151.877
3.36866 -41.197701 151.89999
3.3099999 -41.1362 152
3.3057799 -41.2593 151.88699
3.4419601 -41.159901 151.86301
3.41469 -41.122898 151.957
3.42625 -41.233501 151.827
3.4605501 -41.092602 151.851
3.4492099 -41.0849 151.92799
3.4518499 -40.98 151.88499
3.47472 -41.007 151.92599
3.4628699 -40.870602 151.994
3.2127299 -40.367298 152.061
3.3049099 -40.412399 152.13
3.25741 -40.521702 152.04201
3.0801301 -40.292599 152.063
3.20594 -40.2346 152.145
2.8924 -40.249298 152.08701
2.77001 -40.4328 152.123
2.7951701 -40.316101 152.117
2.78443 -40.548 152.134
2.72681 -40.9034 152.017
2.9419601 -41.257099 152.005
3.4593999 -41.527802 151.76199
3.3844399 -41.3064 151.82401
2.7067201 -40.441101 152.03
2.7375801 -40.3311 152.017
2.8420601 -40.269501 151.933
3.1647899 -40.3633 151.623
3.2163 -40.336498 151.49899
2.76968 -41.011799 157.18401
2.8610899 -41.9398 158.368
3.0095401 -41.8783 158.351
2.6710401 -41.9547 158.203
2.22014 -42.1143 159.21201
3.0269001 -42.0373 159.511
2.8306799 -42.064899 159.519
2.3333299 -42.118099 159.48399
2.96611 -41.536598 157.64301
2.96649 -41.609402 157.74899
3.0768099 -41.497002 157.625
2.6870501 -42.001999 158.39101
3.1229801 -41.890202 158.57899
3.06142 -41.996498 159.17
3.50052 -41.951801 159.48801
3.1900499 -42.012402 159.50101
2.8159599 -41.745899 157.871
2.9982901 -42.0844 159.832
2.9309399 -42.181999 160.48
2.9586699 -42.1479 160.295
2.0906999 -41.386101 165.278
2.53128 -41.5751 164.88699
2.1303599 -41.739201 164.52699
2.81738 -41.724499 164.526
2.68191 -40.879902 153.355
3.5255401 -42.154202 161.015
3.4790001 -42.1628 161.755
3.4921501 -42.1698 161.483
3.6303 -41.982498 159.82001
3.5996001 -42.0536 160.27299
3.6457901 -41.860298 159.142
3.6537299 -41.7449 158.58099
3.6473601 -41.577202 158.093
3.63504 -41.387501 157.689
3.60479 -41.2439 157.41701
3.58441 -41.145302 157.19299
3.30773 -41.401299 157.58099
3.18852 -41.379398 157.513
3.5254099 -41.334099 157.54201
2.94944 -41.304699 157.396
3.10168 -41.3232 157.42599
3.51264 -41.1161 157.08501
2.7809801 -41.204399 157.33299
1.3451 -42.126598 163.14999
2.2971301 -42.2089 162.82201
1.84188 -42.2117 162.83701
1.41952 -42.2598 162.33299
1.39636 -42.221802 162.60699
2.2508099 -42.093399 163.479
2.2786601 -42.166199 163.10899
2.6951001 -42.182999 162.814
2.3287899 -42.268002 162.30099
2.3127401 -42.241199 162.56599
3.0097599 -42.201302 162.3
2.9988899 -42.175701 162.563
2.95802 -42.045898 163.47099
2.9753301 -42.106602 163.099
2.5998299 -41.870201 164.198
2.2149799 -41.988499 163.864
2.92748 -41.9538 163.85899
2.00968 -42.271099 160.83501
1.61507 -42.241001 160.657
2.8745301 -42.225101 160.811
2.71966 -42.2369 160.82899
2.40185 -42.244301 160.653
2.98946 -42.213799 160.811
2.90137 -42.2066 160.642
3.35444 -42.1674 160.825
3.20137 -42.1702 160.64999
3.5661399 -42.1082 160.64301
3.4138601 -42.113499 160.466
3.0739501 -42.1633 160.476
2.7299299 -42.1996 160.481
2.03369 -42.230598 160.479
3.3555901 -40.565201 152.11501
3.25174 -40.600399 151.961
3.25509 -40.614101 151.823
3.31493 -41.750999 153.408
3.53916 -41.991402 153.379
3.7157199 -42.093399 153.38699
2.54877 -40.937401 153.01199
2.7474 -41.0854 153.058
2.64836 -40.974499 153.078
2.5652399 -40.224701 151.93201
2.66273 -40.269798 151.948
2.7283299 -40.303101 151.989
2.7687099 -40.306 152.032
2.7981801 -40.301998 152.088
3.4361401 -41.4688 154.87801
3.6115601 -41.617802 154.83099
2.7920699 -41.035301 154.078
2.64694 -40.884399 154.069
2.94469 -41.190498 154.08701
3.2690799 -41.528702 154.09
3.5094199 -41.7589 154.08299
3.67926 -41.875702 154.077
3.53197 -41.399601 151.696
3.56849 -41.2402 151.65401
2.8403599 -41.417702 152.489
2.91519 -41.500999 152.476
2.6207399 -41.066399 152.896
2.8469999 -41.409901 152.578
2.7785299 -41.316601 152.674
2.84745 -41.417099 152.40199
2.76175 -41.326 152.49699
2.87677 -41.399502 152.245
2.85026 -41.146801 153.173
2.8039 -41.1562 153.04601
-2.3238499 -40.091202 163.44299
-2.6492901 -39.895401 162.935
-3.0053899 -39.4375 162.97701
-2.5086601 -40.1591 162.144
-2.55778 -40.090698 162.39999
-2.1277499 -40.512501 162.33299
-2.4593501 -40.217999 161.897
-2.8152299 -39.821201 161.96001
-1.50234 -40.698399 163.80701
-1.8184201 -40.687801 163.05099
-1.86904 -40.555698 163.34801
-1.7603 -40.783501 162.776
-1.6330301 -40.950298 162.00301
-1.6720901 -40.911999 162.24899
-1.06217 -41.0942 163.625
-3.4438801 -38.858101 161.34399
-3.98961 -37.7285 161.90601
-3.77933 -38.197701 162.13
-3.49616 -38.747398 162.491
-3.2522399 -39.199799 161.586
-1.5638 -41.003101 161.537
-1.59667 -40.9799 161.765
-0.79113603 -41.545601 161.717
-1.1694 -41.292999 161.644
-1.50811 -41.036499 161.105
-1.53363 -41.022099 161.315
-2.29825 -40.355801 161.228
-1.9506 -40.682499 161.392
-2.34989 -40.316002 161.437
-2.2553699 -40.3881 161.02901
-2.5811501 -40.059799 161.073
-3.41084 -38.817001 160.092
-3.0761499 -39.425098 160.64301
-3.1473501 -39.271301 160.246
-3.50319 -38.574799 159.63499
-2.79458 -39.810299 160.716
-2.23211 -40.354599 162.866
-1.88606 -40.729198 160.98199
-2.49121 -40.136398 160.683
-3.22229 -39.097599 159.81599
-2.8982 -39.6464 160.32001
-1.12125 -41.3232 161.186
-1.48902 -41.047298 160.899
-0.76701999 -41.560699 161.468
-3.2660799 -37.214298 153.155
-3.33584 -37.642399 153.914
-3.3889101 -38.211601 155.341
-3.3989501 -38.2686 155.604
-3.38269 -37.9785 154.69901
-1.79273 -40.7985 160.147
-2.3552401 -40.239899 159.867
-2.9104199 -39.523602 159.37601
-3.1975701 -38.970501 158.769
-3.33903 -38.6208 158.015
-3.40081 -38.452 157.41701
-3.4359 -38.3951 156.98599
-3.4203601 -38.418999 157.20399
-3.3038299 -36.774601 152.601
-3.4902101 -36.229 152.06599
-3.4381499 -38.341599 156.33701
-3.4412999 -38.355801 156.49899
-1.45667 -41.063999 160.49699
-2.85342 -39.0238 156.258
-2.5227001 -39.257599 156.104
-3.0671999 -38.801498 156.077
-3.2546401 -38.5928 156.304
-3.6393199 -38.0471 156.388
-3.43256 -38.324902 156.16499
2.50176 -40.260899 155.612
2.65855 -40.550201 155.23
2.6733301 -41.2276 152.58501
2.7481101 -41.0117 153.17799
2.7690001 -41.007801 153.258
2.74419 -41.0369 153.127
2.7033 -41.207001 152.776
2.777 -40.997601 153.44299
2.77881 -41.0289 153.655
2.73926 -40.824799 154.71899
2.7843499 -41.001099 154.26199
2.79057 -41.037998 153.922
2.75299 -41.153099 152.968
-5.1068201 -34.215401 156.778
-5.1690302 -34.334801 157.295
-4.59478 -33.262001 150.80099
-4.7660599 -33.022202 151.38901
-4.9876599 -33.190399 153.214
-4.92839 -32.975101 152.31599
-4.9702301 -33.8055 155.472
-5.0434499 -33.999001 156.157
-4.9431901 -33.602798 154.52699
-4.9608102 -33.485699 154.105
-2.9118099 -38.944901 155.856
-2.67767 -39.145401 155.90601
-3.23627 -38.561901 155.868
-5.0781398 -32.031898 154.153
-5.0376902 -31.717199 154.28799
-5.0495901 -31.367399 154.342
-5.0823202 -32.486698 153.994
-5.0311399 -33.049301 153.76801
-0.98038101 -38.782299 151.60699
-0.87607598 -38.8423 151.63901
1.57856 -39.8829 155.342
1.14094 -39.887501 155.22301
0.64839703 -39.9198 155.15601
0.193491 -39.933601 155.164
-0.17680199 -39.921101 155.229
-0.52192998 -39.888599 155.35001
-0.84054297 -39.842201 155.53
-1.14355 -39.787201 155.75301
-1.41541 -39.729401 156.019
-1.56475 -39.691299 156.255
-1.67393 -39.669498 156.448
-0.81947702 -41.5228 161.968
-0.43772101 -41.755501 161.758
-0.119248 -41.9133 162.05901
0.26322699 -42.068901 161.80099
0.610098 -42.1623 162.08
1.0482 -42.2509 161.79401
1.44493 -42.2841 162.05299
1.92951 -42.306599 161.757
2.3473101 -42.286301 162.02499
2.75302 -42.266602 161.748
3.02249 -42.222599 162.028
3.26635 -42.200199 161.752
3.4669499 -42.1506 162.037
3.6828101 -42.1259 161.759
3.8740001 -42.064499 162.05
-2.03739 -40.613201 161.838
-1.22824 -41.2486 162.132
-0.49012801 -41.716202 162.291
0.205653 -42.028999 162.355
0.98827398 -42.205601 162.349
1.88133 -42.277302 162.311
2.71979 -42.237 162.297
3.2411399 -42.1656 162.304
3.6619301 -42.0849 162.317
-1.4024301 -40.981998 163.201
-0.64485902 -41.4375 163.39999
0.074078001 -41.753101 163.505
0.85441399 -41.9645 163.533
1.77964 -42.084702 163.49001
2.6618099 -42.0765 163.47301
3.1905 -42.009499 163.47099
3.62204 -41.931301 163.47501
4.0079699 -41.834301 163.47701
-0.700809 -39.8606 154.62199
-1.1653 -39.82 154.81799
-0.080807 -39.8908 154.452
0.57910198 -39.926498 154.38499
-1.52407 -39.7491 155.009
3.57354 -41.188301 165.34801
3.3512101 -40.759499 166.007
2.1400299 -40.9249 165.92999
2.8929801 -41.3162 165.317
2.4932401 -41.363701 165.29601
0.16354001 -40.8204 165.636
0.72026199 -40.894199 165.752
-1.23568 -40.418098 165.03799
-0.79590601 -40.586498 165.30499
-2.2202401 -39.761002 164.61501
-4.1349401 -37.4361 162.472
-4.0906901 -37.484001 161.20399
-3.7586401 -38.207001 160.61
-4.4594002 -36.623001 161.173
-4.6243801 -36.250999 161.59801
-4.7304802 -36.033699 161.98599
-4.62848 -36.172401 160.021
-4.8063302 -35.807899 160.62601
-5.04491 -35.011002 158.448
-5.2745099 -34.4944 158.989
-4.9956002 -34.900101 157.327
-5.0718198 -34.707199 157.44501
-5.4505401 -33.758499 158.119
-5.2097602 -34.374901 157.728
-5.2976198 -34.1595 157.907
-5.3482199 -32.539299 155.23199
-5.3008199 -32.5882 155.22099
-0.235595 -39.216801 156.763
-0.28978801 -39.261299 156.72301
-0.52261698 -39.348598 156.811
-0.43426099 -39.285099 156.84599
-0.051013 -39.159698 156.711
-0.087554 -39.201801 156.66299
0.22783799 -39.0779 156.649
0.222214 -39.1073 156.59801
0.55076802 -39.001202 156.638
0.58329099 -39.021801 156.59
0.87788498 -38.937 156.677
0.94858402 -38.9422 156.63901
1.19304 -38.876999 156.70399
1.30427 -38.878502 156.666
1.41054 -38.847698 156.681
1.54768 -38.852402 156.638
1.4658999 -38.844398 156.681
1.60761 -38.855499 156.63901
1.49483 -38.8456 156.69501
1.63632 -38.859699 156.649
1.50852 -38.847698 156.703
1.64546 -38.862099 156.65199
1.4996001 -38.855099 156.729
1.63536 -38.865101 156.673
1.46391 -38.870899 156.78999
1.59594 -38.880501 156.737
1.40016 -38.892899 156.86501
1.52942 -38.902802 156.82401
1.32417 -38.9212 156.94099
1.44543 -38.931301 156.912
1.24704 -38.958801 157.026
1.35823 -38.9702 157.011
1.1683 -39.0089 157.132
1.27165 -39.0247 157.131
1.03746 -39.078201 157.26199
1.12577 -39.103001 157.27699
0.81581903 -39.1619 157.41299
0.87889898 -39.201302 157.44299
0.54900098 -39.2491 157.547
0.57987797 -39.298 157.59599
0.295432 -39.317001 157.612
0.29515901 -39.371498 157.66901
0.054320998 -39.370399 157.625
0.022709999 -39.435001 157.685
-0.184016 -39.433998 157.612
-0.245919 -39.5107 157.67
-0.37797499 -39.484798 157.56799
-0.460502 -39.569 157.61501
-0.52554703 -39.513901 157.49899
-0.62738502 -39.602001 157.534
-0.66018498 -39.516399 157.369
-0.79648697 -39.591499 157.394
-0.74003899 -39.4972 157.243
-0.88269401 -39.553299 157.259
-0.80186301 -39.476398 157.145
-0.94549102 -39.519199 157.158
-0.803684 -39.4674 157.12601
-0.94281501 -39.5117 157.144
-0.78189498 -39.458099 157.112
-0.92771101 -39.4995 157.131
-0.74545801 -39.4426 157.08299
-0.88667601 -39.488701 157.101
-0.70764601 -39.4216 157.05499
-0.84538001 -39.467098 157.063
-0.65865201 -39.3951 157.01401
-0.78962702 -39.4473 157.00999
-0.55063999 -39.334801 156.903
-0.65510303 -39.403702 156.875
-0.13181201 -39.999298 156.37199
-0.398168 -39.970798 156.491
0.12235 -39.985699 156.287
0.43342099 -39.9212 156.24699
0.78073901 -39.767101 156.29401
1.08776 -39.495899 156.44
1.37925 -39.324501 156.521
1.60224 -39.2756 156.515
1.67967 -39.282299 156.51601
1.70496 -39.3083 156.519
1.71091 -39.3256 156.521
1.7043999 -39.296001 156.54601
1.66698 -39.2995 156.601
1.6037199 -39.306099 156.681
1.52896 -39.3237 156.76401
1.45937 -39.396 156.845
1.38572 -39.520401 156.92599
1.28017 -39.703701 157.006
1.0819401 -39.9809 157.08299
0.8215 -40.195801 157.166
0.55261499 -40.291801 157.235
0.27790901 -40.334301 157.25301
0.005874 -40.337601 157.258
-0.236076 -40.3013 157.241
-0.44920701 -40.2188 157.23
-0.66698802 -40.0368 157.168
-0.799362 -39.871899 157.099
-0.89275903 -39.748199 157.021
-0.90630198 -39.7589 156.987
-0.89205998 -39.766499 156.96899
-0.8617 -39.777199 156.933
-0.80885202 -39.801399 156.877
-0.72686398 -39.8489 156.782
-0.58558202 -39.919201 156.606
-0.579781 -39.958801 156.584
-0.71789801 -39.8913 156.739
-0.78898501 -39.841099 156.83501
-0.83910298 -39.7985 156.89799
-0.87020302 -39.785999 156.936
-0.88404101 -39.781799 156.955
-0.87301302 -39.799099 156.978
-0.784096 -39.903301 157.058
-0.65493798 -40.053501 157.14101
-0.444511 -40.216599 157.192
-0.21646801 -40.3046 157.19901
0.021655001 -40.348801 157.218
0.28745499 -40.351299 157.215
0.56130898 -40.302601 157.2
0.82829398 -40.1996 157.13901
1.08189 -39.9785 157.05299
1.28058 -39.715401 156.972
1.3947901 -39.598598 156.87399
1.47335 -39.506802 156.789
1.5407 -39.440601 156.713
1.61305 -39.427601 156.634
1.67504 -39.425999 156.563
1.71004 -39.416401 156.515
1.71956 -39.417 156.495
1.71785 -39.413502 156.494
1.68705 -39.4025 156.48801
1.5980099 -39.398701 156.48599
1.38482 -39.4506 156.50101
1.10642 -39.610802 156.397
0.78745401 -39.812 156.27699
0.449527 -39.953999 156.226
0.142583 -40.033699 156.25999
-0.118923 -40.049801 156.34599
-0.38794699 -40.013302 156.463
-0.494625 -39.987701 156.521
-0.256493 -40.037899 156.40401
0.012069 -40.046902 156.299
0.29229301 -39.998001 156.242
0.61223 -39.896999 156.237
0.96089202 -39.709202 156.34399
1.24663 -39.523499 156.453
1.50626 -39.408798 156.492
1.65538 -39.401798 156.485
1.70988 -39.413601 156.491
1.72015 -39.417301 156.495
1.71725 -39.416199 156.5
1.6956199 -39.4254 156.535
1.64736 -39.427101 156.59599
1.5757 -39.431198 156.673
1.50783 -39.464802 156.75101
1.43743 -39.557999 156.828
1.34117 -39.6502 156.91901
1.18536 -39.8456 157.022
0.96136099 -40.0979 157.092
0.69379699 -40.259499 157.179
0.42954299 -40.330898 157.211
0.152043 -40.357601 157.222
-0.100269 -40.3339 157.209
-0.32978299 -40.2747 157.192
-0.55659097 -40.135502 157.175
-0.72197402 -39.977402 157.101
-0.837318 -39.845798 157.009
-0.88581699 -39.783901 156.963
-0.87794203 -39.783298 156.94501
-0.85557598 -39.789299 156.91901
-0.81804299 -39.8228 156.87
-0.757559 -39.864498 156.79601
-0.657399 -39.927299 156.659
2.8677101 -40.6562 152.69901
2.86869 -40.700802 152.43401
3.04403 -40.9482 152.379
3.0185699 -40.955502 152.64799
3.2204299 -41.071301 152.282
3.2239699 -41.070702 152.577
3.3808801 -41.060001 152.237
3.4303 -41.083 152.522
3.5074899 -40.997002 152.22099
3.5766699 -40.983101 152.502
3.5934401 -40.928799 152.215
3.6175799 -40.910702 152.507
3.6245799 -40.844299 152.23399
3.6298499 -40.851002 152.52
3.5889699 -40.709 152.319
3.6059501 -40.692501 152.562
3.53601 -40.566399 152.371
3.55303 -40.541302 152.606
3.48522 -40.438301 152.396
3.5048599 -40.416302 152.64
3.37287 -40.1716 152.438
3.40786 -40.178501 152.729
3.1440799 -39.895 152.53999
3.132 -39.695801 152.974
2.7446899 -40.423599 152.493
2.6863599 -39.984699 152.62601
2.7282 -39.854301 152.636
2.8366499 -39.827301 152.60001
3.5357201 -40.5555 152.67101
3.5747399 -40.689701 152.638
3.48948 -40.429901 152.701
2.7854099 -39.6866 153.08299
2.7511599 -39.692799 153.021
2.7084701 -39.855 152.97099
2.7230301 -39.794201 153.069
2.91609 -39.620701 153.08
2.89677 -39.6231 153.03
3.12095 -39.6852 153.036
3.38696 -40.203098 152.78
3.6017599 -40.8176 152.605
3.59147 -40.8857 152.59599
3.54301 -40.952099 152.592
3.4217601 -41.0187 152.606
3.24015 -41.0098 152.646
3.0483899 -40.8685 152.70799
2.91992 -40.657001 152.74899
2.84217 -40.3936 152.812
2.78896 -40.349602 152.76401
3.56179 -40.639099 152.353
2.97876 -39.8619 152.55701
2.7722199 -39.8251 152.62601
2.70081 -39.897499 152.638
2.7077 -40.2216 152.55499
2.7975299 -40.590801 152.44901
2.9588599 -40.8228 152.41299
3.1301501 -41.0327 152.33099
3.30284 -41.077999 152.25101
3.4484701 -41.029099 152.229
3.5654099 -40.9561 152.218
3.61271 -40.895 152.217
3.6093199 -40.7822 152.26801
3.45643 -40.367699 152.39301
3.2745199 -40.028099 152.485
3.51285 -40.501598 152.388
0.039832 -39.642601 156.476
-0.187482 -39.680099 156.543
-0.44823501 -39.694401 156.647
-0.61380899 -39.6996 156.73199
-0.74974698 -39.655701 156.89101
-0.830787 -39.634499 156.96899
-0.88147497 -39.6185 157.02499
-0.91180801 -39.6241 157.056
-0.92251402 -39.616199 157.082
-0.921323 -39.624699 157.10001
-0.84370202 -39.726101 157.168
-0.71434802 -39.836102 157.282
-0.52209502 -39.958099 157.381
-0.34354401 -39.964699 157.455
-0.102118 -39.9818 157.47701
0.160658 -39.9179 157.49699
0.44281399 -39.9049 157.46201
0.71048498 -39.784199 157.384
0.99303198 -39.638699 157.233
1.2094899 -39.4394 157.13
1.33552 -39.284901 157.024
1.41083 -39.18 156.927
1.4926 -39.139301 156.83
1.5691 -39.0966 156.75
1.63651 -39.0891 156.668
1.67298 -39.064701 156.614
1.68336 -39.064701 156.59399
1.67695 -39.062901 156.591
1.64762 -39.0536 156.58299
1.57777 -39.069099 156.576
1.3461699 -39.1035 156.59
1.02695 -39.2439 156.52901
0.68250901 -39.405499 156.448
0.33913201 -39.554401 156.424
1.63702 -39.276299 156.515
1.5252301 -39.2896 156.51801
1.19911 -39.424801 156.478
0.964396 -39.619999 156.384
0.58813697 -39.868999 156.258
0.292696 -39.952801 156.261
-0.84164202 -39.814999 157.06
-0.74848402 -39.9454 157.12601
-0.54790801 -40.131802 157.216
-0.36579001 -40.267899 157.228
-0.102885 -40.321701 157.252
0.117961 -40.343601 157.258
0.43782899 -40.313202 157.244
0.67267799 -40.2514 157.211
0.97511101 -40.074501 157.116
1.16693 -39.861 157.05901
1.41822 -39.462299 156.892
1.50412 -39.347801 156.79401
1.55645 -39.314201 156.73199
1.6451 -39.301998 156.63
1.68046 -39.2985 156.582
1.35557 -39.584301 156.955
1.3435301 -39.611301 156.942
-0.64932603 -39.886501 156.67999
-0.77643001 -39.821701 156.838
-0.82865298 -39.788502 156.899
-0.015869999 -39.992298 156.334
-0.25148299 -39.987701 156.427
-0.513596 -39.9464 156.552
3.51384 -40.664398 152.205
3.4538801 -40.5243 152.242
3.4818001 -40.592499 152.224
3.54603 -40.819401 152.10699
3.5376999 -40.737301 152.17
2.7738099 -39.967499 152.407
2.96666 -40.025299 152.32001
3.2599101 -40.116501 152.299
3.1357901 -40.0266 152.323
2.8259001 -39.969898 152.37601
2.7144699 -40.063702 152.418
2.73509 -39.996498 152.422
2.7176399 -40.3092 152.375
2.6989801 -40.1376 152.41901
2.8004301 -40.610401 152.299
2.75438 -40.4865 152.32401
2.9695599 -40.834 152.269
2.8683901 -40.7076 152.289
3.14765 -41.052898 152.188
3.3093901 -41.101799 152.118
3.4446299 -41.070702 152.08701
3.50317 -41.010799 152.063
3.53741 -40.9394 152.061
3.4059899 -40.3512 152.256
3.0612199 -40.9557 152.237
3.2254601 -41.088402 152.14
3.3863201 -41.091099 152.10201
3.46855 -41.051998 152.07401
3.51916 -40.9809 152.05499
3.5439899 -40.898701 152.07201
3.3329 -40.181499 152.291
3.4377999 -40.453201 152.25301
0.61949998 -39.906898 156.25
0.454898 -39.9664 156.239
-0.48597801 -39.9977 156.51401
-0.65311497 -39.931599 156.65401
-0.57460898 -39.968399 156.58
-0.25105 -40.0494 156.39999
-0.38077599 -40.023602 156.459
0.016019 -40.0597 156.295
-0.11433 -40.063 156.342
0.29666001 -40.011501 156.24699
0.149148 -40.0466 156.26401
0.78738302 -39.826199 156.287
0.68746299 -40.240501 157.158
0.81794298 -40.181099 157.119
0.42748001 -40.3162 157.186
0.56054801 -40.2822 157.177
0.156268 -40.345001 157.198
0.28823799 -40.341202 157.19299
-0.101137 -40.3265 157.18401
0.025472 -40.3386 157.19501
-0.334598 -40.261299 157.17
-0.222472 -40.296501 157.174
-0.54943299 -40.127201 157.147
-0.44115299 -40.203899 157.16901
-0.71323103 -39.9818 157.075
-0.64586002 -40.0495 157.114
-0.82823598 -39.860199 156.991
-0.778054 -39.917801 157.033
-0.870202 -39.797699 156.951
-0.85914701 -39.814999 156.965
-0.86546499 -39.796902 156.936
-0.86954898 -39.7962 156.94299
-0.84521002 -39.798 156.911
-0.85815102 -39.7962 156.927
-0.80666399 -39.827499 156.86
-0.82847601 -39.808201 156.89
-0.75010598 -39.869099 156.78799
-0.77921802 -39.848598 156.827
-0.71065199 -39.8951 156.731
0.95348901 -39.727798 156.349
1.247 -39.5373 156.452
1.10351 -39.629799 156.39999
1.49771 -39.432701 156.493
1.38008 -39.4762 156.50101
1.6476901 -39.429798 156.48399
1.5906399 -39.424 156.48399
1.704 -39.4492 156.487
1.68347 -39.439098 156.48399
1.71479 -39.459599 156.489
1.71395 -39.455601 156.489
1.7108001 -39.458302 156.494
1.7136101 -39.459999 156.489
1.68806 -39.4557 156.53101
1.70276 -39.456402 156.509
1.64 -39.4562 156.59
1.66803 -39.455502 156.55901
1.57183 -39.459801 156.662
1.60716 -39.457401 156.62601
1.50244 -39.490601 156.74001
1.53649 -39.467999 156.701
1.43279 -39.5704 156.81799
1.4687901 -39.528099 156.776
1.3349 -39.652802 156.916
1.38908 -39.607101 156.866
1.17541 -39.833401 157.00999
1.26511 -39.7183 156.967
0.95095801 -40.087898 157.08099
1.0688 -39.9613 157.041
3.2937 -39.033199 151.27901
0.355378 -37.869499 150.55499
0.35832599 -37.781399 150.383
0.46422899 -37.933498 150.30701
0.461622 -37.973 150.41
2.0820799 -39.1395 151.007
2.09355 -39.1119 151.30901
1.83916 -39.041199 151.319
1.87651 -39.071098 151.02901
1.56516 -38.959301 151.345
1.58267 -38.979801 151.06
1.1165 -38.829201 151.34599
1.12246 -38.807301 151.02299
0.84770399 -38.706299 151.306
0.88667798 -38.674999 151.008
0.63454503 -38.531898 151.244
0.68036699 -38.525002 150.936
0.36719301 -38.221699 151.064
0.488511 -38.2766 150.825
0.32764399 -37.998001 150.832
0.45446199 -38.105801 150.664
0.471984 -37.998699 150.465
0.36143401 -37.753799 150.312
0.46819901 -37.905899 150.21899
0.38814101 -37.711201 150.166
0.485755 -37.883598 150.117
0.44867799 -37.714199 150.04601
0.52583802 -37.857899 150.02901
0.525069 -37.763699 149.933
0.573322 -37.8936 149.965
0.64889097 -37.858799 149.791
0.685049 -37.996201 149.877
0.798733 -37.996201 149.67999
0.82074797 -38.1129 149.78
1.1258 -38.210201 149.478
1.17549 -38.3666 149.595
1.5213799 -38.324299 149.326
1.54805 -38.469002 149.44299
1.7539999 -38.322201 149.282
1.78145 -38.499699 149.405
2.0062399 -38.338799 149.276
2.03157 -38.510502 149.416
3.2207301 -39.046902 151.276
3.23475 -39.097198 150.96001
3.0325501 -39.069901 151.289
3.04686 -39.117401 150.97301
2.9272399 -39.0825 151.302
2.94488 -39.126099 150.987
2.7721 -39.111198 151.312
2.78705 -39.153599 151.00101
2.5474601 -39.153999 151.311
2.5566399 -39.192101 151.00101
2.37729 -39.173698 151.30499
2.3638201 -39.210098 150.992
2.26687 -38.345299 149.25999
2.3068399 -38.530201 149.40199
2.6347599 -38.3358 149.22701
2.68396 -38.514599 149.36
2.7898901 -38.320499 149.229
2.8408999 -38.509998 149.368
2.98996 -38.293201 149.248
3.0399899 -38.474998 149.379
0.100843 -37.566101 150.814
0.094745003 -37.424 150.53999
0.520845 -38.075699 150.215
0.52602899 -38.1091 150.272
0.53880399 -38.063599 150.11099
0.59989297 -38.182899 150.32001
0.105165 -37.748501 151.16499
-0.32205799 -36.969299 151.778
-0.32994401 -36.8326 151.384
-0.52964199 -36.401199 152.14799
-0.52440399 -36.282501 151.82001
-0.622989 -35.9781 152.136
1.46135 -34.541 149.72
1.99992 -34.792198 149.466
1.7264 -34.8717 149.44099
0.94038999 -34.5821 149.76199
1.27903 -35.0023 149.401
0.950409 -35.105 149.43401
0.71924001 -35.2411 149.556
0.61305702 -34.801498 149.84
0.065651998 -35.112598 150.425
0.33405501 -34.995602 150.105
0.238217 -35.599201 150.123
0.029989 -35.700001 150.278
-0.15753201 -35.833698 150.439
-0.201369 -35.426701 150.741
0.395836 -36.256302 153.595
-0.203853 -36.211201 153.172
0.203076 -36.560501 153.26199
-0.134482 -36.5807 152.94
0.88152301 -36.1236 153.901
0.82416898 -36.652 153.554
1.1486501 -36.609901 153.707
1.8307101 -37.2953 153.399
1.4394 -37.428398 153.229
1.88221 -38.430302 152.427
2.1372399 -38.446602 152.483
2.34479 -38.422199 152.51199
2.2788501 -37.359798 153.37601
2.6152699 -37.221199 153.459
2.63694 -38.349899 152.563
2.82847 -38.3092 152.60699
2.50419 -38.378799 152.53
1.30321 -35.503899 154.091
1.41001 -36.007 154.035
1.8715 -35.887501 154.056
1.7579 -35.352501 154.127
0.75037098 -35.6423 153.96001
0.21071699 -35.734001 153.69
-0.316093 -35.740002 153.245
-0.55808401 -35.639198 152.735
-0.53414798 -36.055302 152.64101
-0.60967898 -35.498699 152.28999
-0.53227299 -35.310501 151.88499
-0.56975502 -35.773499 151.69501
-0.39384499 -35.076302 151.442
-0.440099 -35.595699 151.237
-0.170498 -34.7985 150.96899
0.084931001 -34.4967 150.549
0.38984501 -34.283901 150.21201
0.69390202 -34.130798 150.07401
1.02558 -34.021099 150.11
1.46067 -33.930801 150.19901
2.0880001 -35.252899 154.136
2.2105801 -35.799099 154.065
1.59012 -36.520699 153.821
2.0160999 -36.436501 153.87801
0.56545901 -36.651001 153.43401
-0.415943 -36.4935 152.522
-0.46673301 -36.1553 151.33501
-0.38466799 -36.041901 150.92599
-0.260286 -35.9161 150.59599
0.39765501 -35.511902 149.979
0.58058399 -35.364799 149.733
1.51695 -34.9333 149.42
2.3610499 -36.360699 153.909
1.1121 -37.362099 153.162
0.71700299 -37.3349 152.97099
0.34541601 -37.2635 152.76199
0.044574998 -37.196602 152.53
-0.22454 -37.0802 152.15401
