# .PCD v.7 - Point Cloud Data file format
VERSION .7
FIELDS x y z
SIZE 4 4 4
TYPE F F F
COUNT 1 1 1
WIDTH 1671
HEIGHT 1
VIEWPOINT 0 0 0 1 0 0 0
POINTS 1671
DATA ascii
55.3932 -2.7103701 129.94
55.583199 -2.82283 130.05499
55.532299 -2.4942701 129.739
55.673801 -2.6286099 129.90601
55.9422 -2.65839 130.129
55.849499 -2.1368101 129.812
56.032398 -2.29917 130.032
56.5196 -2.3612399 130.304
56.444199 -2.39448 130.282
56.533699 -2.38292 130.287
56.205898 -1.98138 129.73199
56.402302 -2.2019501 129.972
56.590099 -2.5693901 130.131
56.552101 -2.5383101 130.179
56.6381 -2.5585401 130.121
56.362 -1.97219 129.599
56.5704 -2.2226501 129.849
56.806999 -2.44326 130.158
56.4879 -1.76919 129.703
56.7146 -2.0248101 129.96201
56.920799 -2.1926899 130.364
56.4296 -1.585 129.95799
56.674 -1.82424 130.218
56.774799 -2.053 130.623
56.468899 -1.78818 130.42599
55.3978 -2.5597501 129.786
55.342701 -2.3322799 129.558
55.684502 -2.36165 129.716
55.215599 -2.5272999 129.873
55.1642 -2.3921199 129.71899
54.884499 -2.23329 129.903
55.093498 -2.4221499 129.92999
54.881199 -2.1667299 129.66499
55.0783 -2.3501899 129.81799
55.618198 -2.0287099 129.534
56.1376 -1.96218 129.823
56.060101 -2.01197 129.82001
56.1586 -1.96356 129.798
55.9165 -1.8028001 129.49699
56.263401 -2.0441899 129.61099
56.215698 -2.04357 129.66
56.309799 -2.01529 129.597
56.073299 -1.7654099 129.355
56.432098 -1.88635 129.627
56.176102 -1.56625 129.453
56.4893 -1.66347 129.819
56.1161 -1.39855 129.70599
56.336498 -1.54801 130.09
55.943199 -1.40639 129.927
54.820499 -2.14007 129.705
54.896301 -2.1749101 129.621
54.945801 -2.21013 129.42999
55.120399 -2.07389 129.25101
55.479801 -1.66784 129.323
55.430302 -1.71817 129.321
55.4944 -1.66668 129.302
55.5769 -1.68748 129.179
55.6558 -1.6454901 129.104
55.7271 -1.5268101 129.118
55.7616 -1.33603 129.299
55.6511 -1.26428 129.571
54.837002 -3.6875401 131.60899
54.6996 -3.7557099 131.591
54.826801 -3.76069 131.595
54.828602 -3.71578 131.603
55.119499 -3.48031 131.592
54.977798 -3.59723 131.61
54.855499 -3.68027 131.616
55.136501 -3.61288 131.60001
55.130798 -3.5326099 131.595
55.397999 -3.1666701 131.44901
55.267399 -3.34057 131.539
55.1227 -3.4561999 131.601
55.580399 -3.3039501 131.45
55.482201 -3.23493 131.437
55.529701 -2.80249 131.22501
55.493099 -2.9814401 131.339
55.344398 -3.12222 131.46899
55.810699 -2.8117199 131.108
55.671501 -2.83583 131.158
55.4408 -2.41062 130.937
55.513699 -2.6183 131.093
55.422901 -2.75107 131.289
55.7192 -2.4335499 130.786
55.588699 -2.43819 130.847
55.1898 -2.0531099 130.617
55.322399 -2.2182901 130.772
55.3232 -2.3682401 131.02699
55.419201 -2.0964501 130.42101
55.3111 -2.0818999 130.506
55.033501 -1.9118299 130.452
55.094501 -2.0215499 130.715
54.917801 -1.81695 130.13499
54.7794 -1.74788 130.37399
54.481602 -3.83182 131.49899
54.664799 -3.8031499 131.571
54.834 -3.8663001 131.588
54.831799 -3.8166399 131.592
54.979 -3.69875 131.597
55.178299 -3.7701199 131.60699
55.152901 -3.69766 131.603
55.376301 -3.4944201 131.573
55.287899 -3.54005 131.589
55.440201 -3.57338 131.58501
55.453602 -3.42857 131.536
55.684399 -3.3752799 131.48
55.815399 -3.0673001 131.293
55.719002 -3.16834 131.36099
55.919399 -3.0845699 131.304
55.810101 -2.9574599 131.22301
55.968102 -2.7683599 131.08501
55.794899 -2.63656 130.95799
55.859001 -2.40552 130.75
55.5844 -2.24842 130.603
55.5326 -2.08125 130.35699
55.2267 -1.97533 130.22099
55.049099 -1.87612 129.91901
54.463402 -3.87201 131.46201
54.662399 -3.8843 131.545
54.836498 -3.91449 131.588
54.998299 -3.82427 131.595
55.202 -3.83442 131.627
55.362499 -3.7137101 131.60201
55.637299 -3.55983 131.569
55.948502 -3.29932 131.43201
56.144299 -2.92453 131.21899
56.1325 -2.5668399 130.94
55.878101 -2.1691201 130.51401
55.435398 -1.90406 130.09
54.433102 -3.92259 131.40401
54.4314 -3.9577301 131.384
52.745098 -2.35868 129.30299
55.001099 -3.9398899 131.64101
54.6488 -3.9606299 131.51401
54.475399 -3.8536301 131.48199
54.009998 -3.7864299 131.17799
54.249599 -3.84393 131.33299
54.452999 -3.8951399 131.437
54.212002 -3.86603 131.252
54.749599 -3.7721801 131.62399
54.024101 -3.80089 131.224
54.274799 -3.8385 131.37801
54.5131 -3.8213 131.52699
53.996899 -3.7809801 131.146
53.790501 -3.6940801 130.952
54.027302 -3.84039 131.26601
53.653 -3.69241 130.972
53.801399 -3.7472799 131.07899
54.018501 -3.79374 131.202
53.531399 -3.5924201 130.795
53.651299 -3.67661 130.946
53.653099 -3.65889 130.92
53.801899 -3.72682 131.039
53.653301 -3.6845701 130.959
53.6376 -3.7284701 130.995
51.370701 -2.3772199 128.991
51.482498 -2.5151601 129.144
51.619999 -2.6422 129.334
51.6203 -2.63607 129.323
51.837601 -3.17628 129.828
51.9011 -3.0754499 129.778
51.885601 -2.9354401 129.66499
52.224602 -3.19854 129.922
52.1021 -3.1099501 129.83501
52.356998 -3.28332 130.01199
52.700001 -3.4447701 130.224
52.4487 -3.4394 130.17
52.751202 -3.5418401 130.353
52.950901 -3.4846201 130.362
51.1478 -2.1104901 128.896
51.183701 -2.28408 128.98599
51.322601 -2.4247999 129.093
51.2808 -2.4447 129.117
51.2141 -2.4987199 129.14799
51.7215 -3.0836899 129.73
51.929401 -3.2505801 129.90199
52.511398 -3.5969501 130.31
52.212002 -3.4528699 130.11301
52.75 -3.67031 130.463
51.376499 -1.65505 128.541
51.277599 -1.8940901 128.67101
51.349701 -1.7686501 128.72301
51.3255 -1.7549 128.666
51.305599 -2.2174201 128.867
51.269901 -2.0369999 128.834
51.2728 -2.03227 128.80901
51.4189 -1.6682301 128.67799
51.2943 -1.88221 128.772
51.383202 -1.79126 128.755
51.3503 -2.3891001 129.045
51.285599 -2.22139 128.92599
51.430801 -1.79608 128.77
51.4491 -1.75012 128.771
51.450699 -1.7280101 128.787
51.391102 -1.69854 128.802
51.435699 -1.70935 128.798
51.228401 -1.8389601 128.821
51.310299 -1.7460001 128.80099
51.321999 -1.66519 128.815
51.591 -1.697 128.83
51.480701 -1.69131 128.812
51.494598 -1.75327 128.741
51.424301 -1.82267 128.772
51.519901 -1.7964799 128.76401
51.423698 -1.81751 128.774
51.0392 -1.94608 128.855
51.084099 -2.1276901 128.91499
51.035301 -2.35516 129.02299
51.2994 -1.865 128.79201
51.348999 -1.81924 128.772
51.25 -1.93726 128.806
51.265999 -1.84509 128.811
51.1576 -1.96384 128.84599
51.2104 -2.08319 128.87199
51.513802 -1.7832299 128.76401
51.598099 -2.71257 129.41499
51.7612 -2.8285201 129.55299
54.570999 -1.61844 130.22099
54.082001 -1.50526 129.879
53.431301 -1.54317 129.533
52.855701 -1.58928 129.28799
52.313801 -1.65492 129.076
52.524601 -1.54568 129.117
51.747799 -1.68896 128.869
54.932899 -1.85988 130.59801
55.176102 -2.1557701 130.90601
55.362202 -2.54528 131.20799
55.384998 -2.9027801 131.407
55.258202 -3.2923 131.573
55.026199 -3.59728 131.65601
55.9869 -1.84478 129.373
56.4594 -2.2725501 129.86501
56.652901 -2.8870201 130.36099
56.563301 -3.3132999 130.62
56.3209 -3.7363999 130.89
55.908501 -4.0418701 131.033
55.440899 -4.0995002 131.01801
54.946999 -3.95997 130.907
51.152401 -1.82572 128.83299
51.3783 -1.52074 128.812
51.158401 -1.67536 128.815
54.221401 -3.06376 130.584
52.258099 -2.31742 128.621
52.241501 -2.3445799 128.64999
52.7001 -2.32794 128.664
52.316299 -2.31145 128.61301
53.237801 -2.2476799 128.72701
52.898701 -2.14311 128.578
53.422798 -1.9747 128.60899
52.107601 -0.93435299 128.74001
53.5214 -3.9997699 131.12801
53.7714 -3.8949399 131.18201
51.5765 -2.7767401 129.472
51.5536 -2.8364899 129.513
51.443501 -2.5810399 129.257
51.616299 -2.66133 129.35899
51.467999 -2.5280199 129.188
51.318001 -2.7804899 129.394
53.9883 -4.0696301 131.431
51.343498 -2.4068799 129.07001
51.356201 -2.3785601 129.022
51.403198 -2.3841 128.94701
51.540001 -2.3933301 128.819
51.7635 -2.3979299 128.75
51.542099 -1.61856 128.832
51.6007 -1.71933 128.83099
51.624699 -1.72743 128.817
51.618401 -1.75076 128.76801
51.622799 -1.75114 128.728
51.533699 -1.63131 128.685
51.464802 -1.55731 128.577
51.4589 -1.58456 128.408
51.622898 -1.7680399 128.75999
51.547001 -1.7391 128.25301
51.7342 -1.89429 128.244
52.0947 -2.1445601 128.48599
53.251701 -3.2009799 130.076
53.117901 -3.43209 130.341
53.197701 -3.2918301 130.146
52.991798 -3.5715899 130.489
53.290699 -3.2235501 130.19501
53.528599 -3.1555099 130.375
52.624901 -2.6117401 129.782
52.7803 -2.7415299 129.46201
52.7318 -2.9326999 129.45399
52.524799 -3.0631499 129.62
52.308701 -3.1475999 129.85201
52.1464 -3.2691801 129.96899
55.9645 -3.87674 131.373
56.354698 -3.5559599 131.18201
56.6605 -3.0671599 130.81799
56.660099 -2.60373 130.51401
56.3452 -2.1430099 130.05901
55.855701 -1.79667 129.59
55.052299 -1.60904 129.05499
54.3409 -1.62541 128.68401
53.678299 -1.78782 128.571
53.144901 -2.0055301 128.57401
41.621601 -7.5767102 133.44501
41.6945 -7.5236201 133.369
41.688099 -7.58213 133.50101
41.562698 -7.6118002 133.494
41.560799 -7.5633898 133.396
41.918301 -7.2576399 133.118
41.997398 -6.9658198 132.96201
41.977901 -6.7714801 132.89
41.976601 -6.6514902 132.864
41.991798 -6.5701499 132.832
42.030102 -6.5321898 132.774
42.329498 -6.9207501 133.103
42.251598 -7.2272701 133.36501
41.925499 -7.5587702 133.73
42.026299 -7.4877701 133.645
41.796101 -5.0233002 130.321
41.770199 -5.0659099 130.276
44.520599 -7.5900302 136.05901
44.823502 -7.5462599 136.039
44.716 -7.6001601 136.10001
44.696701 -7.7431898 136.25101
44.973099 -7.7072301 136.187
44.880199 -7.7687502 136.257
44.892601 -7.9453902 136.39301
48.139198 -9.1525202 133.836
48.293201 -9.2224903 133.85001
48.518799 -9.1675196 133.735
48.3708 -9.4071903 134.00101
47.684799 -9.8057899 134.76601
47.215801 -9.8835096 135.26199
47.320499 -9.6573095 134.933
47.382198 -9.7450304 134.97301
46.599098 -9.7784796 135.78
46.528702 -9.5346403 135.739
46.564301 -9.67099 135.765
46.696201 -9.8208103 135.69901
46.501499 -9.71807 135.86
45.958 -8.9937696 136.164
45.9375 -9.1281996 136.214
46.111301 -9.42307 136.14301
45.7491 -9.1133099 136.35001
46.8339 -9.67064 135.44501
46.8876 -9.7773199 135.467
47.789799 -8.4261999 133.28999
47.878799 -8.41395 133.19501
47.879002 -8.3434801 133.026
48.060501 -8.4288197 133.09599
48.017601 -8.6211004 133.369
48.154598 -8.6241102 133.306
48.2784 -8.5745897 133.20599
48.350601 -8.6560001 133.271
44.668598 -7.36271 135.668
44.506401 -7.3971601 135.66901
44.386902 -7.4899302 135.815
44.3022 -7.41679 135.498
44.306301 -7.4302301 135.573
44.719501 -7.4372401 135.862
44.588501 -7.4781699 135.89999
47.734299 -9.5102997 134.42
47.8009 -9.6150999 134.48399
48.0779 -9.64536 134.326
44.403198 -7.3302698 135.16499
44.7136 -7.2951798 135.451
44.5341 -7.3202 135.394
44.313999 -7.39641 135.42599
47.984798 -9.3443499 134.104
48.115799 -9.4335299 134.129
45.1394 -7.9094801 136.285
45.063801 -7.9892502 136.367
45.085602 -8.2192602 136.479
45.2724 -8.52071 136.502
45.490299 -8.4157104 136.32201
45.431 -8.5400896 136.408
45.4674 -8.8116398 136.46201
45.3106 -8.1536398 136.326
45.246601 -8.2579002 136.414
45.6917 -8.7026997 136.27499
45.6478 -8.8289404 136.34399
46.2523 -9.2814903 135.97501
46.276501 -9.4329596 136.00301
46.474098 -8.0562401 133.161
46.8596 -8.1589804 133.134
46.661201 -8.1114397 133.144
46.5112 -8.1378603 133.32401
46.493801 -8.0974302 133.25301
46.159801 -7.95502 133.231
46.312 -8.0024204 133.189
46.4534 -8.0185003 133.02699
46.877499 -8.23244 133.31599
46.692299 -8.1881704 133.313
46.528198 -8.1868095 133.407
46.522598 -8.1670704 133.37601
46.196999 -8.02882 133.38699
46.3465 -8.0823698 133.35001
46.8801 -8.2688704 133.403
46.7048 -8.2311001 133.399
46.531898 -8.21696 133.455
46.530201 -8.2035599 133.43201
46.215199 -8.0884304 133.47099
46.3634 -8.1388102 133.43201
46.873001 -8.2883997 133.448
46.702099 -8.2553797 133.444
46.534901 -8.2552004 133.51801
46.5336 -8.2339602 133.48199
46.223099 -8.1186399 133.52
46.372002 -8.1685495 133.48199
46.5317 -8.3136196 133.623
46.533699 -8.2831697 133.56599
46.232601 -8.1638899 133.59399
46.3797 -8.2105799 133.55099
46.866501 -8.3165302 133.496
46.6991 -8.2876596 133.502
46.527302 -8.3544302 133.72
46.530998 -8.3426704 133.67999
46.2439 -8.2342501 133.709
46.384499 -8.2774 133.659
46.848801 -8.3621502 133.586
46.685101 -8.3406801 133.59801
46.814899 -8.3985004 133.67101
46.666302 -8.3809204 133.687
46.527199 -8.36341 133.765
46.525101 -8.3604097 133.745
46.253502 -8.2831697 133.814
46.387901 -8.3234396 133.75999
46.802101 -8.4043703 133.714
46.6609 -8.3875904 133.73399
46.544701 -8.3504295 133.8
46.533401 -8.3611603 133.784
46.2631 -8.2986898 133.86301
46.3937 -8.3357601 133.808
46.806702 -8.3845701 133.74899
46.672798 -8.3701801 133.769
46.583801 -8.31322 133.823
46.559502 -8.3346796 133.813
46.287498 -8.2922497 133.895
46.414902 -8.3269796 133.842
46.829498 -8.3430004 133.772
46.701801 -8.3299398 133.793
46.643002 -8.2607203 133.83501
46.614498 -8.2882099 133.83099
46.331001 -8.2648401 133.91901
46.460999 -8.2927504 133.86501
46.877602 -8.2772703 133.797
46.754299 -8.2730503 133.81
46.663601 -8.2349005 133.836
46.396099 -8.2217903 133.935
46.530399 -8.2450399 133.87801
46.179699 -7.9904499 133.319
45.876301 -7.8751898 133.36
46.0159 -7.9138699 133.28999
46.1222 -7.9305201 133.103
46.209202 -8.06532 133.439
45.9221 -7.93608 133.506
46.058899 -7.9807401 133.44099
46.219799 -8.1044502 133.496
45.938099 -7.9836102 133.58501
46.074402 -8.0356102 133.521
46.227402 -8.1371603 133.55099
45.9454 -8.0118399 133.63499
46.080799 -8.0671501 133.571
46.238201 -8.1965799 133.645
45.961201 -8.0598803 133.714
46.092602 -8.1153202 133.64799
46.249802 -8.2667904 133.771
45.985802 -8.1343899 133.832
46.109798 -8.1876297 133.767
46.257401 -8.2935896 133.842
46.017101 -8.1851902 133.94299
46.129902 -8.2362099 133.87601
46.2733 -8.2981501 133.88
46.035801 -8.2019501 133.992
46.1441 -8.2519302 133.925
46.306801 -8.2805901 133.909
46.0616 -8.20224 134.024
46.171398 -8.2487803 133.95799
46.363701 -8.2456398 133.929
46.1059 -8.1795902 134.049
46.213299 -8.2232904 133.983
46.4203 -8.1967802 133.937
46.1609 -8.1377201 134.064
46.269299 -8.1841097 133.99699
45.904202 -7.9064398 133.44299
45.608101 -7.78297 133.55499
45.7397 -7.8327298 133.44701
45.820099 -7.8492999 133.242
45.932899 -7.9649301 133.55499
45.665199 -7.82269 133.69299
45.792301 -7.87992 133.591
45.941399 -7.9974699 133.60899
45.687801 -7.8547802 133.77
45.809299 -7.92068 133.66901
45.952099 -8.0315304 133.66901
45.698799 -7.8789001 133.82001
45.818501 -7.9462099 133.71899
45.971699 -8.0947199 133.769
45.7234 -7.92347 133.901
45.839001 -7.9924502 133.799
46.004002 -8.1700401 133.897
45.755798 -8.0009203 134.017
45.869202 -8.0681801 133.914
46.0271 -8.1958303 133.972
45.800999 -8.0573797 134.12199
45.905701 -8.12572 134.021
46.047298 -8.20333 134.008
45.831001 -8.07306 134.17
45.931301 -8.1420202 134.07001
46.081799 -8.1937904 134.03799
45.8661 -8.07195 134.201
45.958099 -8.1453304 134.101
46.1339 -8.1602402 134.058
45.912998 -8.0482101 134.22
46.0056 -8.1240902 134.125
46.181 -8.1152096 134.065
45.9711 -8.0067797 134.23599
46.062401 -8.0818596 134.13901
45.642799 -7.8049798 133.63499
45.347599 -7.6543198 133.823
45.474899 -7.72158 133.677
45.543999 -7.7590399 133.44299
45.680901 -7.8418598 133.741
45.4286 -7.6849599 133.95399
45.5429 -7.7568898 133.814
45.6926 -7.8655901 133.793
45.469601 -7.7065902 134.03
45.574699 -7.7818098 133.89
45.7085 -7.8969002 133.854
45.491501 -7.72369 134.084
45.590801 -7.8018398 133.94099
45.7384 -7.9594002 133.95599
45.5233 -7.7652998 134.16701
45.616501 -7.8467002 134.024
45.778198 -8.0369701 134.077
45.568802 -7.8413401 134.289
45.653999 -7.9250202 134.142
45.817101 -8.0671902 134.151
45.628899 -7.8923802 134.39
45.709702 -7.9781599 134.248
45.8465 -8.0754604 134.187
45.6674 -7.9061799 134.429
45.743999 -7.9933 134.29201
45.887402 -8.0623302 134.211
45.705101 -7.9017801 134.45
45.779999 -7.9905701 134.31799
45.9431 -8.02913 134.229
45.754101 -7.87714 134.465
45.825901 -7.9674702 134.33299
45.991299 -7.9836402 134.239
45.8139 -7.8315301 134.48199
45.8881 -7.9235902 134.35201
45.3951 -7.6704798 133.897
45.114498 -7.5166702 134.173
45.226299 -7.5839 133.99001
45.269699 -7.6394501 133.716
45.453499 -7.6981802 133.99899
45.2425 -7.5471301 134.29401
45.328201 -7.6163201 134.118
45.48 -7.7143502 134.05499
45.302799 -7.5655298 134.36301
45.376598 -7.63416 134.188
45.505402 -7.7396698 134.12
45.339298 -7.57932 134.422
45.4058 -7.6487198 134.245
45.544399 -7.80056 134.22501
45.3867 -7.60917 134.507
45.445099 -7.6852698 134.33099
45.5993 -7.8769999 134.349
45.454102 -7.6630702 134.62
45.500702 -7.7541199 134.45
45.6493 -7.9014401 134.412
45.536098 -7.6979299 134.71001
45.571201 -7.8011999 134.545
45.686298 -7.9058099 134.442
45.579498 -7.7005601 134.73599
45.611599 -7.8078899 134.57899
45.725899 -7.8922701 134.45599
45.615601 -7.6896601 134.74699
45.647701 -7.80018 134.59399
45.785198 -7.8569698 134.474
45.673599 -7.65907 134.76401
45.700699 -7.7747898 134.61099
45.834202 -7.8050499 134.483
45.7416 -7.60359 134.782
45.766399 -7.72332 134.629
45.188599 -7.5345302 134.243
44.9762 -7.3814702 134.57001
45.035599 -7.4430499 134.369
45.019901 -7.49651 134.07899
45.278198 -7.5567398 134.33299
45.138802 -7.4211898 134.67101
45.180599 -7.4791799 134.481
45.321201 -7.5717702 134.392
45.216702 -7.4446998 134.726
45.250702 -7.5007501 134.54601
45.3591 -7.5915298 134.459
45.262299 -7.4601498 134.77699
45.292099 -7.51512 134.60201
45.416599 -7.6350598 134.562
45.318699 -7.4816499 134.84801
45.345402 -7.54039 134.68201
45.499901 -7.6889501 134.677
45.398201 -7.5127101 134.94
45.422798 -7.58214 134.78799
45.558998 -7.7003899 134.72501
45.4842 -7.52703 135.008
45.5098 -7.60461 134.86501
45.596401 -7.69662 134.741
45.535 -7.5238299 135.032
45.5555 -7.60039 134.88499
45.6409 -7.6774302 134.754
45.5788 -7.50559 135.041
45.598 -7.58535 134.895
45.711498 -7.6338301 134.77499
45.640999 -7.4595098 135.056
45.6567 -7.5476398 134.91
45.7603 -7.5742898 134.782
45.702499 -7.37955 135.061
45.7244 -7.48417 134.925
45.0732 -7.4030199 134.631
44.898998 -7.2817502 134.92599
44.935699 -7.3217201 134.758
44.845001 -7.3568001 134.48
45.183998 -7.4345899 134.701
45.091202 -7.33392 135.01401
45.1119 -7.3731699 134.849
45.240501 -7.4526601 134.75101
45.174198 -7.3579502 135.05099
45.194199 -7.3969798 134.897
45.287498 -7.46945 134.80901
45.222599 -7.3698301 135.08
45.241699 -7.4105802 134.939
45.355301 -7.4962001 134.892
45.281101 -7.3783898 135.121
45.2985 -7.42735 134.995
45.444698 -7.5219498 134.98199
45.3498 -7.3912601 135.17799
45.372501 -7.4492898 135.071
45.513599 -7.5250502 135.02299
45.417702 -7.4082799 135.23
45.458401 -7.4645 135.13499
45.556999 -7.5184598 135.037
45.458 -7.4049401 135.25
45.505299 -7.46069 135.158
45.607399 -7.4864898 135.048
45.488701 -7.3914199 135.25999
45.542099 -7.4461899 135.166
45.6772 -7.4216599 135.063
45.544601 -7.3400998 135.271
45.599098 -7.3973198 135.181
45.717999 -7.34304 135.05701
45.6185 -7.2266102 135.272
45.6693 -7.3044801 135.183
45.019402 -7.3101301 134.985
44.815899 -7.2510099 135.20399
44.8591 -7.2596402 135.07201
44.733398 -7.2758498 134.842
45.142399 -7.3481998 135.035
45.037998 -7.2966599 135.271
45.069401 -7.3067098 135.15601
45.200001 -7.3652201 135.065
45.124699 -7.31814 135.28101
45.152199 -7.3320599 135.17999
45.249401 -7.3745599 135.09801
45.1754 -7.3246002 135.285
45.200901 -7.3391299 135.198
45.314602 -7.38376 135.147
45.238201 -7.3288398 135.291
45.2603 -7.34341 135.22099
45.3862 -7.4025102 135.207
45.307201 -7.3387599 135.306
45.3228 -7.3509698 135.25301
45.4426 -7.40728 135.244
45.358601 -7.3513198 135.33
45.377102 -7.3659 135.293
45.472198 -7.4007902 135.257
45.388699 -7.3456302 135.345
45.412399 -7.3615398 135.315
45.5089 -7.3752298 135.265
45.408298 -7.3338499 135.353
45.434399 -7.3481898 135.323
45.585701 -7.2878599 135.274
45.457401 -7.2795601 135.35699
45.4902 -7.2938299 135.325
45.6311 -7.1835799 135.26199
45.5201 -7.1732101 135.36099
45.556499 -7.18045 135.32401
44.954399 -7.27496 135.25301
44.765202 -7.2677798 135.33
44.642601 -7.2627702 135.13
45.0914 -7.3112202 135.278
44.9715 -7.3046598 135.481
45.005199 -7.2965398 135.377
44.871399 -7.2892399 135.481
44.670898 -7.32686 135.564
45.066002 -7.3242798 135.452
45.026901 -7.31638 135.465
44.913601 -7.3424001 135.64
44.935101 -7.3213501 135.564
45.151299 -7.32303 135.282
45.0961 -7.31846 135.368
45.203701 -7.3269 135.287
45.127399 -7.3313098 135.431
45.151699 -7.3242402 135.36
45.097301 -7.3297501 135.44099
45.030602 -7.3459902 135.59399
45.042198 -7.3340302 135.528
45.203899 -7.3378301 135.401
45.162201 -7.3340101 135.418
45.103401 -7.3540702 135.552
45.111099 -7.3413701 135.496
45.2752 -7.3313298 135.29601
45.219398 -7.3297701 135.347
45.285 -7.3480101 135.381
45.2477 -7.34199 135.38699
45.204899 -7.3566799 135.481
45.196098 -7.3473902 135.44701
45.336102 -7.34835 135.31799
45.2953 -7.3414998 135.34599
45.3764 -7.3487802 135.339
45.3367 -7.3579798 135.379
45.347099 -7.3523998 135.356
45.3139 -7.3551502 135.379
45.280102 -7.3628702 135.438
45.2789 -7.3557701 135.412
45.364899 -7.3551998 135.38
45.354801 -7.3571301 135.38
45.331902 -7.3690801 135.416
45.331902 -7.36377 135.399
45.397999 -7.3407502 135.349
45.375099 -7.3494902 135.362
45.423801 -7.3171301 135.355
45.385502 -7.3439598 135.383
45.393398 -7.3386598 135.368
45.374599 -7.35116 135.382
45.358002 -7.36484 135.408
45.359901 -7.3607202 135.396
45.433498 -7.2874098 135.383
45.4058 -7.32265 135.383
45.378201 -7.3519702 135.401
45.3801 -7.3485699 135.394
45.494499 -7.2265 135.358
45.442799 -7.2840199 135.371
45.531101 -7.1385398 135.36099
45.481201 -7.1927099 135.394
45.4963 -7.1841898 135.38
45.460999 -7.2423601 135.386
45.4249 -7.2987299 135.39301
45.426998 -7.2929802 135.39
45.492699 -7.14784 135.403
45.469898 -7.2049398 135.40199
45.4729 -7.1996799 135.39999
44.812801 -7.3436799 135.66299
44.686401 -7.3987799 135.765
44.9841 -7.3433399 135.61501
44.932701 -7.3981199 135.77299
44.912899 -7.3671298 135.709
44.8349 -7.4110599 135.81799
44.764198 -7.4863801 135.952
45.060299 -7.3853898 135.705
45.006699 -7.3896599 135.735
45.028099 -7.4759498 135.916
44.972099 -7.4341302 135.84399
45.0686 -7.3520498 135.57201
45.033501 -7.36515 135.65199
45.149899 -7.3560801 135.52299
45.130501 -7.3557501 135.537
45.139099 -7.3846502 135.649
45.110298 -7.36798 135.60201
45.1003 -7.3851199 135.677
45.1698 -7.4412498 135.82001
45.106899 -7.41113 135.75999
45.202301 -7.3836899 135.595
45.1735 -7.3852701 135.621
45.252899 -7.42805 135.745
45.186501 -7.4056301 135.69701
45.254398 -7.3808098 135.53999
45.228802 -7.38165 135.56799
45.309299 -7.4209099 135.67
45.247799 -7.40131 135.633
45.167702 -7.3674598 135.55901
45.167999 -7.3558798 135.508
45.224098 -7.3666501 135.50999
45.290298 -7.38099 135.502
45.278 -7.3807101 135.51601
45.349998 -7.41817 135.601
45.294998 -7.3984098 135.57001
45.308201 -7.3674798 135.425
45.314098 -7.38169 135.47099
45.290699 -7.37075 135.45799
45.244598 -7.3597202 135.45599
45.348499 -7.3673902 135.412
45.349899 -7.3793602 135.439
45.336899 -7.37357 135.429
45.3731 -7.41784 135.54201
45.325298 -7.3976002 135.52
45.299301 -7.3814201 135.48801
45.366798 -7.37501 135.424
45.359699 -7.3762298 135.42999
45.393398 -7.40415 135.459
45.367001 -7.38767 135.448
45.330601 -7.3821902 135.45399
45.365898 -7.3610702 135.405
45.3587 -7.3687901 135.418
45.398701 -7.3310599 135.396
45.387199 -7.3605599 135.41
45.379398 -7.3559399 135.40601
45.373901 -7.3713498 135.418
45.405102 -7.39679 135.436
45.383301 -7.3835001 135.43201
45.433201 -7.3068199 135.399
45.4081 -7.3394599 135.403
45.422199 -7.3795099 135.41701
45.401501 -7.3681598 135.41499
45.450901 -7.2550402 135.395
45.4263 -7.3035798 135.396
45.4818 -7.1597099 135.412
45.4785 -7.2094002 135.40601
45.471401 -7.2076502 135.40401
45.459099 -7.2607098 135.39999
45.466599 -7.3221898 135.40601
45.447399 -7.3122802 135.403
45.490002 -7.1618299 135.41299
45.516998 -7.2163 135.411
45.493801 -7.2118802 135.409
44.928799 -7.5036602 135.978
44.894501 -7.6205201 136.117
45.1091 -7.45505 135.862
45.166401 -7.6073298 136.034
45.095402 -7.5361099 135.98
45.068001 -7.6528301 136.11301
45.052898 -7.8009 136.242
45.313 -7.5410399 135.911
45.2509 -7.5694399 135.96899
45.308998 -7.7725 136.106
45.237999 -7.68611 136.077
45.2131 -7.4327502 135.784
45.2402 -7.4833798 135.873
45.285599 -7.42342 135.70599
45.394798 -7.5066199 135.80499
45.326698 -7.4594998 135.78101
45.3582 -7.5222502 135.856
45.442799 -7.6819501 135.95
45.381401 -7.60887 135.935
45.445499 -7.4846601 135.711
45.423302 -7.49437 135.75301
45.515202 -7.61693 135.82201
45.458 -7.56004 135.81599
45.331299 -7.41925 135.634
45.380501 -7.4484301 135.696
45.466499 -7.4750099 135.64301
45.461899 -7.4745798 135.677
45.548901 -7.5728698 135.724
45.500599 -7.5258698 135.72
45.365601 -7.4181399 135.56799
45.411999 -7.4439702 135.623
45.381401 -7.4133902 135.49699
45.378601 -7.4165401 135.51801
45.4688 -7.4702501 135.57899
45.423801 -7.4422302 135.562
45.4678 -7.47404 135.60899
45.553699 -7.5517201 135.66901
45.511299 -7.5111899 135.658
45.463299 -7.4589701 135.522
45.466702 -7.46521 135.55
45.544601 -7.54036 135.601
45.5075 -7.5021 135.593
45.3461 -7.3959298 135.481
45.386101 -7.4098101 135.47701
45.423 -7.4359698 135.51199
45.399601 -7.39995 135.44701
45.459702 -7.4440498 135.47301
45.425499 -7.4233999 135.467
45.4608 -7.4513898 135.496
45.533298 -7.52001 135.535
45.499802 -7.48699 135.532
45.465698 -7.4323802 135.44099
45.461601 -7.4377599 135.455
45.524399 -7.49508 135.476
45.492298 -7.46803 135.47701
45.4109 -7.3910098 135.42599
45.4342 -7.4133701 135.439
45.440201 -7.3580399 135.41
45.4767 -7.4156499 135.42
45.446701 -7.3956699 135.418
45.469101 -7.4274402 135.431
45.5285 -7.4765301 135.438
45.497101 -7.4523602 135.44099
45.525299 -7.3527002 135.409
45.493698 -7.3933001 135.41299
45.539501 -7.4594202 135.41901
45.507702 -7.4369798 135.42101
45.4953 -7.2723398 135.405
45.4907 -7.3379998 135.407
45.530602 -7.16994 135.42
45.5849 -7.23873 135.41299
45.547798 -7.22579 135.41299
45.560398 -7.29566 135.407
45.5942 -7.3903399 135.405
45.558601 -7.3701401 135.408
45.600498 -7.1921701 135.423
45.6703 -7.26895 135.408
45.6259 -7.2537699 135.411
45.2215 -7.8353701 136.19701
45.226799 -8.0271702 136.312
45.385502 -7.7202001 136.02299
45.446999 -7.9720602 136.13
45.375702 -7.8681002 136.12199
45.378201 -8.0573997 136.228
45.402901 -8.2855396 136.32899
45.554401 -7.8433499 135.965
45.5075 -7.9003601 136.043
45.5956 -8.18433 136.13699
45.519199 -8.0769901 136.136
45.483601 -7.6486301 135.88499
45.4981 -7.7611399 135.95799
45.535099 -7.5924702 135.767
45.6129 -7.7518201 135.832
45.564899 -7.6815801 135.828
45.587799 -7.7966499 135.896
45.678101 -8.0161304 135.97099
45.613602 -7.9277701 135.97
45.6408 -7.6830502 135.73199
45.630299 -7.7118702 135.77499
45.711102 -7.9075599 135.83501
45.6604 -7.8281298 135.836
45.559799 -7.5553498 135.696
45.5951 -7.6254702 135.729
45.6399 -7.6510901 135.677
45.650799 -7.6581702 135.70599
45.732399 -7.8289399 135.73599
45.6856 -7.75279 135.73599
45.549702 -7.5464902 135.63499
45.5966 -7.6001 135.67599
45.539902 -7.5304298 135.567
45.6189 -7.6300602 135.603
45.580502 -7.58284 135.60201
45.629601 -7.6426501 135.64
45.732601 -7.78267 135.673
45.685101 -7.7122898 135.675
45.602299 -7.5977502 135.533
45.610001 -7.6148901 135.567
45.704899 -7.7460399 135.60201
45.660301 -7.6836801 135.604
45.527199 -7.5075898 135.504
45.5686 -7.55654 135.536
45.524799 -7.4842901 135.453
45.593399 -7.5602598 135.467
45.557201 -7.5258298 135.47099
45.5966 -7.5804601 135.49899
45.678101 -7.7014098 135.52901
45.638901 -7.6448898 135.53101
45.595901 -7.5338702 135.42599
45.593102 -7.54388 135.442
45.667 -7.6489401 135.45599
45.6292 -7.6026802 135.46201
45.531799 -7.47054 135.429
45.560799 -7.5040598 135.433
45.5583 -7.43647 135.41
45.610001 -7.5140901 135.41
45.5732 -7.4851599 135.41499
45.600399 -7.5265398 135.418
45.669201 -7.6071401 135.41
45.632702 -7.5683699 135.42
45.669102 -7.4426699 135.397
45.6311 -7.48915 135.40199
45.685799 -7.5857 135.392
45.647099 -7.5472698 135.40199
45.639198 -7.32722 135.401
45.631599 -7.4140501 135.40199
45.689201 -7.22577 135.42
45.7547 -7.3200302 135.40401
45.715099 -7.2888999 135.40601
45.721802 -7.3719401 135.39301
45.743301 -7.5159998 135.383
45.706699 -7.4758101 135.39101
45.7747 -7.2854199 135.41901
45.832401 -7.41084 135.405
45.793499 -7.3628998 135.40199
45.541199 -8.3021898 136.233
45.583199 -8.5508604 136.30499
45.6437 -8.08916 136.05
45.776501 -8.43892 136.12
45.679798 -8.3037395 136.136
45.735401 -8.5705605 136.19901
45.818501 -8.8477697 136.23199
45.834999 -8.2239304 135.97099
45.811298 -8.3162699 136.04201
45.995602 -8.7255697 136.037
45.883301 -8.5840502 136.091
45.698101 -7.95608 135.89999
45.750301 -8.1138201 135.972
45.721401 -7.8642702 135.78
45.837799 -8.0979404 135.82401
45.7691 -7.9959998 135.832
45.837399 -8.1525097 135.894
46.022499 -8.4835901 135.903
45.926102 -8.3530102 135.951
45.848801 -8.0115995 135.72099
45.840599 -8.0514803 135.76801
46.014801 -8.3354502 135.783
45.9216 -8.2126904 135.812
45.747398 -7.7908802 135.705
45.787399 -7.9138498 135.73199
45.847301 -7.9523101 135.65601
45.863602 -7.96737 135.688
46.008701 -8.2401199 135.68401
45.9216 -8.1214895 135.70599
45.720001 -7.7652001 135.63699
45.786499 -7.8633099 135.668
45.6894 -7.7251 135.56599
45.813499 -7.9095001 135.58701
45.7542 -7.82165 135.597
45.8321 -7.9320402 135.621
45.9986 -8.1743603 135.60899
45.914398 -8.0585203 135.63499
45.771301 -7.8491402 135.509
45.792 -7.8814101 135.55
45.9506 -8.1265898 135.539
45.876999 -8.0120497 135.567
45.6703 -7.67518 135.492
45.721901 -7.76859 135.52299
45.665298 -7.62221 135.42599
45.749699 -7.7779398 135.43201
45.705898 -7.7069602 135.44701
45.758301 -7.8150601 135.47099
45.896198 -8.0617704 135.46001
45.830101 -7.9468799 135.49001
45.749401 -7.7165699 135.37801
45.745201 -7.7371602 135.39799
45.8512 -7.9807401 135.382
45.7967 -7.8661799 135.409
45.674999 -7.5984101 135.401
45.708 -7.6547799 135.395
45.7066 -7.5606198 135.388
45.767399 -7.69066 135.364
45.7262 -7.6321802 135.381
45.757702 -7.70225 135.368
45.8424 -7.9175801 135.327
45.794201 -7.7989998 135.356
45.825001 -7.6321301 135.351
45.7859 -7.6700201 135.358
45.861698 -7.8897099 135.30901
45.811199 -7.7706699 135.34
45.7981 -7.4545398 135.39
45.783199 -7.5672498 135.371
45.849098 -7.3860502 135.422
45.930698 -7.5252299 135.384
45.8759 -7.46349 135.39799
45.883999 -7.5731602 135.36099
45.925301 -7.82476 135.30701
45.871201 -7.7165999 135.328
45.9524 -7.5032701 135.411
46.022499 -7.7442498 135.326
45.981701 -7.6124501 135.362
45.976601 -8.8642302 136.108
46.1026 -9.1362801 136.076
46.012299 -8.5990601 135.968
46.221298 -8.9879999 135.87199
46.109901 -8.8672705 135.964
46.236 -9.1283598 135.927
46.399799 -9.4233398 135.856
46.218601 -8.7294197 135.743
46.2211 -8.8496199 135.80701
46.451401 -9.2274704 135.64999
46.335602 -9.1067104 135.76401
46.018299 -8.4024496 135.845
46.116798 -8.6145802 135.834
46.009602 -8.2833099 135.731
46.2127 -8.56213 135.65199
46.113499 -8.4516897 135.729
46.217701 -8.6270599 135.69501
46.4189 -8.9500799 135.52901
46.318901 -8.8418102 135.63901
46.200699 -8.4621801 135.57201
46.2057 -8.5069599 135.61
46.396599 -8.7877703 135.45599
46.308201 -8.6777201 135.558
46.0243 -8.1812296 135.646
46.104401 -8.3526201 135.638
46.181702 -8.4028597 135.517
46.208401 -8.4058905 135.539
46.3955 -8.6704397 135.403
46.304001 -8.5693197 135.493
45.975399 -8.1511698 135.57201
46.0896 -8.2885199 135.57201
45.9235 -8.0981302 135.50101
46.112701 -8.3740797 135.44701
46.030201 -8.2500401 135.49899
46.145302 -8.3928099 135.48199
46.3825 -8.6057396 135.36501
46.281799 -8.5088301 135.44501
46.0555 -8.3303099 135.386
46.083099 -8.3541203 135.41701
46.293598 -8.5930099 135.312
46.1978 -8.4925203 135.384
45.869301 -8.0218496 135.423
45.974098 -8.1911802 135.427
45.841599 -7.9386601 135.35001
46.004101 -8.2698002 135.317
45.920898 -8.1219501 135.355
46.030102 -8.3038502 135.353
46.230099 -8.5654297 135.259
46.140701 -8.46066 135.33099
45.977699 -8.2219696 135.263
45.984798 -8.2417603 135.287
46.174301 -8.5116501 135.192
46.088001 -8.4037304 135.263
45.851299 -7.9033198 135.315
45.903702 -8.0677795 135.3
45.881599 -7.86694 135.306
45.989399 -8.1914396 135.239
45.919498 -8.0398998 135.278
45.980801 -8.2074299 135.24899
46.141899 -8.4600296 135.136
46.0578 -8.3552198 135.205
46.0406 -8.1229601 135.224
46.0075 -8.1657104 135.231
46.146702 -8.4261904 135.11099
46.066898 -8.32131 135.17999
45.975498 -7.7756801 135.315
45.976601 -7.9724998 135.269
46.055199 -7.7249699 135.356
46.117901 -8.0460997 135.23599
46.062599 -7.8886499 135.285
46.083599 -8.0797396 135.226
46.187401 -8.3590803 135.092
46.112 -8.2531004 135.162
46.152901 -8.0395203 135.257
46.2827 -8.2730103 135.106
46.1936 -8.1816902 135.166
46.493599 -9.3812704 135.702
46.6689 -9.6177998 135.604
46.432301 -9.0794296 135.59
46.701698 -9.3998203 135.379
46.578201 -9.3275299 135.519
46.615101 -9.1409702 135.28
46.652401 -9.2665701 135.32899
46.945 -9.4668398 135.09801
46.830299 -9.4433498 135.235
46.766102 -9.5374804 135.41701
46.401501 -8.8620396 135.487
46.5149 -9.0482702 135.408
46.394699 -8.7270298 135.42999
46.5644 -8.9586201 135.217
46.479599 -8.8778095 135.34
46.580502 -9.0391502 135.242
46.821999 -9.2465401 135.009
46.718102 -9.2021303 135.146
46.562 -8.8363104 135.187
46.557301 -8.8956699 135.19901
46.743099 -9.0778503 134.96001
46.651501 -9.0277395 135.092
46.41 -8.6078396 135.379
46.483002 -8.7535105 135.3
46.554501 -8.7686596 135.168
46.5811 -8.7702799 135.174
46.727699 -8.9598103 134.944
46.641102 -8.9051199 135.07001
46.3358 -8.6033201 135.34
46.470001 -8.6947699 135.27299
46.260502 -8.5815001 135.287
46.472198 -8.75632 135.13
46.385799 -8.6806402 135.22701
46.516499 -8.7650404 135.153
46.725399 -8.88486 134.935
46.637901 -8.8330402 135.056
46.399601 -8.7278204 135.082
46.433701 -8.7427502 135.106
46.638901 -8.8686399 134.905
46.554901 -8.8194304 135.022
46.2019 -8.54181 135.228
46.315399 -8.6528101 135.174
46.152802 -8.4829397 135.161
46.336498 -8.6732597 135.019
46.256199 -8.6008101 135.11
46.367401 -8.7028103 135.05099
46.561298 -8.83319 134.864
46.481098 -8.79144 134.978
46.292702 -8.6236601 134.968
46.311199 -8.6455803 134.991
46.4935 -8.77637 134.813
46.4147 -8.7322197 134.91901
46.142399 -8.4421396 135.121
46.219601 -8.5475998 135.056
46.159801 -8.3993998 135.101
46.291302 -8.5850897 134.944
46.221199 -8.5127602 135.033
46.2883 -8.6045799 134.95399
46.442001 -8.7197199 134.76601
46.366501 -8.6778803 134.869
46.331402 -8.5122604 134.92599
46.3041 -8.5562201 134.935
46.437302 -8.6809702 134.748
46.3633 -8.6394596 134.84801
46.2332 -8.3070202 135.091
46.262901 -8.44137 135.013
46.312901 -8.2613497 135.12601
46.430698 -8.4259195 134.94
46.3559 -8.3550396 135.024
46.374802 -8.4643698 134.925
46.477901 -8.60571 134.73399
46.402302 -8.5658197 134.83099
46.4641 -8.4131804 134.957
46.580002 -8.5235701 134.74899
46.502102 -8.4848499 134.84801
47.088402 -9.6799402 135.187
46.997898 -9.6800203 135.278
46.8783 -9.3516703 135.049
47.1702 -9.4629602 134.83
47.060902 -9.4707899 134.965
47.0205 -9.5758801 135.147
47.0317 -9.2767096 134.745
47.096001 -9.3678398 134.77901
47.3717 -9.4156399 134.57001
47.277302 -9.4435101 134.696
47.25 -9.5587597 134.883
46.775398 -9.1523399 134.97701
46.930199 -9.26828 134.87399
46.726799 -9.0192204 134.952
46.9319 -9.12817 134.711
46.838902 -9.11129 134.83099
46.974201 -9.19203 134.72301
47.2145 -9.2424402 134.49699
47.126598 -9.2648802 134.62
46.8927 -9.02003 134.7
46.900002 -9.0732098 134.705
47.105999 -9.1071196 134.47701
47.020901 -9.1264801 134.592
46.751301 -8.8882904 134.94099
46.811699 -8.9971399 134.81799
46.8895 -8.9373102 134.696
46.9128 -8.9521399 134.702
47.055801 -9.0093098 134.474
46.9757 -9.0246201 134.58501
46.682598 -8.8805399 134.92101
46.809299 -8.9165096 134.813
46.5975 -8.85151 134.884
46.804901 -8.9132204 134.673
46.721199 -8.8962402 134.785
46.850601 -8.9257898 134.685
47.0466 -8.9291496 134.46899
46.966499 -8.9393396 134.58099
46.723598 -8.8787003 134.64101
46.764198 -8.8978901 134.659
46.972198 -8.90905 134.448
46.888302 -8.9174604 134.558
46.526402 -8.8079796 134.841
46.640499 -8.8599596 134.75
46.462299 -8.7462502 134.786
46.645 -8.8223896 134.597
46.568699 -8.8081703 134.701
46.682301 -8.85499 134.62
46.886902 -8.8772202 134.423
46.801899 -8.8817196 134.53101
46.593102 -8.7646103 134.55499
46.616199 -8.7936897 134.573
46.8008 -8.8228302 134.38699
46.720402 -8.82897 134.491
46.436901 -8.7003403 134.755
46.517399 -8.7519798 134.66
46.4487 -8.6515999 134.741
46.587101 -8.7252197 134.543
46.512901 -8.7120399 134.646
46.586899 -8.7455597 134.548
46.7435 -8.7593403 134.35001
46.668098 -8.7690201 134.451
46.630699 -8.6519203 134.53799
46.600399 -8.6955404 134.53999
46.737301 -8.7189198 134.343
46.663502 -8.7273102 134.44299
46.524399 -8.5558205 134.735
46.553699 -8.6362896 134.63699
46.6264 -8.5135698 134.76801
46.732399 -8.5760202 134.55701
46.658501 -8.5529099 134.653
46.6763 -8.6065502 134.543
46.785801 -8.6443996 134.345
46.710602 -8.6540298 134.442
46.7799 -8.56602 134.571
46.893799 -8.5666599 134.369
46.8134 -8.5755997 134.45799
47.175098 -9.67206 135.091
47.530899 -9.5950203 134.666
47.456902 -9.6199198 134.75999
47.2873 -9.3294601 134.52499
47.548302 -9.3256302 134.311
47.460999 -9.3758001 134.44501
47.458401 -9.50809 134.619
47.152599 -9.1679296 134.483
47.374802 -9.1554003 134.258
47.298801 -9.2048101 134.37801
47.069199 -9.0573702 134.476
47.2621 -9.0311699 134.255
47.185902 -9.0755997 134.367
47.072701 -8.9427795 134.479
47.2169 -8.9309597 134.255
47.137001 -8.9791498 134.366
47.0103 -8.9198303 134.457
47.210098 -8.8692503 134.24699
47.126801 -8.9059696 134.36
46.930099 -8.8949099 134.437
47.145199 -8.8541698 134.22
47.056599 -8.8888102 134.338
46.842201 -8.8532305 134.405
47.065102 -8.8277702 134.196
46.9772 -8.8602896 134.31599
46.767601 -8.7911501 134.368
46.976398 -8.7751904 134.16299
46.888 -8.8067703 134.27901
46.7365 -8.73979 134.34599
46.915401 -8.72159 134.134
46.8237 -8.74576 134.248
46.752102 -8.6886997 134.34399
46.907001 -8.6791401 134.133
46.815201 -8.7047901 134.242
46.835999 -8.5960703 134.35201
46.953098 -8.6022997 134.145
46.864101 -8.6271095 134.24699
46.941399 -8.5613604 134.38699
47.0536 -8.5134001 134.18401
46.9701 -8.5493498 134.28101
47.605701 -9.56145 134.571
47.650002 -9.4153404 134.362
47.869701 -9.4328098 134.257
47.4562 -9.2400904 134.27499
47.729099 -9.1779003 134.03999
47.639599 -9.2587204 134.174
47.310699 -9.0861502 134.255
47.524899 -9.0110798 134.011
47.451099 -9.0884895 134.13499
47.231998 -8.9810696 134.255
47.404499 -8.8949099 134.01601
47.334599 -8.9708996 134.138
47.2304 -8.88311 134.258
47.369598 -8.7951403 134.022
47.294102 -8.8709497 134.13901
47.182098 -8.8626204 134.23199
47.3675 -8.7507496 134.021
47.2948 -8.8134203 134.132
47.106098 -8.8434601 134.21001
47.308998 -8.7437401 133.99001
47.233799 -8.8057203 134.104
47.019199 -8.8039503 134.181
47.235401 -8.7209597 133.96899
47.155499 -8.7811604 134.07899
46.942101 -8.74582 134.147
47.154999 -8.6660995 133.946
47.070599 -8.7252398 134.047
46.9058 -8.7006598 134.13
47.105598 -8.6167603 133.925
47.021801 -8.6733799 134.019
46.922001 -8.64925 134.13901
47.093399 -8.5845299 133.92799
47.009899 -8.6356497 134.021
47.001598 -8.5509005 134.162
47.1096 -8.5081501 133.948
47.042999 -8.5581703 134.036
47.0933 -8.49823 134.198
47.167 -8.42311 133.994
47.119499 -8.4738302 134.076
47.856602 -9.2612104 134.071
48.077801 -9.2506599 133.961
47.613701 -9.0918102 134.01801
47.866901 -9.0012302 133.80299
47.806702 -9.0896597 133.91701
47.4534 -8.9455996 134.01199
47.6642 -8.8367901 133.795
47.5965 -8.9268103 133.895
47.377201 -8.8468904 134.02
47.547298 -8.7034702 133.793
47.477699 -8.8002996 133.899
47.3727 -8.7632399 134.024
47.495998 -8.61693 133.795
47.436501 -8.7037497 133.901
47.3424 -8.7492199 134.005
47.4678 -8.5964203 133.804
47.430698 -8.67066 133.90401
47.272099 -8.7364902 133.981
47.4053 -8.5964899 133.799
47.366699 -8.6709204 133.88499
47.192501 -8.69662 133.959
47.3251 -8.5894499 133.797
47.290501 -8.6533203 133.875
47.123798 -8.6367798 133.931
47.246101 -8.5584898 133.793
47.212299 -8.6055803 133.86099
47.098 -8.6018801 133.925
47.203201 -8.5303898 133.79601
47.162601 -8.5678797 133.853
47.0965 -8.55408 133.935
47.187599 -8.5040503 133.802
47.149399 -8.5384302 133.85699
47.134602 -8.4577599 133.97
47.181702 -8.4337397 133.828
47.153702 -8.4664402 133.881
47.196201 -8.4022799 134.009
47.214901 -8.3357697 133.87399
47.198399 -8.37397 133.929
47.997398 -9.0806198 133.81799
48.176601 -8.9560099 133.62199
48.171001 -9.05474 133.722
47.752998 -8.9197598 133.8
47.913601 -8.8374796 133.64
47.900799 -8.91506 133.714
48.035 -8.90063 133.631
48.134201 -8.7961302 133.48599
48.160702 -8.8695698 133.547
48.337601 -9.0060396 133.618
47.728199 -8.6992798 133.649
47.811501 -8.7699499 133.647
47.892502 -8.7130899 133.539
47.9091 -8.7709303 133.584
47.5938 -8.76577 133.793
47.708599 -8.7611198 133.713
47.514198 -8.6527395 133.79201
47.614899 -8.57763 133.651
47.593201 -8.62957 133.71001
47.663399 -8.6332703 133.64999
47.727699 -8.6125898 133.57899
47.7327 -8.65028 133.606
47.544998 -8.5042105 133.657
47.577499 -8.5346899 133.651
47.620899 -8.5267 133.599
47.6213 -8.5430498 133.61501
47.483898 -8.5983601 133.799
47.534401 -8.5485601 133.714
47.487202 -8.4819403 133.67
47.516998 -8.4881201 133.66299
47.526901 -8.4503098 133.599
47.541698 -8.4759502 133.621
47.436798 -8.59762 133.80299
47.4874 -8.5288496 133.724
47.364799 -8.5942602 133.799
47.416199 -8.48738 133.685
47.416199 -8.5358601 133.733
47.4524 -8.4826603 133.67599
47.4603 -8.4257002 133.617
47.475498 -8.4501495 133.636
47.3423 -8.4929104 133.701
47.379398 -8.4919596 133.694
47.399899 -8.4254398 133.64
47.409599 -8.4520302 133.65601
47.284401 -8.5759602 133.79401
47.337898 -8.5363798 133.73801
47.2183 -8.5420704 133.795
47.276699 -8.4877901 133.72301
47.267101 -8.5178499 133.748
47.308102 -8.4926004 133.713
47.3391 -8.4395905 133.67101
47.341999 -8.4631701 133.68201
47.241501 -8.4742498 133.735
47.254501 -8.4803305 133.731
47.273899 -8.4486504 133.703
47.2766 -8.4668598 133.71001
47.194599 -8.5188999 133.798
47.2304 -8.4973001 133.756
47.182999 -8.4783201 133.81
47.2234 -8.4559097 133.745
47.213799 -8.4738102 133.76199
47.231899 -8.4671297 133.739
47.2407 -8.4448605 133.722
47.243099 -8.4584103 133.726
47.208698 -8.3930902 133.778
47.214901 -8.4331903 133.758
47.222401 -8.4329996 133.741
47.224602 -8.4436502 133.741
47.1917 -8.3811798 133.854
47.202499 -8.4064503 133.791
47.247799 -8.2995396 133.884
47.234299 -8.2916298 133.821
47.229801 -8.3021097 133.83501
47.213001 -8.3421202 133.802
47.2099 -8.3774004 133.78101
47.2104 -8.38484 133.778
47.264301 -8.2496595 133.82899
47.232899 -8.2850199 133.81799
47.2351 -8.2887802 133.81799
47.810501 -8.57372 133.464
47.901001 -8.6008997 133.42101
47.959099 -8.5569201 133.34
47.9874 -8.5893497 133.354
48.074902 -8.6905098 133.409
48.046501 -8.6526098 133.38699
47.6721 -8.5099802 133.52
47.735699 -8.5431805 133.49699
47.765701 -8.5263004 133.444
47.789101 -8.5495701 133.45399
47.852299 -8.6312904 133.493
47.829899 -8.6009703 133.478
47.659801 -8.4257402 133.409
47.720001 -8.4302101 133.36
47.670799 -8.3637505 133.26601
47.7351 -8.3949499 133.27901
47.883499 -8.4928102 133.312
47.840099 -8.4601402 133.30099
47.569599 -8.4084997 133.478
47.609798 -8.4170399 133.446
47.578899 -8.3783903 133.405
47.622799 -8.4007998 133.40401
47.717999 -8.4764299 133.424
47.689701 -8.4509296 133.41499
47.6982 -8.5521097 133.54401
47.7136 -8.5805902 133.56
47.602798 -8.4892998 133.57401
47.643902 -8.5162497 133.56
47.684502 -8.5287399 133.53101
47.768299 -8.5933504 133.52299
47.614601 -8.5124302 133.589
47.566101 -8.4709501 133.586
47.5825 -8.4588804 133.552
47.591301 -8.4701204 133.56
47.4995 -8.3695498 133.481
47.545601 -8.3930597 133.47701
47.613899 -8.4447899 133.48801
47.588799 -8.42173 133.48199
47.5359 -8.4195299 133.541
47.571201 -8.4463196 133.545
47.4842 -8.4038095 133.578
47.5075 -8.4125004 133.564
47.4319 -8.3596897 133.532
47.490299 -8.3909197 133.53799
47.5751 -8.4317503 133.51199
47.492699 -8.4347496 133.60899
47.509701 -8.4264898 133.584
47.428902 -8.4219103 133.627
47.426998 -8.3878098 133.60001
47.4454 -8.4035196 133.606
47.3722 -8.4330397 133.653
47.376499 -8.38974 133.62399
47.3895 -8.4035501 133.63
47.462799 -8.3964596 133.586
47.3041 -8.4464197 133.689
47.328701 -8.40271 133.65601
47.3353 -8.4177599 133.662
47.253502 -8.4471302 133.715
47.2584 -8.4254799 133.701
47.269402 -8.4341002 133.7
47.290798 -8.4187498 133.67999
47.2663 -8.3908195 133.63901
47.309101 -8.39709 133.64799
47.358002 -8.3948698 133.63499
47.221802 -8.4274397 133.726
47.236198 -8.4283199 133.716
47.1996 -8.4219103 133.702
47.236 -8.4219398 133.703
47.2314 -8.4412498 133.729
47.234699 -8.4344397 133.72301
47.214298 -8.4134398 133.758
47.205502 -8.4166002 133.75101
47.216499 -8.4233398 133.745
47.212399 -8.4243298 133.737
47.161999 -8.4246101 133.73399
47.200401 -8.4235201 133.733
47.196201 -8.3633299 133.787
47.199799 -8.3972597 133.767
47.1474 -8.4145403 133.754
47.184502 -8.4125299 133.754
47.215302 -8.3319702 133.80299
47.2066 -8.3696804 133.784
47.257 -8.2472897 133.823
47.212299 -8.2746496 133.819
47.226501 -8.2800703 133.819
47.1991 -8.31985 133.80701
47.137402 -8.3621597 133.786
47.173401 -8.3605003 133.787
47.231602 -8.2365904 133.82201
47.150299 -8.2743397 133.817
47.186699 -8.2720203 133.81799
47.626598 -8.3770704 133.34801
47.525902 -8.3053598 133.231
47.6012 -8.3334198 133.25301
47.7113 -8.3364401 133.14799
47.536098 -8.3744001 133.448
47.474098 -8.3319798 133.401
47.528599 -8.3542004 133.40401
47.371601 -8.2616701 133.19701
47.452099 -8.2815199 133.213
47.361698 -8.2988501 133.39
47.372101 -8.2846603 133.311
47.177101 -8.2269602 133.16299
47.2831 -8.2484303 133.18401
47.363701 -8.2313299 133.05701
47.4216 -8.3132296 133.399
47.318401 -8.3134899 133.476
47.3409 -8.3076696 133.442
47.190201 -8.2768202 133.353
47.2836 -8.2870302 133.37199
47.4692 -8.3656301 133.506
47.3992 -8.3274498 133.48599
47.447701 -8.3456898 133.48399
47.3526 -8.3599901 133.582
47.3964 -8.3578796 133.55901
47.338299 -8.3277502 133.522
47.3815 -8.3394299 133.52699
47.360699 -8.3177004 133.48399
47.2649 -8.3205004 133.507
47.292099 -8.3170996 133.494
47.173599 -8.3036604 133.444
47.259701 -8.30966 133.461
47.302601 -8.3224697 133.51601
47.204201 -8.3375597 133.54401
47.235199 -8.3268204 133.524
47.147099 -8.316 133.483
47.216702 -8.3181 133.49699
47.307098 -8.3723297 133.608
47.2794 -8.3452597 133.564
47.307098 -8.3482704 133.57001
47.3997 -8.3766699 133.59399
47.130199 -8.3762102 133.60699
47.167301 -8.3538904 133.57001
47.1007 -8.3329401 133.517
47.146599 -8.3338203 133.528
47.252399 -8.3419304 133.55701
47.228298 -8.4107904 133.673
47.2089 -8.3835297 133.62399
47.173901 -8.4267101 133.72099
47.061798 -8.4163198 133.683
47.1357 -8.4207697 133.694
47.087002 -8.4020796 133.651
47.007801 -8.3718204 133.591
47.033199 -8.4237804 133.71899
47.043999 -8.4232998 133.703
46.953602 -8.4069004 133.67
47.157398 -8.4222698 133.743
47.106499 -8.4274597 133.72701
47.140301 -8.3971004 133.767
47.024502 -8.4075203 133.74699
47.095501 -8.41471 133.752
47.028 -8.4185896 133.73399
46.929699 -8.4128599 133.709
47.032299 -8.3582096 133.778
47.0252 -8.3895998 133.75999
46.9272 -8.3940897 133.741
47.1381 -8.3187704 133.804
47.089802 -8.3620701 133.782
47.1651 -8.2404299 133.81799
47.057598 -8.2788696 133.808
47.1064 -8.2787199 133.812
47.040901 -8.3193998 133.79601
46.9459 -8.3497696 133.77
47.069599 -8.2462902 133.812
46.986401 -8.2772999 133.802
47.035099 -8.1956797 133.14301
46.8722 -8.2000504 133.241
46.832699 -8.1091805 132.989
47.052799 -8.2610703 133.332
46.880402 -8.2544098 133.369
47.043301 -8.2940397 133.42101
46.877201 -8.2789202 133.42799
47.0289 -8.3106098 133.463
46.869301 -8.3000202 133.467
47.020302 -8.3309298 133.506
46.866001 -8.3366499 133.536
46.8288 -8.3875504 133.636
46.805901 -8.4033499 133.694
46.803001 -8.39814 133.73399
46.813999 -8.3662796 133.75999
46.8545 -8.3113499 133.78799
46.893501 -8.2487402 133.799
48.492901 -8.9346399 133.51401
47.6675 -8.2656298 132.94299
44.490299 -7.2986698 134.881
48.085201 -8.5580597 133.267
48.192402 -8.4999399 133.146
47.849701 -8.5441799 133.396
47.922401 -8.52526 133.32401
47.652699 -8.4816198 133.50101
47.7005 -8.5039301 133.47701
47.742401 -8.5020103 133.433
47.6623 -8.4932299 133.507
47.639 -8.4680901 133.495
47.660198 -8.4605598 133.459
47.790001 -8.48874 133.37601
48.0005 -8.4888897 133.231
