# .PCD v.7 - Point Cloud Data file format
VERSION .7
FIELDS x y z
SIZE 4 4 4
TYPE F F F
COUNT 1 1 1
WIDTH 1637
HEIGHT 1
VIEWPOINT 0 0 0 1 0 0 0
POINTS 1637
DATA ascii
7.8916302 -50.079102 57.621399
7.5057802 -50.129601 57.536098
7.6764398 -49.638 58.067902
7.88764 -49.758499 57.976799
8.2635202 -49.672501 58.003101
8.6624899 -49.299 58.425999
8.24016 -49.430099 58.327
8.7305298 -48.984001 58.835201
9.2129898 -48.767601 58.990601
9.6815205 -48.391701 59.501099
9.0180798 -48.4785 59.4678
9.2351103 -48.557201 59.3853
10.0953 -48.073898 59.966
9.65903 -48.227699 59.866199
10.4963 -47.7887 60.2812
9.87255 -47.816799 60.407001
10.0792 -47.907501 60.298
10.4701 -47.642502 60.531898
7.4524899 -49.8615 57.861401
7.8436899 -49.48 58.222401
7.4749799 -49.474098 58.100201
8.2543001 -49.1306 58.6469
8.7976198 -48.658199 59.221401
9.2185602 -48.319698 59.696899
8.8139801 -48.336601 59.501801
9.6638498 -47.975899 60.201698
10.0858 -47.683399 60.548801
9.6918697 -47.669102 60.483501
10.1168 -47.390301 60.7337
9.7951202 -47.3223 60.692101
7.2018399 -48.254398 56.791599
7.6965399 -48.2724 56.553799
7.4384198 -48.216599 56.6539
7.20995 -48.246601 56.852001
7.76124 -48.235199 56.740002
7.4774799 -48.194199 56.858898
7.2947502 -48.178101 57.2542
7.24581 -48.231998 57.142101
7.6908202 -47.731201 57.721401
8.0371399 -47.911301 57.240101
7.7415299 -47.883301 57.380299
7.36935 -48.0882 57.372799
8.3642902 -47.592999 57.596401
8.0795498 -47.538799 57.753101
8.1291304 -48.553501 56.4044
7.9365501 -48.3876 56.465401
7.7219701 -48.2519 56.6152
7.85182 -48.127201 56.968399
7.9194798 -48.038399 57.087002
8.3811102 -48.460999 56.793598
8.1357498 -48.250198 56.863201
7.8053298 -48.194099 56.860298
7.56352 -48.0979 57.105202
8.19314 -47.7533 57.416698
8.6243296 -48.2421 57.0634
8.3459702 -48.029099 57.129501
8.5336905 -47.438599 57.773602
8.99331 -47.902699 57.399399
8.6838903 -47.708698 57.469002
9.0201302 -47.411999 57.840099
8.4125299 -48.9105 56.3699
8.2763395 -48.724899 56.366501
8.2252703 -48.5434 56.561699
8.1680298 -48.544201 56.458302
8.48557 -48.370602 56.9165
8.5713501 -48.6884 56.761398
8.2950697 -48.520401 56.677101
8.8004303 -48.084301 57.225201
8.8461199 -48.470699 57.034401
9.1849899 -47.7178 57.573601
9.2483101 -48.1017 57.373402
8.5291996 -48.941399 56.518101
8.4541903 -48.913399 56.413101
8.8247499 -48.7752 56.884201
8.6052599 -48.926601 56.6427
9.1735497 -48.4692 57.196301
7.11099 -49.042301 57.987301
6.91782 -48.652802 57.705601
7.06003 -48.3302 57.394402
8.4848299 -49.770302 56.859001
8.6047096 -49.1684 56.5672
8.3919497 -48.751499 56.525101
8.0198898 -48.358799 56.632301
8.5248499 -49.1637 56.425999
8.3968601 -49.7976 56.6703
8.2705002 -48.729099 56.306
7.9161601 -48.380901 56.412201
7.42313 -48.214401 56.6092
6.9470601 -48.350899 56.974998
6.9284101 -49.861698 57.441002
7.3808899 -50.1968 57.3097
7.8497901 -50.264801 56.964901
6.6153798 -49.288898 57.229698
6.62327 -48.755501 57.144402
6.0811901 -48.867001 54.6712
6.0938902 -48.4865 54.614799
6.2767401 -48.2103 54.502602
6.1646299 -48.925701 55.079102
6.2988501 -49.3643 54.676701
6.3976598 -49.435699 55.098
6.67733 -49.695702 54.567299
6.7879701 -49.785 55.004101
7.13346 -49.7174 54.334202
7.2573299 -49.811001 54.803001
7.5193801 -49.481098 54.1353
7.6659002 -49.5518 54.575199
7.6977701 -49.023399 54.040401
7.8287702 -49.052299 54.384399
7.6437898 -48.588501 54.078999
7.75033 -48.5872 54.386501
7.2487502 -48.226398 54.195301
7.32968 -48.2328 54.505402
6.6828799 -48.086498 54.3577
6.7435002 -48.0793 54.680401
6.3504701 -48.202202 54.827
8.3639698 -49.113098 55.921398
8.2174501 -48.678699 55.973
7.8538899 -48.322399 56.141899
7.3425798 -48.1553 56.369801
6.85531 -48.312401 56.547901
7.57234 -48.5835 53.8508
6.6516099 -48.084099 54.130199
7.1886601 -48.208698 53.9561
6.6806598 -49.673 56.4417
6.7298498 -49.743599 56.677799
6.5348601 -49.216801 56.660801
8.1140099 -49.104 55.241901
8.0126801 -48.619202 55.189899
7.6130199 -48.224602 55.304901
7.0244699 -48.0704 55.570499
6.6279202 -48.225399 55.781898
6.7861199 -49.84 57.037498
7.2080402 -50.175201 56.8297
7.14816 -50.083801 56.4967
7.0868402 -50.0247 56.282001
6.5844002 -49.582401 55.964298
6.9992199 -49.932999 55.827202
7.6986198 -50.1968 56.504398
7.59517 -50.127701 56.244301
7.4797502 -49.973099 55.652199
6.3685799 -49.0905 55.9972
6.5747399 -48.713501 56.684502
6.3938899 -48.622501 55.9473
6.1672802 -48.512699 54.997501
7.92453 -49.657501 55.436501
8.1706696 -49.785702 56.135101
6.7202201 -48.518398 56.878399
6.7484498 -48.532902 57.083
8.0339499 -50.058701 56.5354
8.0973501 -50.089401 56.747101
6.55616 -48.967999 56.943001
6.5844998 -48.997101 57.168598
6.7017999 -49.611198 57.250702
6.7430601 -49.613701 57.368099
7.51405 -50.286598 56.914398
7.6139002 -50.283699 57.158699
7.0403399 -50.0695 57.182301
7.14081 -50.058102 57.415798
7.1506701 -48.223701 56.665001
7.19064 -48.238201 56.7472
7.6459699 -48.252701 56.415901
7.6773801 -48.2673 56.504299
8.0847101 -48.528801 56.2453
8.1110497 -48.546398 56.346901
8.3904696 -48.893501 56.169601
8.4112597 -48.900002 56.305199
8.4423599 -49.4473 56.291599
8.5344801 -49.466202 56.5364
6.6246901 -49.505699 56.880402
6.5978398 -49.478401 56.624001
6.6072698 -49.495899 56.720001
6.9384899 -49.982899 56.737701
6.7477899 -49.776501 56.817699
6.6584601 -49.5886 57.097301
6.5636101 -49.2257 56.924599
6.5970702 -48.736698 56.931599
6.4743199 -48.910099 56.367199
6.5305099 -48.943001 56.681999
6.8482299 -49.869099 57.238201
7.58389 -49.227798 53.9188
7.6643 -48.786999 53.916199
7.6527901 -48.996601 53.900101
7.6904001 -49.285 54.2183
7.63063 -49.265701 54.066101
7.2847199 -49.589901 54.0107
7.4653401 -49.437901 53.953499
7.90799 -49.349602 54.876099
8.1828098 -49.412899 55.695999
8.0467997 -49.384399 55.330502
7.5998802 -49.784401 55.1035
7.7874899 -49.600201 54.9879
7.7786298 -49.314499 54.463001
7.9635801 -48.828899 54.726398
7.9640799 -49.076 54.7826
8.3192797 -49.437801 56.0061
7.82517 -49.922001 55.896999
8.0517597 -49.712002 55.8008
8.22791 -48.866901 55.582401
8.2479601 -49.112999 55.609402
8.2784204 -49.801998 56.415798
8.4787598 -49.117599 56.211201
6.9057999 -48.3358 56.775398
6.6266699 -48.454601 56.3097
6.6866102 -48.496498 56.628799
6.3442202 -48.361301 55.349499
6.18469 -48.335098 54.6866
6.2362399 -48.339802 54.9146
6.2311602 -48.771099 55.491199
6.26407 -48.556599 55.436699
6.48771 -48.402 55.8778
6.6334801 -48.097099 55.1488
6.4681201 -48.203201 55.247501
6.9652901 -48.1507 56.1362
6.7683501 -48.267399 56.2257
6.5234599 -48.679298 56.356098
6.4718699 -48.117901 54.551498
6.29848 -48.209499 54.618599
6.1428199 -48.323502 54.4445
6.16115 -48.335999 54.565498
6.0924802 -48.675999 54.801102
6.12184 -48.493599 54.756901
6.5244098 -49.391499 56.319199
6.3453202 -49.2598 55.535999
6.4454498 -49.342098 55.9958
6.8285499 -49.834499 56.1791
6.64223 -49.6297 56.255901
6.5735998 -49.445702 56.521599
6.4748998 -49.147202 56.352699
7.91153 -50.028999 56.2701
7.40903 -50.185902 56.500401
7.6374502 -50.179199 56.394402
7.87922 -49.997002 56.150501
7.9594498 -50.0499 56.3671
7.7637901 -50.2416 56.705002
7.29671 -50.0602 56.0439
7.5555301 -50.044899 55.9804
7.7210798 -49.856701 55.546902
7.4054699 -49.6684 54.421799
7.3481302 -49.6311 54.228901
6.8452601 -49.706299 54.238602
7.0705099 -49.677101 54.1078
7.13375 -49.920101 55.322601
7.3719702 -49.8922 55.217999
7.4806299 -49.7169 54.689602
6.20049 -49.1408 54.846001
6.1131501 -48.887699 54.8256
6.1382899 -48.7062 55.0485
6.0332999 -48.6422 54.4883
6.0637698 -48.6619 54.651299
6.25595 -49.002499 55.522301
6.3496399 -48.850201 55.980099
6.1191401 -49.092098 54.502701
6.4239602 -49.531502 54.449402
6.2515402 -49.335999 54.4916
6.1632299 -49.1152 54.682999
6.04287 -48.846298 54.496799
6.2555699 -49.1828 55.098801
6.6796999 -49.719601 55.482601
6.4907899 -49.508701 55.526402
6.62357 -49.660702 54.3675
6.9518299 -49.785099 54.646801
6.9023499 -49.743401 54.455399
6.8977499 -49.862801 55.4123
7.0211401 -49.837502 54.9118
7.23628 -49.996201 55.744801
7.0553198 -49.9855 56.103401
7.3450699 -50.133099 56.326698
7.3150001 -50.109001 56.2383
6.8945298 -49.908401 56.485401
7.1176 -50.058899 56.397999
7.3631701 -50.155499 56.401699
7.4449401 -50.241798 56.677502
7.1736999 -50.114498 56.615898
7.2779398 -50.207298 57.066101
6.5150099 -49.597198 54.813099
6.4732399 -49.562 54.638699
6.57762 -49.6446 55.066799
6.7750602 -49.7864 55.9049
6.8639798 -49.872101 56.3559
6.9201798 -49.939999 56.595501
6.7082801 -49.717499 56.569698
6.9719901 -50.0401 56.951599
6.4345498 -48.119598 54.314201
6.9365802 -48.118401 54.144798
6.6632099 -48.0882 54.234501
6.4184499 -48.122799 54.173599
6.4209599 -48.117001 54.2136
6.2582402 -48.202801 54.386002
6.4526901 -48.120998 54.4347
7.13937 -48.105701 54.949402
6.8533401 -48.062901 55.052799
6.5172901 -48.111099 54.755402
6.8043399 -48.113701 55.678699
7.4846601 -48.154499 55.908001
7.2035198 -48.112202 56.041
7.0830202 -48.196301 56.460899
7.44802 -48.3894 54.003601
7.2156501 -48.2192 54.064499
6.90345 -48.113701 53.981899
6.9162302 -48.111198 54.0392
6.9868698 -48.122101 54.397999
6.9609599 -48.122501 54.273998
7.3127398 -48.107899 55.428699
7.6968799 -48.397301 54.773399
7.4496198 -48.224602 54.8479
7.03229 -48.122299 54.591
7.5975399 -48.2024 56.251701
7.9738002 -48.4459 55.6884
7.76159 -48.270901 55.783001
7.6006398 -48.587101 53.954601
7.4007602 -48.387001 53.839901
7.4180598 -48.3834 53.896801
7.5262499 -48.393799 54.248001
7.48631 -48.391998 54.129398
7.84549 -48.404099 55.2248
7.87327 -48.602402 54.727901
7.5806599 -48.395302 54.436798
8.0629902 -48.487099 56.0592
8.1313601 -48.651901 55.620701
7.7602501 -48.8046 54.1702
7.7098398 -48.797401 54.048199
7.6104298 -48.7687 53.767899
7.63344 -48.7617 53.810699
8.1075296 -48.8531 55.194698
7.82692 -48.810101 54.3666
8.32658 -48.8764 55.910702
7.1719899 -48.2089 53.897598
6.6469898 -48.0844 54.0756
7.5511498 -48.575199 53.798698
7.39293 -48.2006 56.530201
7.8846798 -48.3647 56.326
8.2501898 -48.712502 56.191399
6.70223 -48.082199 54.478699
7.2803302 -48.229599 54.313702
7.69136 -48.586601 54.197201
7.7516799 -49.0397 54.177601
7.5822201 -49.5135 54.314701
7.1873999 -49.756802 54.5312
6.7214899 -49.735298 54.747299
6.33952 -49.393299 54.845001
6.07376 -48.471901 54.481499
7.5544801 -48.577499 53.744499
7.16644 -48.191601 53.838902
6.6329899 -48.066601 54.025101
6.0524602 -48.445599 54.337799
6.2033 -49.302601 54.294601
6.5696702 -49.620899 54.157001
7.0153198 -49.614399 53.892799
7.4282799 -49.387001 53.790699
7.62042 -48.9604 53.752102
6.2391701 -48.185501 54.255901
6.0114002 -48.8036 54.318298
6.3267202 -48.8167 51.3507
6.5339699 -48.835201 51.425301
6.3326502 -48.832901 51.388302
5.9932199 -48.761101 51.4021
5.9883399 -48.744099 51.365501
5.7490702 -48.597099 51.4977
5.7467899 -48.586899 51.476299
5.6918201 -48.5089 51.551701
6.5988798 -48.855598 51.533199
6.5803299 -48.8009 51.4086
6.68292 -48.795601 51.487099
6.3733401 -48.7817 51.346001
6.4229698 -48.769001 51.359001
6.7786899 -48.810902 51.6665
6.01056 -48.7103 51.382702
6.0124402 -48.690102 51.371601
5.7592702 -48.532299 51.489498
5.7389598 -48.5042 51.4967
5.6859198 -48.4706 51.5443
5.63624 -48.377998 51.701099
5.64359 -48.449402 51.693699
5.7508001 -48.5527 51.474602
6.9367399 -49.5597 53.624599
6.8385501 -49.479198 53.256199
7.2705302 -49.265999 53.217499
7.34621 -49.328999 53.524601
7.4987702 -48.841499 53.1558
7.56457 -48.914799 53.490101
7.5328002 -48.532501 53.5145
7.12673 -48.127998 53.596001
6.58255 -47.979599 53.774601
6.1642599 -48.1311 53.935299
5.98417 -48.391998 54.0285
5.9344802 -48.750301 54.019001
6.1324301 -49.2402 53.964802
6.4893298 -49.550701 53.822701
5.8316598 -48.656101 53.659698
5.7034202 -48.227299 52.808601
5.7606802 -48.571602 53.120201
5.96526 -49.046101 53.211899
6.0648499 -49.177601 53.6506
6.31533 -49.3699 53.099098
6.4131198 -49.488998 53.5107
6.7130299 -49.341999 52.792801
7.0389299 -49.046299 52.376999
7.17453 -49.177799 52.804298
7.1783199 -48.655201 52.030102
7.3853798 -48.722698 52.5849
5.5865502 -48.2696 51.973301
5.7467799 -48.451801 52.669899
5.7336602 -48.419498 51.4575
6.0208201 -48.602001 51.285599
6.4777198 -48.720501 51.302502
6.7975101 -48.789101 51.649101
5.8802099 -48.317299 53.617599
6.5797801 -48.517799 51.2612
6.1054001 -48.369801 51.244202
6.4980302 -48.217201 51.286201
5.9481201 -48.9006 52.814499
5.9552698 -47.918701 52.825699
5.8985901 -47.804298 52.093498
5.6324902 -48.102001 52.009201
6.64679 -49.185902 52.4743
6.8201199 -48.919201 52.0173
6.9116201 -48.916199 52.023701
6.3646798 -47.746799 52.755798
6.8755298 -48.160702 51.639599
6.9516802 -48.591 51.598202
7.4825001 -48.461102 53.174702
7.3487701 -48.323101 52.570301
7.1328101 -48.1646 52.034302
7.0664101 -48.026798 53.2388
6.9483099 -47.877998 52.608601
6.6816502 -47.775902 52.091999
6.5058599 -47.8699 53.411701
6.07059 -48.0453 53.532902
6.48524 -47.818298 51.701
6.2344799 -48.023201 51.359299
5.7782798 -48.176701 51.462399
5.87885 -47.9216 51.589199
6.27529 -49.172901 52.700901
6.0633898 -47.723301 51.856499
6.7452798 -48.944599 51.9781
5.7560802 -48.4827 52.521702
5.6456299 -48.4366 51.940201
6.5830898 -49.0937 52.356602
6.2698202 -49.059502 52.538601
5.9726601 -48.843498 52.640202
6.01759 -48.787998 51.503601
6.3589802 -48.858799 51.484901
6.4460201 -48.943501 51.803799
6.1139898 -48.893299 51.9021
6.3491502 -48.792 51.326698
5.8309798 -48.688099 51.974701
6.6652999 -48.892799 51.725899
5.7632599 -48.616798 51.594501
5.9918399 -48.721401 51.348999
6.5267801 -49.039501 52.143799
6.1928501 -48.979099 52.227501
5.8873301 -48.744701 52.3419
5.7025599 -48.4608 52.286201
6.8239298 -49.062302 52.268501
5.6538701 -48.325901 52.332901
5.6775699 -48.372601 52.2887
5.66327 -48.158401 52.392899
5.9075799 -47.852299 52.421398
6.25175 -47.695702 52.354099
5.8208699 -48.650902 52.7892
5.8494201 -48.659698 52.634201
6.7575498 -49.0186 52.2253
6.7095098 -49.0261 52.192501
5.6669102 -48.427399 51.605202
5.7499499 -48.513 51.508099
6.0257902 -48.703899 51.421001
6.3991299 -48.773899 51.3699
6.6391301 -48.801498 51.440498
6.5740399 -48.843102 51.470901
6.3442602 -48.844299 51.429901
6.0026498 -48.771702 51.4417
5.7549701 -48.604401 51.5326
5.67101 -48.479599 51.605801
6.3887 -48.888699 51.5961
6.05545 -48.8293 51.66
5.7905598 -48.646599 51.759602
7.51757 -49.158699 53.631001
7.5510402 -49.1875 53.7659
7.2456002 -49.5299 53.8316
6.0423298 -49.019001 54.145802
6.0776401 -49.054298 54.3125
6.7515101 -49.611099 53.8517
6.7921801 -49.656799 54.0224
6.3302898 -49.4613 54.064999
6.3734798 -49.495899 54.245602
6.8780699 -48.057598 53.8176
6.8959899 -48.092999 53.925999
7.3828802 -48.352798 53.682098
7.3965998 -48.373001 53.784302
6.3796301 -48.074501 54.0177
6.4029398 -48.105499 54.134701
7.6082401 -48.749401 53.624599
7.61731 -48.754799 53.722301
6.0896502 -48.2771 54.156898
6.1216602 -48.300201 54.310699
5.9755502 -48.580101 54.187901
6.0100598 -48.608601 54.337101
6.7520299 -48.898899 51.839802
6.7906699 -48.874001 51.8353
6.6167302 -48.950699 51.888901
6.7046599 -48.921001 51.856701
6.6894498 -48.841999 51.590599
6.7256198 -48.862701 51.698502
5.70261 -48.528198 51.561401
5.8536 -48.690498 51.4622
5.7519102 -48.600498 51.5135
5.69842 -48.5228 51.6133
5.70117 -48.525299 51.584
5.6712999 -48.464001 51.579601
5.6793499 -48.492401 51.577202
5.7027102 -48.527302 51.543999
5.6102901 -48.361801 51.807301
5.6408 -48.3606 52.128399
5.6191001 -48.350101 51.9608
5.64856 -48.379902 51.700802
5.61588 -48.342098 51.806198
5.64715 -48.422401 51.649399
5.6288099 -48.394001 51.708199
5.69309 -48.528 51.721001
5.63095 -48.4366 51.7813
5.6683798 -48.403 51.605598
5.7084599 -48.434502 51.604099
5.6716099 -48.411598 51.615799
5.8521199 -48.634899 51.407501
6.18257 -48.762699 51.339298
6.00037 -48.7159 51.361801
5.8435998 -48.656898 51.3969
5.8476 -48.641899 51.3964
5.7021298 -48.473202 51.535301
5.7542601 -48.542801 51.4809
5.86696 -48.619499 51.447899
5.8596301 -48.6259 51.426701
6.5211802 -48.795502 51.374699
6.3589802 -48.7873 51.3339
6.1637201 -48.780701 51.331299
6.1742601 -48.767799 51.3288
6.2080898 -48.753799 51.3745
6.1949 -48.758202 51.356899
6.4890499 -48.815201 51.3708
6.5114899 -48.799599 51.366001
6.5451698 -48.790298 51.393902
6.5306301 -48.7929 51.382
6.6400599 -48.827 51.4776
6.6757202 -48.824501 51.513599
6.7288799 -48.791698 51.550098
6.5427699 -48.896099 51.650501
6.62638 -48.871101 51.616501
6.4762301 -48.8461 51.436001
6.1691198 -48.814201 51.400398
6.3385301 -48.838799 51.4091
6.4658098 -48.840302 51.413601
6.6050801 -48.8242 51.444199
6.5623498 -48.8396 51.451199
6.4899402 -48.855801 51.478199
6.4833002 -48.850601 51.4562
5.9976602 -48.766201 51.420799
6.1605601 -48.802502 51.363499
6.1645002 -48.808998 51.382198
6.1808901 -48.826599 51.445999
6.1742601 -48.819599 51.4202
5.86375 -48.701801 51.5098
5.8579102 -48.695599 51.482899
5.8467102 -48.6805 51.426498
5.8497 -48.6861 51.443802
6.5030499 -48.868301 51.529499
6.20399 -48.851398 51.535801
6.37082 -48.870899 51.529499
6.4957099 -48.862 51.5037
6.51508 -48.8778 51.569401
6.3414402 -48.804199 51.331902
6.1601 -48.791801 51.345402
5.9874201 -48.7332 51.351002
5.8453999 -48.6698 51.408798
5.6968002 -48.508701 51.5313
5.7476001 -48.576099 51.470798
5.6974702 -48.484901 51.528999
5.7017202 -48.5233 51.5382
5.6826301 -48.486698 51.550499
5.88415 -48.724499 51.6059
5.7719998 -48.628601 51.657398
5.7147999 -48.5429 51.905102
5.7035499 -48.5354 51.829399
5.69381 -48.520199 51.655899
6.0717101 -48.933998 52.470901
5.9418001 -48.8116 52.511002
5.8977098 -48.742001 52.744099
5.8927598 -48.7356 52.6506
5.7871799 -48.572201 52.479599
5.8629799 -48.701801 52.533901
6.0318699 -48.803501 51.5625
5.9299798 -48.775501 51.819199
5.9054699 -48.748299 51.705898
5.8713999 -48.7104 51.546001
6.61764 -49.050701 52.205299
6.6985102 -49.0686 52.310799
6.6776299 -49.059502 52.269001
6.4070501 -49.0709 52.3335
6.5531101 -49.0695 52.259602
6.6633301 -49.0047 52.097198
6.6472101 -49.027599 52.154701
6.4675298 -49.140598 52.5247
6.4391499 -49.101299 52.449501
6.2371101 -49.027599 52.411201
6.3231101 -48.977901 51.996498
6.3696599 -49.023201 52.162399
6.1082501 -48.993301 52.693802
6.1018801 -48.964298 52.602001
5.9900198 -48.842499 52.099499
6.0281 -48.884701 52.282902
6.4610801 -48.830601 51.393501
6.5686898 -48.819698 51.421299
6.1895299 -48.8358 51.479599
6.2537398 -48.904598 51.729698
6.2263398 -48.8755 51.6236
6.8312101 -48.858398 51.829498
6.8083 -48.859699 51.835499
6.7824101 -48.973598 52.118099
6.7997899 -48.927299 52.005402
6.9801402 -48.7738 51.820499
6.8620801 -48.8465 51.822102
6.7206402 -48.680801 51.387901
6.87819 -48.729401 51.612999
7.0514698 -49.370701 53.126999
7.1113 -49.441101 53.417702
7.0801401 -49.401699 53.2575
6.9589 -49.291401 52.7845
7.0142298 -49.3395 52.984501
7.3625898 -49.011002 52.932598
7.2285299 -49.227299 53.0177
5.8277402 -47.854 51.885502
5.6820798 -48.041901 51.728298
5.7271099 -47.9576 51.792
5.74505 -47.9743 52.234699
5.7483602 -47.929901 52.060398
5.9361401 -47.769798 51.990299
6.1657801 -47.830898 51.601398
5.97122 -47.807999 51.723701
5.97753 -48.116501 51.358501
6.22721 -48.232899 51.247501
6.1297698 -48.183701 51.280201
5.8825402 -48.416 51.316898
5.9235601 -48.279598 51.3232
5.8141899 -48.048599 51.503601
6.0592999 -47.951401 51.442299
6.5643401 -48.0149 51.483398
6.3702998 -47.893101 51.5154
6.3544598 -47.701302 51.9431
6.26297 -47.751202 51.769001
6.026 -47.737 52.254002
6.0139999 -47.729198 52.115799
6.14187 -47.681999 52.018101
6.4207301 -47.696301 52.109402
6.8347902 -47.940399 51.843399
6.5904598 -47.786701 51.882099
7.0834298 -48.396301 51.817902
7.0208802 -48.1651 51.824001
7.3094501 -48.462898 52.274799
7.1958399 -48.421299 52.0238
7.0770502 -48.631302 51.824001
6.78021 -48.363602 51.389999
6.9525499 -48.370701 51.603298
7.06357 -48.809299 51.998901
6.2611599 -48.568501 51.2285
6.5334802 -48.637501 51.270199
6.7800102 -48.551102 51.370602
6.6251001 -48.779701 51.443401
6.6525202 -48.753101 51.421398
5.6212702 -48.333199 51.801701
5.6038699 -48.236099 51.778301
5.60291 -48.298302 51.796799
5.66365 -48.387699 51.601002
5.6307302 -48.3228 52.144199
5.6063299 -48.306499 51.967899
6.2035398 -48.723 51.3055
6.22542 -48.658798 51.272099
6.04527 -48.507198 51.256401
6.2976398 -48.450001 51.211899
6.8183098 -48.9795 52.136101
6.8470101 -48.927799 52.018902
6.7719102 -48.808102 51.6688
7.2228198 -48.9016 52.420101
7.1528401 -48.8494 52.213299
6.9391298 -49.023602 52.258202
6.9821801 -48.974098 52.195801
7.3036399 -48.954899 52.668301
7.4799099 -48.589699 52.868698
7.4500299 -48.783001 52.881001
7.4486198 -49.101002 53.362801
7.4092102 -49.061699 53.180199
6.0086498 -48.217899 53.8204
6.052 -48.249699 53.9935
6.3111 -47.986099 53.701401
6.12115 -48.095501 53.766899
5.8667302 -48.1189 53.2043
5.9499102 -48.175499 53.576698
5.89257 -48.521599 53.868
5.9418101 -48.358799 53.855099
6.1956 -47.860699 53.139599
6.0012598 -47.980099 53.1768
5.7768202 -48.037399 52.5952
5.8023901 -48.072498 52.838001
5.78613 -48.254902 53.237
6.3889899 -48.101799 51.323502
6.29458 -48.326099 51.233002
6.8169899 -49.179298 52.4557
6.4847398 -49.2952 52.735901
6.6702199 -49.259201 52.607399
6.7582998 -49.132599 52.369301
6.8993001 -49.077499 52.332298
6.8899698 -49.231201 52.5998
7.3877101 -49.358799 53.661499
7.1905398 -49.497799 53.685398
5.7465701 -48.507198 52.8839
5.75528 -48.517399 53.327702
5.7175102 -48.407398 53.008301
5.6708498 -48.304199 52.541698
5.7038698 -48.353298 52.755501
5.9665999 -48.968899 53.849701
5.8907199 -48.719398 53.862999
5.9356799 -48.554798 54.0322
5.8358698 -48.471298 53.643799
6.26296 -49.4053 53.7607
6.0989799 -49.215401 53.820202
6.0053902 -48.996498 53.999298
5.8734899 -48.8778 53.446701
5.9211798 -48.933899 53.673302
5.8422799 -48.7882 52.985802
5.8653102 -48.767101 52.818199
6.09549 -49.1418 52.917801
5.93893 -48.9618 52.967701
5.83777 -48.821098 53.204899
5.7890801 -48.637299 52.943699
6.6248598 -49.122898 52.421299
6.4700398 -49.2201 52.6068
6.2909999 -49.0994 52.6269
6.2752299 -49.258701 52.846699
6.5633602 -49.464901 53.185501
6.5211601 -49.3909 52.967201
6.6624899 -49.561699 53.570599
6.4520001 -49.525902 53.676102
6.6135702 -49.5191 53.394901
6.8879199 -49.527401 53.4758
6.7108698 -49.5891 53.721001
6.0924401 -49.058201 52.7677
5.97578 -48.854599 52.737701
6.1826801 -49.3172 53.395401
6.1313701 -49.248402 53.1745
6.2301002 -49.368401 53.595798
6.2969298 -49.429798 53.9053
5.7459002 -48.309898 51.443001
5.6061101 -48.231499 52.185398
5.5841398 -48.216702 51.985298
5.6385198 -48.129101 51.761501
5.8513098 -48.585602 51.3848
5.86235 -48.515598 51.3409
6.7014399 -47.9594 51.6577
6.7065501 -48.174599 51.450401
6.94698 -47.9011 52.301701
6.9038901 -47.915798 52.0378
6.7270899 -47.813202 53.001202
6.4410901 -47.796799 53.083801
6.0912199 -47.776699 52.577999
6.1352201 -47.807499 52.803101
6.2642002 -47.929199 53.481899
6.8276801 -47.959702 53.526699
6.55024 -47.928699 53.622002
6.3452301 -48.0331 53.860401
6.5493698 -47.7178 52.438499
6.30159 -47.714802 52.528099
6.6382799 -47.758999 52.676399
6.7895198 -47.810101 52.341702
6.4649 -47.699299 52.225601
7.2464499 -48.157501 52.889999
7.0051398 -47.935699 52.9244
6.7873101 -47.899799 53.318401
7.3449001 -48.290901 53.407001
7.1061702 -48.084499 53.448299
6.8573999 -48.008202 53.678001
7.1616101 -48.103298 52.2962
7.1971898 -48.094601 52.590801
7.26717 -48.261799 52.2845
7.3079 -48.243099 53.201
7.4212098 -48.393002 52.876999
7.5691199 -48.694 53.349499
7.5158601 -48.5042 53.373901
7.3660798 -48.322498 53.550201
7.40592 -48.522202 52.560501
7.2970901 -48.674301 52.3032
7.5346999 -48.651699 53.156399
7.5919499 -48.723301 53.493099
7.53687 -48.884201 53.346298
6.5798802 -48.367802 51.266399
5.92836 -47.883202 52.594501
6.0567999 -47.757599 52.410999
5.6859498 -48.187 52.579102
5.7624002 -48.004398 52.412998
5.75528 -48.377899 53.2761
6.42805 -48.763401 51.330502
6.6245699 -48.781502 51.4454
6.22435 -48.739201 51.385601
6.2058001 -48.743 51.3354
6.0061998 -48.669601 51.333801
5.8747902 -48.606602 51.467899
5.85742 -48.605598 51.428902
5.7318301 -48.480099 51.476601
5.72609 -48.434399 52.432098
5.73738 -48.4814 52.4408
5.7174001 -48.408901 52.467602
5.7265501 -48.417099 52.447601
5.67909 -48.389999 52.279499
5.6957898 -48.3778 52.500599
5.6388698 -48.2691 52.3605
7.1069598 -49.1171 52.591499
6.7636299 -49.411098 53.009102
6.3656902 -49.437901 53.313702
6.0123801 -49.120602 53.438999
5.7867699 -48.637001 53.382099
6.9653301 -49.5867 53.745201
7.1463499 -49.4716 53.5555
6.5271201 -49.582802 53.9767
6.1654 -49.266201 54.115799
5.9749298 -48.775299 54.170399
6.0204601 -48.419601 54.187199
6.2027898 -48.159698 54.098801
6.61025 -48.032101 53.9193
7.1484499 -48.167301 53.733002
7.5466099 -48.563099 53.643902
7.5932298 -48.939899 53.622799
7.4843001 -49.1311 53.5042
7.3078098 -49.301498 53.387501
5.7076602 -48.4576 51.559399
5.7052498 -48.465199 51.548199
5.66047 -48.465801 51.642399
5.6541901 -48.4067 51.642502
5.6621199 -48.442699 51.6115
5.67627 -48.446301 51.574402
5.7087898 -48.447601 51.580601
5.7652402 -48.524502 51.5037
5.8731799 -48.6152 51.4678
6.0194702 -48.707001 51.402699
6.2180099 -48.7505 51.387402
6.3884702 -48.776901 51.359501
6.6008301 -48.785801 51.4296
6.5620799 -48.786499 51.409901
6.6177402 -48.802101 51.4277
6.62465 -48.826 51.459801
5.7466202 -48.592499 51.4846
5.9895902 -48.755001 51.384102
6.3263602 -48.8256 51.366501
5.8097701 -48.5476 52.676201
5.7646599 -48.463501 52.5886
5.6716099 -48.365101 52.305302
5.8915601 -47.8288 52.250599
5.64394 -48.129799 52.210602
5.6119699 -48.284599 52.166401
5.6382899 -48.3358 52.1353
5.74718 -48.560699 52.1339
5.6714301 -48.444302 52.122501
5.7270999 -48.550701 51.986599
5.8580499 -48.715199 52.129398
5.7718 -48.574402 52.306499
5.9569898 -48.805698 51.944199
6.1507602 -48.933498 52.054199
6.2851601 -48.938301 51.852001
6.4811902 -48.981201 51.945202
6.5773702 -48.921001 51.760502
6.6578002 -48.981201 52.0187
6.1987901 -47.681599 52.185501
5.7797198 -48.551498 52.742901
5.80018 -48.5634 52.588902
5.8519502 -48.644501 52.720299
6.73805 -48.987499 52.1036
6.8006401 -48.9697 52.130001
6.74019 -49.018902 52.210499
6.8688302 -49.000599 52.1796
6.7737598 -49.027599 52.2299
6.6142402 -48.783501 51.4375
5.7502699 -48.501999 51.507401
6.0299301 -48.695202 51.4193
6.4159799 -48.763802 51.382401
6.6571498 -48.800201 51.453999
6.5838299 -48.847198 51.492699
6.3510699 -48.8508 51.455002
6.0091801 -48.778702 51.468498
5.7584701 -48.609001 51.558498
6.4140902 -48.9132 51.688499
6.0830402 -48.8596 51.7742
5.8099499 -48.6665 51.8624
6.7175298 -49.086399 52.324902
6.60853 -49.102001 52.3988
6.4601898 -49.114498 52.499599
6.2879801 -49.072899 52.595299
6.1147299 -48.972301 52.6595
5.98386 -48.845501 52.700802
5.7662902 -48.468201 52.559299
5.8132 -48.548401 52.638599
5.8576899 -48.642101 52.685398
5.90628 -48.735001 52.708302
5.61764 -48.321499 51.966
5.65943 -48.356701 51.595699
5.65942 -48.2668 51.609402
5.6655598 -48.138302 51.666199
6.7603002 -48.834301 51.681499
6.7167902 -48.819302 51.573399
7.10321 -48.8274 52.096802
9.0234203 -49.9678 56.1045
9.6391602 -48.672199 57.529598
9.9049501 -48.4879 57.7024
10.1104 -48.3974 57.142502
9.9472904 -48.619099 56.84
11.2787 -48.671799 56.439602
11.4362 -48.4776 56.659599
11.8043 -48.705299 56.7981
11.6856 -48.946899 56.643101
11.9743 -48.937099 57.158199
11.7942 -49.205898 56.942799
10.114 -48.072498 57.879101
10.211 -48.753799 58.0578
10.5558 -48.353699 58.618401
12.23 -48.872898 57.633801
11.9504 -49.1325 57.5979
12.0537 -48.763199 57.010201
10.1978 -48.209301 57.361099
11.8411 -48.431499 56.678101
11.5013 -48.364399 56.753201
10.8887 -48.219398 56.909
13.2311 -47.841499 58.436401
11.8854 -47.666801 59.525902
12.3041 -47.863098 59.333698
9.9078703 -49.153301 57.5588
11.5573 -47.881302 59.279499
12.8798 -48.133099 58.274899
13.1256 -47.785301 58.857899
12.6039 -47.802502 59.337002
11.1171 -48.111599 58.975899
12.5839 -48.472 57.986198
11.6807 -49.480701 57.276299
10.805 -48.343201 56.814899
10.6293 -48.539101 56.590698
10.5793 -49.031101 58.2178
10.8845 -48.598 58.661598
11.0154 -49.3302 58.233101
11.2774 -48.896599 58.615101
11.5263 -49.350399 58.0215
11.7745 -49.003601 58.3069
10.3656 -49.694698 55.238499
10.8352 -50.022099 55.3134
9.2732697 -49.6119 55.763
10.6922 -49.290699 55.620701
10.0705 -49.138802 55.7887
9.7732801 -49.5494 55.4534
9.5128698 -49.246399 56.106499
9.3271103 -49.572399 56.505501
11.1038 -49.6735 55.7785
11.9625 -48.116798 59.1245
12.8394 -47.873299 59.110001
12.6594 -48.040199 58.969299
12.4057 -48.255501 58.8013
11.6239 -48.4296 58.894299
12.1152 -48.5714 58.563499
10.7367 -49.7225 57.811699
11.2506 -49.716202 57.626701
10.2226 -50.4552 57.0453
10.6919 -50.455299 56.842999
9.9098196 -50.888802 56.638901
10.3729 -50.895199 56.4753
11.1001 -50.2771 56.501999
10.7836 -50.6833 56.0989
9.42241 -49.884499 56.786201
9.4761896 -50.645401 56.607899
9.7809095 -50.2117 56.979698
10.2775 -49.456501 57.7435
11.2419 -49.9977 56.1297
10.9702 -50.3923 55.662399
12.3927 -47.689499 59.4384
8.8914404 -50.282001 55.948601
10.8152 -50.695 55.740299
9.2662296 -50.654202 56.464699
9.15658 -49.975498 56.440899
9.0178003 -50.169102 56.2533
9.0569096 -49.863499 55.805199
8.9591999 -50.0452 55.9282
9.5992899 -50.9081 56.529099
10.494 -50.944 56.1791
10.0451 -51.062099 56.455898
9.4511995 -49.6506 55.487
10.0045 -49.6959 55.2048
10.5455 -49.954102 55.150398
10.8484 -50.368198 55.314499
12.1016 -48.946999 57.411598
12.1322 -48.8829 57.303902
11.9114 -49.133701 57.293201
11.6636 -49.3964 57.682201
11.8364 -49.257801 57.484798
11.5173 -49.734798 56.729099
11.7729 -49.345798 57.106499
11.8562 -48.908798 56.944302
11.9062 -49.0229 57.114201
12.0079 -49.0313 57.374699
10.1384 -48.4813 58.074299
10.3187 -48.2127 58.231998
12.2042 -48.730701 58.119598
12.4115 -48.674099 57.8358
11.9558 -48.750198 56.958401
11.9492 -48.581402 56.8022
11.6883 -48.517502 56.717499
11.8411 -48.6325 56.7957
12.0452 -48.861599 57.172901
11.9041 -48.8246 56.959702
12.5213 -48.354 58.4118
12.7369 -48.2897 58.139999
12.5183 -47.740799 59.396198
12.9631 -47.908798 58.863098
13.1646 -47.8004 58.7169
12.8028 -48.0797 58.6343
13.0188 -48.003201 58.384102
11.1884 -48.330502 56.7621
11.4753 -48.415699 56.713402
11.6908 -48.411701 56.704601
11.6259 -48.655399 56.658901
11.6614 -48.583199 56.692001
9.9734602 -48.281799 57.587898
10.479 -48.2742 57.042702
10.1553 -48.291599 57.2668
9.8498402 -48.446602 57.378899
9.9169502 -48.371101 57.472599
9.9794598 -48.367298 57.826199
10.0578 -48.166401 57.646
9.92521 -48.7882 57.731998
9.8164797 -48.590599 57.617298
9.5696602 -49.376598 57.0201
9.7375498 -48.936901 57.557098
10.2484 -49.046001 57.938301
10.0767 -48.919899 57.840599
10.0353 -48.6436 57.8881
12.1968 -47.657101 59.4897
10.5147 -48.2066 57.109699
11.2204 -48.278702 56.802799
11.8987 -49.117199 57.947498
12.0716 -49.0205 57.674
10.5361 -48.686798 58.411701
10.3438 -48.569099 58.3041
11.5129 -49.4417 56.389801
11.7638 -49.070499 56.791901
11.7704 -48.786201 56.789001
11.2558 -49.096001 56.1092
11.5209 -48.8041 56.5065
11.0958 -48.450401 56.651402
11.394 -48.538799 56.601898
10.3731 -48.424198 56.8908
10.0585 -48.486599 57.037701
9.36656 -48.763699 57.010201
9.6720896 -48.4921 57.316101
10.8978 -48.285599 58.811798
10.8328 -48.205299 58.842602
11.5631 -48.108299 59.084999
11.3628 -47.981098 59.146099
11.9279 -47.871799 59.3302
11.7354 -47.789299 59.393101
12.0803 -47.7798 59.415001
12.5941 -47.923 59.208099
12.4872 -47.8503 59.324799
10.6839 -50.813301 55.976799
10.866 -50.555 55.502899
11.0202 -50.392502 56.0555
10.914 -50.5504 55.882401
10.7539 -50.150501 55.213299
11.0395 -50.0634 55.6567
10.9489 -50.206799 55.4715
9.3888397 -50.754799 56.5033
9.3927898 -50.308899 56.6698
9.2785797 -50.513802 56.532001
9.8179102 -51.015999 56.511902
9.8227797 -50.608398 56.813599
9.6883402 -50.786999 56.648102
11.2164 -49.9855 57.075298
11.4112 -49.868401 56.901901
11.2094 -50.145901 56.320801
11.5467 -49.590099 56.5574
9.3390198 -49.730202 56.662701
9.2221498 -49.6049 56.088902
9.1549196 -49.793499 56.2878
9.2345304 -50.1479 56.5606
9.8271399 -49.665501 57.265099
9.6642199 -49.510101 57.158798
9.3354301 -48.921501 57.208199
11.2048 -49.844002 55.9412
11.4182 -49.277302 56.237099
10.724 -50.635799 56.437901
10.9024 -50.531898 56.2505
11.0664 -50.233799 55.848499
10.7362 -49.698601 55.377201
10.937 -49.884399 55.493301
11.2205 -48.485199 58.817799
11.3816 -48.265598 58.9543
12.0251 -48.365101 58.888302
11.7993 -48.259602 59.010601
11.754 -47.987598 59.209999
10.9108 -48.991402 58.463501
11.066 -48.748901 58.661499
11.7015 -48.743599 58.633598
11.4495 -48.6455 58.764599
11.0225 -48.350399 58.816399
10.7048 -48.501202 58.645
10.074 -49.292301 57.6632
10.6624 -49.380501 58.053902
10.4478 -49.2169 58.003502
10.397 -48.872601 58.1619
10.2475 -49.9809 57.4147
10.4957 -49.613899 57.804798
11.1543 -49.5284 57.984001
10.9012 -49.493698 58.053398
10.7814 -49.201099 58.2509
10.2784 -50.732201 56.7481
10.0425 -50.706402 56.811401
9.9918604 -50.360401 57.045399
9.6063299 -50.459099 56.756401
10.7323 -50.1078 57.357899
10.4841 -50.0825 57.425301
10.0292 -49.829201 57.348202
9.5804701 -50.048199 56.893299
10.6001 -50.787701 56.299999
10.2745 -51.044399 56.351799
10.914 -50.377602 56.672199
10.506 -50.7117 56.618401
10.9786 -50.072899 57.239101
11.5032 -49.617802 57.455601
11.4126 -49.495201 57.858299
11.7785 -49.258499 57.827599
11.9462 -48.775501 58.427399
12.0419 -48.932701 58.0275
12.3716 -48.5266 58.266399
12.6611 -48.205502 58.534401
12.2659 -48.399502 58.6926
12.9148 -47.981602 58.735298
12.3252 -48.0909 59.09
12.5402 -48.136799 58.889599
12.9969 -47.840199 58.976601
12.7521 -47.958199 59.0438
10.1396 -50.9244 56.585899
10.4614 -50.4856 56.975201
10.9928 -49.752102 57.747299
11.3798 -49.2033 58.329899
11.2655 -49.375301 58.1577
11.5191 -48.978298 58.500599
11.8686 -48.5364 58.7658
12.1757 -48.217899 58.994598
12.4649 -47.990002 59.163898
12.1289 -47.985001 59.232601
12.7091 -47.855099 59.237499
10.1721 -49.4366 55.408699
10.4722 -49.539902 55.339401
10.9333 -49.472099 55.6623
10.625 -49.847401 55.240002
10.7039 -48.8554 56.096001
11.0105 -48.9524 56.0522
9.3771 -49.396198 56.308399
9.5844002 -49.395802 55.694199
9.36304 -49.4589 55.877899
9.1090498 -49.769798 55.9314
10.021 -48.820801 56.319
9.7274799 -48.923901 56.475899
9.7194595 -49.6488 55.3312
9.2219896 -49.716702 55.651501
9.5009003 -49.548302 55.6036
9.8639002 -49.391998 55.537701
9.7582598 -49.161999 55.931801
10.2592 -48.557598 56.707199
10.3693 -48.803699 56.194599
10.8547 -48.276199 56.8699
10.4291 -48.352299 56.963402
10.072 -49.5975 55.320202
10.2857 -49.797901 55.138599
10.3924 -49.1786 55.675598
10.9753 -48.582199 56.487099
11.144 -48.3918 56.707802
11.6443 -49.1852 58.180901
11.1309 -49.134998 58.43
10.7194 -48.831402 58.4487
10.7509 -48.407299 56.7598
10.4312 -50.2178 54.5989
10.5862 -50.243801 54.933201
10.5702 -50.700401 55.011799
10.3709 -50.728802 54.627701
10.1955 -51.155701 55.159302
10.0251 -51.138401 54.801998
9.7576504 -51.376999 55.4296
9.6029501 -51.3283 55.0578
9.3199797 -51.3181 55.587002
9.18785 -51.281601 55.207699
9.3889303 -51.247501 54.383598
8.9590397 -51.233299 54.5215
8.8463297 -51.087601 55.247398
8.6400995 -51.061501 54.611698
8.6463003 -50.6077 55.1684
8.4476404 -50.615101 54.590099
8.7019196 -50.0942 55.131699
8.4617395 -50.155899 54.521702
8.9875402 -49.711399 54.984402
8.72857 -49.776901 54.3437
8.2441502 -50.219601 53.894402
8.4759502 -49.864799 53.6749
9.2419205 -49.660599 54.0788
8.9540997 -49.75 53.371498
9.7757196 -49.8773 53.823898
9.3973503 -50.015499 53.028599
8.7252197 -49.830002 52.712799
8.7790098 -49.811699 52.9002
9.1681404 -50.067402 52.633701
8.4201803 -51.0583 54.058498
8.2443399 -50.639301 54.028702
8.3124905 -49.9403 53.1754
8.2544603 -49.951401 52.944199
9.6390104 -50.428101 52.978901
9.6884499 -50.791302 53.177399
8.7346296 -51.241199 53.985001
9.1620703 -51.244099 53.834202
9.5504103 -51.048 53.566399
9.8141003 -51.032799 54.140701
10.0554 -50.7337 53.901299
9.1477299 -49.753899 55.391602
8.8935804 -50.043098 55.647999
9.1906605 -49.751801 55.5224
10.6901 -50.220501 55.120201
10.7586 -50.6674 55.3633
10.2336 -49.847099 55.040298
10.1934 -49.867401 54.9128
9.6505699 -49.697601 55.074501
9.6914301 -49.687099 55.202499
10.0809 -49.844501 54.582199
9.4900198 -49.658001 54.715401
10.0454 -50.306702 53.774101
8.802 -50.591099 55.669399
10.1951 -51.150902 56.244801
9.7505999 -51.108501 56.411499
9.6094398 -51.207401 56.208801
10.0405 -51.288601 56.024899
9.4564896 -51.305 55.935902
9.9013205 -51.3769 55.757198
10.4805 -51.064602 55.737499
10.594 -50.936199 55.877399
10.3479 -51.141201 55.491199
8.9862804 -51.083599 55.667599
9.3244896 -50.834301 56.406502
9.1723804 -51.0065 56.1175
9.0585604 -50.4282 56.344101
8.0989704 -50.080799 52.996899
8.4669104 -49.862598 52.775799
8.25072 -49.943802 52.888401
8.1173697 -50.101101 53.152302
8.1013002 -50.087502 53.048199
8.9667902 -50.833599 55.950001
8.8954697 -50.565701 55.978901
8.7939196 -50.877102 55.4496
8.8696404 -50.869701 55.676998
9.2101898 -51.213001 55.834202
9.0718699 -51.056 55.896198
9.1752901 -50.7798 56.312599
9.08179 -50.781601 56.192699
10.6604 -50.876499 55.586102
10.3403 -51.138401 55.9869
10.5336 -51.009998 55.808998
10.5958 -50.919899 55.477901
10.6313 -50.904598 55.542702
10.7129 -50.8209 55.651699
9.2023602 -50.682301 56.390499
9.3716898 -51.116901 56.191799
9.2521296 -50.928699 56.2775
8.7398796 -50.3125 55.404099
8.8167801 -50.287701 55.6572
10.2095 -51.260799 55.773499
10.4212 -51.1101 55.630501
10.4824 -50.934601 55.218399
10.5494 -50.933899 55.380001
10.0628 -51.312401 55.465302
10.2743 -51.1535 55.3256
10.314 -50.941299 54.896301
10.3985 -50.9375 55.0522
10.7183 -50.4655 55.115601
10.6626 -50.686298 55.174801
9.4923601 -50.9571 53.0518
9.81705 -50.909199 53.6936
9.6514502 -50.9328 53.373299
9.2291002 -51.160099 53.382702
9.3906498 -51.0639 53.2253
9.5440102 -50.6642 52.7855
9.5367899 -50.8241 52.886501
10.098 -50.917801 54.369099
9.7177401 -51.216202 54.6096
9.9235897 -51.081299 54.479698
9.96348 -50.902199 54.017601
10.2736 -50.503601 54.247101
10.2211 -50.731499 54.289001
10.2217 -50.9324 54.685101
9.0774002 -51.221401 55.462898
9.1379604 -51.224602 55.635502
9.5933399 -51.383701 55.693001
9.3849201 -51.321999 55.762001
9.2881298 -51.175701 56.030701
9.7342596 -51.336899 55.996899
9.5317497 -51.260899 56.0863
9.4939499 -51.006401 56.365799
9.4497499 -51.051102 56.307899
9.8895302 -51.215302 56.230202
9.6911802 -51.158401 56.298599
9.5334101 -50.983501 56.440601
8.7276802 -50.600101 55.416
8.6229801 -50.874802 54.916801
8.7177401 -50.877499 55.212002
8.91784 -51.092602 55.472401
9.4663 -51.357201 55.3685
9.2604599 -51.302502 55.424702
8.9005098 -51.193699 54.9184
9.0048304 -51.211498 55.2453
8.4445105 -51.184399 53.7579
8.8162603 -51.271702 53.630001
8.6152496 -51.246899 53.705799
8.6755304 -51.167301 54.2981
8.5598602 -51.1828 54.036201
8.2117596 -50.852699 53.784901
8.3102703 -51.051498 53.785
9.0293798 -51.241901 53.521099
9.5074701 -51.1385 53.987999
9.3789797 -51.1478 53.715698
9.28405 -51.294998 54.815201
9.49963 -51.284302 54.727901
9.6131601 -51.160099 54.2668
9.9085903 -51.296799 55.144199
9.81775 -51.266899 54.9356
9.8301497 -51.386398 55.595299
9.9868603 -51.308601 55.298801
10.1372 -51.2985 55.628899
9.97223 -51.3419 55.899799
10.2767 -51.206001 55.894901
10.1164 -51.220501 56.130699
10.4104 -51.054298 56.0755
9.0580902 -51.257099 54.187
8.9401102 -51.269299 53.9226
9.5271702 -51.3755 55.526402
9.6633797 -51.372799 55.854801
9.8078804 -51.283001 56.1222
9.9702501 -51.161098 56.351299
9.8726196 -50.571701 53.397099
10.0804 -50.5303 53.817699
10.1536 -50.018002 54.236599
10.255 -50.259701 54.232399
10.5599 -50.459099 54.829102
10.445 -50.481098 54.603901
9.7243099 -50.149101 53.317101
9.8233099 -50.364201 53.324402
9.8712301 -50.757 53.5229
9.6832895 -50.621101 53.0439
8.1229095 -50.4426 53.703999
8.1463299 -50.643299 53.758301
8.3219099 -50.409302 54.268902
8.2205801 -50.427299 53.975498
8.2289696 -50.065201 53.517899
8.1480503 -50.247898 53.621601
8.4222097 -50.8433 54.326099
8.3467798 -50.626801 54.308601
8.5360603 -50.368401 54.8685
8.4263 -50.388901 54.567501
8.4405499 -49.988998 54.114601
8.3499098 -50.1903 54.204201
8.9252796 -49.850498 55.339401
8.8076 -50.063099 55.3909
8.6443596 -50.3428 55.154099
10.3744 -50.033901 54.7817
9.8764801 -49.747101 54.838402
10.153 -49.8647 54.787998
10.438 -50.0457 54.999199
10.4185 -50.0378 54.904701
10.5241 -50.2332 54.806198
10.2988 -50.015301 54.581299
9.9430799 -50.0779 53.768101
9.6929102 -49.687801 54.334301
9.9673901 -49.814301 54.267799
9.3559904 -49.796902 53.546501
9.5712404 -49.951 53.386101
9.4202003 -50.2645 52.743099
9.54564 -50.2164 52.974499
8.3271599 -50.021702 53.7943
8.6023197 -49.8032 53.252998
8.3785801 -49.908001 53.392601
8.1604605 -50.096298 53.303001
9.3084698 -49.684601 55.081402
9.0828304 -49.734501 55.2341
8.6887703 -49.9067 54.769501
8.8125 -49.876598 55.072601
9.03055 -49.8629 55.571999
9.0001097 -49.8503 55.509201
8.8249302 -49.718601 53.864601
8.7003803 -49.761799 53.536499
9.0794497 -49.892399 52.9216
8.8505096 -49.789799 53.094799
8.49823 -49.8503 52.9049
8.5352297 -49.834499 53.040798
9.1001301 -49.6422 54.554401
9.2161798 -49.647301 54.850601
9.3871803 -49.6297 54.432201
8.9637604 -49.675598 54.214199
8.85919 -49.737301 54.673801
9.4139996 -49.722099 55.303501
9.3776999 -49.701199 55.231499
9.5831604 -49.688599 54.936199
9.5287199 -49.736301 53.943001
9.7952604 -49.723 54.628101
9.9485302 -49.769299 55.0424
9.9307899 -49.753101 54.9673
8.4785995 -49.855598 52.823399
8.9550304 -49.939499 52.604301
8.7182903 -49.8437 52.6684
8.9624395 -49.915901 52.692902
8.9499903 -49.916901 52.645
9.2943401 -50.280102 52.563
9.1496296 -50.092602 52.5742
9.4204798 -49.692902 55.361599
9.6821899 -49.716 55.146
9.1785698 -49.7775 55.465698
9.9669504 -49.7393 55.091801
10.203 -49.878899 54.993698
10.4861 -50.010799 55.056599
10.6401 -50.242901 55.030899
9.3350801 -50.2757 52.609901
10.7794 -50.455502 55.228699
10.65 -50.447701 54.986301
9.0346699 -49.8619 55.6422
9.69524 -51.033199 53.858501
9.2838097 -51.2337 54.104198
9.1658096 -51.265202 54.463799
8.8494301 -51.226101 54.244499
8.7843304 -51.173302 54.5765
8.5327702 -51.0485 54.330898
8.5231199 -50.860802 54.6087
8.31565 -50.8484 54.049999
9.5098801 -50.475601 52.743599
9.2726603 -50.062901 52.7882
8.7284002 -49.823299 52.791
8.2752199 -49.951199 53.0326
8.9908504 -49.903599 52.7668
9.1960201 -49.851002 53.187401
9.0938797 -49.7066 53.718601
8.5973902 -49.819302 54.0023
8.5619297 -49.943699 54.447498
8.5825195 -50.123901 54.835999
8.5504799 -50.6087 54.8829
8.7490101 -51.074501 54.936001
9.0789604 -51.258598 54.8736
9.3904104 -51.3279 55.148499
9.6868896 -51.360298 55.273701
10.1156 -51.155499 55.007702
10.4785 -50.7159 54.848301
9.1353798 -50.092201 52.510899
8.2157402 -49.943001 52.848
7.97679 -50.261398 53.101398
8.2129803 -51.0364 53.5182
8.07127 -50.276798 53.403599
9.2569599 -51.072102 52.9118
9.4296503 -50.828602 52.6562
9.4120197 -50.469398 52.558201
8.6959696 -49.836201 52.6119
8.0542202 -50.660198 53.5205
8.5146198 -51.224602 53.408298
8.9080801 -51.2309 53.191799
7.9274001 -50.980499 52.751202
8.0673704 -51.000599 53.098
7.9219799 -50.645599 53.169498
7.79565 -50.624802 52.860199
9.2771101 -50.7756 52.2929
9.2720098 -50.423698 52.230999
9.1766901 -50.717701 52.0145
9.0970802 -51.0261 52.473202
8.9931803 -50.9827 52.170399
8.7402296 -51.1861 52.699799
8.6056099 -51.192001 52.3853
8.3694696 -51.1712 52.930401
8.2249098 -51.1786 52.587898
9.17665 -50.361 51.9655
8.5354099 -50.7719 50.870399
8.1452703 -50.645901 50.393299
8.6053801 -50.5429 50.854401
7.2424102 -50.816898 50.8484
7.2541499 -50.8246 50.748501
7.4713402 -50.896301 50.5853
7.5097799 -50.912601 50.697399
7.79915 -50.927601 50.462799
7.83565 -50.941399 50.553398
7.9349198 -50.889801 50.417999
8.0359802 -50.877399 50.4692
7.2563601 -50.811401 50.7103
7.23036 -50.7649 50.769901
7.2678699 -50.783699 50.701
7.2753501 -50.764702 50.725101
7.4816999 -50.832699 50.567799
7.4688001 -50.8493 50.538601
7.8037601 -50.8647 50.445202
7.7919102 -50.876598 50.425499
7.9386601 -50.855701 50.4105
7.78971 -50.904099 50.430199
7.3317399 -50.798401 51.295601
7.6816502 -50.943298 51.177799
7.2062502 -50.737 50.8573
7.2367702 -50.724201 50.845001
7.58389 -50.858501 51.794498
7.4781499 -50.839298 51.617001
7.8022799 -50.9678 51.533001
7.9972801 -51.007301 51.764
8.2104998 -51.0079 51.370399
8.2880402 -51.0228 51.5909
8.3623104 -50.968601 51.269501
7.4294701 -50.7719 51.6334
7.2708702 -50.680901 51.293201
7.4332399 -50.7658 51.650501
7.4117999 -50.743599 51.683601
7.3765502 -50.605701 51.8606
8.40944 -50.891201 50.9105
8.6995001 -50.911201 51.424198
8.5113401 -50.939602 51.259102
8.4136295 -50.952099 51.264801
8.34624 -50.894402 50.920799
7.5939598 -50.889099 51.9165
7.4938798 -50.608799 52.150398
7.8464999 -50.256401 52.838699
7.68716 -50.243099 52.519501
9.0228004 -50.0299 52.241798
8.5816698 -49.808102 52.3848
8.0885801 -49.924801 52.634899
7.2211399 -50.674599 50.759399
7.7986202 -50.849098 50.4254
7.4665399 -50.820499 50.551998
7.4409699 -50.778999 50.494202
7.7863302 -50.808399 50.366798
8.0485497 -50.833401 50.453499
8.0511303 -50.7775 50.3951
7.6169801 -50.865898 51.8489
8.4553099 -49.7901 52.1381
8.9115696 -49.987099 51.994999
8.6240396 -49.973301 51.375198
8.1621799 -49.808899 51.511299
8.87819 -50.623901 51.3237
8.1488705 -50.434898 50.4268
7.8067598 -50.6441 50.3274
7.6672201 -50.428101 50.396198
7.9905601 -49.866199 51.108002
7.6010599 -49.928699 51.250099
7.6939201 -49.912201 51.698101
8.35814 -49.977299 50.995399
8.1551905 -50.023899 50.750999
7.8480902 -49.9688 50.7948
7.5322399 -49.993198 50.940701
7.9493799 -49.912399 52.3955
7.4286799 -50.246201 51.863499
7.3273802 -50.2136 51.306
7.3784099 -50.1954 50.762299
7.7364998 -50.194401 50.541599
8.1506596 -50.210098 50.5611
8.5587502 -50.240101 50.909698
8.8609304 -50.297001 51.314201
7.20439 -50.520599 51.3223
7.24542 -50.446999 50.7071
8.0204096 -51.095299 51.897301
8.3766603 -51.098099 51.7057
8.0147495 -51.0172 51.826599
8.3285398 -51.028099 51.645
7.4749098 -50.6334 50.442299
7.4622898 -50.877102 50.5439
8.0457602 -50.982399 51.0387
7.7804599 -50.963799 52.375198
8.0994501 -51.168999 52.261501
8.4890404 -51.186401 52.056801
8.8632298 -50.957901 51.8279
9.04177 -50.681 51.705601
9.0367002 -50.3353 51.666302
8.7801199 -49.980598 51.7024
8.3120003 -49.7841 51.834599
7.82621 -49.896301 52.073299
7.5542598 -50.2388 52.198601
7.6268601 -50.625099 52.483501
8.2497902 -50.833302 50.633598
8.1606398 -50.895302 50.6651
7.9205098 -50.9575 50.747398
7.57692 -50.924801 50.885899
7.2595601 -50.799702 51.0289
7.20543 -50.7029 51.035999
7.2188601 -50.685398 51.011398
7.1821399 -50.652199 51.0261
7.1763301 -50.480701 51.0476
8.3538704 -50.7225 50.587101
8.3919401 -50.458 50.597599
8.3439102 -50.2216 50.6856
7.2982998 -50.2029 51.014
7.78476 -50.9921 51.948799
7.80129 -50.942699 51.874401
7.79143 -50.9492 51.813099
7.8152599 -50.8452 50.467899
7.4951 -50.814602 50.588902
7.9961801 -50.843899 50.419899
7.9859099 -50.8867 50.431702
7.2192602 -50.755901 50.7966
7.2718902 -50.7528 50.751701
7.2481999 -50.8256 50.787498
7.48668 -50.907001 50.633801
7.8120399 -50.935799 50.4958
7.3006201 -50.556301 51.6586
7.3418498 -50.679699 51.652401
7.3793602 -50.239799 51.655701
8.3098001 -50.9104 50.929798
8.21031 -50.843899 50.6516
8.0050802 -50.086201 52.877499
8.0655804 -50.0816 52.9627
9.2824602 -50.940201 52.550098
9.3650904 -50.961899 52.769402
8.2750101 -51.133301 53.229
8.3452597 -51.1637 53.473301
9.00037 -51.1422 52.791302
9.0919704 -51.165798 53.052799
8.6301603 -51.226898 53.049801
8.7087898 -51.248501 53.317101
7.97541 -50.465302 53.297501
8.0384998 -50.4659 53.478199
8.38729 -49.842201 52.624001
8.4408903 -49.852699 52.723701
8.8807001 -49.912201 52.428299
8.93256 -49.931 52.542702
9.2362499 -50.254601 52.375801
9.2825403 -50.275002 52.504501
9.3662205 -50.645199 52.405499
9.4513502 -50.668999 52.5891
8.0199299 -50.277901 53.240299
8.0366697 -50.853901 53.330799
8.1116695 -50.862598 53.533901
7.5447502 -50.887402 51.4151
7.6567502 -50.910198 51.728199
7.6129699 -50.9025 51.5924
7.33921 -50.760899 51.4725
7.3962698 -50.814098 51.4575
7.4373899 -50.8708 51.096802
