# .PCD v.7 - Point Cloud Data file format
VERSION .7
FIELDS x y z
SIZE 4 4 4
TYPE F F F
COUNT 1 1 1
WIDTH 1720
HEIGHT 1
VIEWPOINT 0 0 0 1 0 0 0
POINTS 1720
DATA ascii
10.05 -12.6884 137.045
10.1065 -12.7339 137.23801
9.9865904 -12.7325 137.20399
10.1166 -12.7208 137.375
10.009 -12.7274 137.39101
10.1864 -12.6789 137.491
10.1079 -12.676 137.548
10.4932 -12.3418 136.841
10.6537 -12.2784 136.93401
10.2878 -12.4381 136.799
10.0726 -12.5536 136.81799
9.9185305 -12.6525 136.963
9.8330202 -12.716 137.17
9.8720798 -12.7134 137.411
10.0112 -12.6582 137.614
10.221 -12.5731 137.72701
10.4593 -12.4537 137.73
10.6559 -12.3433 137.617
10.7927 -12.252 137.44901
10.8219 -12.2253 137.25301
10.7653 -12.2352 137.075
10.4194 -12.4116 137.884
10.5468 -12.2526 136.70799
10.1305 -12.5461 137.88
9.8463297 -12.6484 137.743
10.5869 -12.3216 137.8
10.7513 -12.2332 137.68201
10.8835 -12.1412 137.532
10.9445 -12.0952 137.397
10.9629 -12.0733 137.189
10.8617 -12.1136 136.989
10.7264 -12.1769 136.83
10.2841 -12.3843 136.64799
10.0517 -12.5055 136.659
9.9088802 -12.5904 136.71001
9.7768602 -12.6557 136.87
9.68859 -12.7089 137.048
9.6543798 -12.7294 137.207
9.6647196 -12.7146 137.47301
1.20672 7.7450199 156.33
1.18704 8.2257996 155.548
2.50841 7.8415298 156.495
2.6093299 8.4559298 155.657
3.4123199 7.8571801 156.694
3.5441699 8.4073296 156.03101
4.4872198 7.55372 157.06799
5.8621602 6.6091599 157.692
6.9592199 5.2138801 158.373
7.4035902 4.04316 158.55499
7.5868602 2.8856001 158.48199
7.4240999 2.13817 158.005
7.0058198 1.26481 157.21001
7.6757898 1.3343199 156.545
6.4681702 0.429795 156.55901
7.0095701 0.35114899 155.799
6.0872002 -0.57507199 156.049
6.0194101 -1.30272 155.84399
6.75841 2.02773 158.50101
6.87292 3.7930801 158.98
3.2555599 7.3226099 157.313
2.41594 7.3487 157.11099
1.20373 7.3654099 156.925
5.1740699 6.1869998 158.198
5.8063202 -1.03537 156.802
5.84799 -0.40612799 156.978
6.1033401 0.43366399 157.315
6.41114 1.1353199 157.78999
3.9800501 7.09162 157.619
6.3608599 4.8881602 158.821
6.9591899 2.7177899 158.94901
2.6823599 5.26368 159.575
3.0031099 5.9635201 158.703
2.13009 6.1451802 158.517
0.44560501 6.69982 157.966
3.9813001 4.7053599 159.858
1.09582 6.5075998 158.136
4.3302102 5.16573 159.198
5.4695001 4.1865101 159.63499
3.516 6.5051398 158.18201
4.6763601 5.7291398 158.642
5.8382602 4.5419598 159.25
6.3604898 3.4793999 159.396
6.5367899 2.5587399 159.31799
3.04373 6.6849499 157.99001
2.2925799 6.7974501 157.74899
1.16186 6.9737 157.51199
0.18766201 7.1093302 157.358
0.55775499 7.41678 156.839
0.56199002 7.7511401 156.255
1.77694 7.3438301 157.006
1.8051 7.7801299 156.39799
1.8008699 8.3255301 155.589
0.57170999 8.13589 155.515
0.94229299 10.4753 149.689
0.50591701 9.3967199 152.716
0.44834599 9.8680096 151.33099
0.56896901 8.8832397 154.048
1.15095 10.1381 151.297
2.18558 11.5666 148.05901
2.5005801 11.3259 149.631
5.1248102 12.2844 149.254
4.9988198 12.4879 147.85001
4.8008199 12.5881 146.51601
1.45744 9.7258501 152.758
2.9058199 10.9702 151.263
5.44982 11.6471 151.651
5.2569499 11.9309 150.62399
1.70267 9.1551704 154.144
5.89113 11.3152 152.62199
6.5204 10.9158 153.509
3.3480201 11.9349 137.916
4.0681 12.532 143.05701
3.79088 12.4592 141.326
1.70541 6.8822598 157.61
0.53956199 7.0683098 157.403
1.60049 6.3613701 158.27699
1.51793 10.8828 149.69901
1.16883 11.0825 148.108
1.91231 10.5169 151.32899
0.38255301 10.5785 148.13901
0.378315 10.8634 146.533
0.38828301 11.0126 144.83701
0.81694198 8.9019604 129.951
0.76086801 8.5063105 127.315
0.469531 11.1268 141.30499
0.48074499 10.8156 139.423
0.41345501 11.1219 142.981
0.56622797 10.6498 137.77299
0.68236399 10.3104 135.55299
0.79874903 9.6156797 132.18201
3.4325099 11.7238 149.543
0.41345501 10.2322 149.709
2.9567101 11.8442 147.99899
3.6550901 12.2714 146.50999
1.4223 11.4837 139.371
1.5975 11.8631 141.315
4.6277399 12.0735 137.93401
4.6371298 11.7133 135.588
5.5303402 12.1361 137.96899
1.14641 10.9007 136.767
0.731462 9.9907303 133.858
1.29071 10.4436 133.935
2.25893 10.8326 133.937
4.3281598 11.8558 136.774
3.0649199 11.6919 136.78
3.23893 11.1799 133.89799
5.7904902 12.0841 136.795
4.0412798 11.3164 133.897
4.9900599 11.5607 133.817
6.5381098 11.8746 133.735
1.75177 11.2443 136.78101
5.1228099 11.9625 136.78799
4.3984799 11.4551 133.87199
7.1547499 12.3816 137.67999
7.88271 12.2263 135.39
7.5496802 11.943 133.7
7.3128099 11.4863 131.94501
7.3785501 10.9285 129.933
8.0685196 10.4323 127.211
7.0321298 12.2855 136.799
8.8937197 0.72223699 154.87801
8.0483999 0.79608899 155.50301
7.3622899 0.862562 156.16
6.7473898 0.88987201 156.853
6.2443299 0.79376298 157.50101
1.23634 -5.4203701 150.99899
8.8742399 -1.23137 153.269
8.3601799 -1.00978 153.504
7.7587199 -0.73596001 153.992
7.1873999 -0.489297 154.642
6.6880202 -0.26499599 155.416
6.2414699 -0.089782 156.278
5.9408698 0.0175 157.144
8.0804901 -2.07849 152.836
6.6266899 -3.3947201 152.619
6.3661299 -3.1287799 152.978
6.26405 -3.03105 153.134
6.0650301 -2.71821 153.72501
5.8638601 -2.3742099 154.52699
5.6757398 -1.9893 155.562
0.46379799 -7.23949 148.625
0.435886 -6.7267399 149.42101
0.442864 -6.25735 150.01601
0.52560401 -7.8316498 147.674
0.60535502 -8.40063 146.705
16.446501 1.48724 129.897
15.96 0.835778 127.704
15.7082 -0.317938 128.267
13.9728 -4.43894 125.772
14.2091 -4.50316 129.246
14.3639 -2.82932 123.743
14.6069 -2.28213 124.685
11.7046 -8.16611 128.804
12.7518 -7.08462 129.37
12.1521 -7.6068301 128.133
12.5743 -7.13271 128.379
10.7956 -9.0860901 129.075
13.5506 -5.7691798 128.97701
13.2205 -6.4741998 129.787
14.0456 -4.84937 129.536
13.703 -5.7136302 130.287
14.648 -1.51142 123.332
14.8462 -1.19806 124.376
13.2629 -6.4977002 131.07201
12.79 -7.13693 130.617
12.5052 -7.4762301 130.41499
11.3472 -8.5798998 129.672
12.631 -7.3127599 129.978
13.491 -6.1484499 130.709
13.0294 -6.82023 130.256
13.8869 -5.24612 129.879
13.4032 -6.08776 129.36099
12.6574 -7.1217098 128.86301
12.3414 -7.5289001 129.297
12.2468 -7.72293 130.226
12.2655 -7.6757898 129.84399
12.0478 -7.8037601 129.13
12.0238 -7.9319201 130.34
11.9219 -7.9956799 129.786
12.4002 -7.4068799 128.87399
12.277 -7.49757 128.595
14.2188 -4.1549902 127.256
14.7603 -3.0295401 128.562
14.2366 -3.4668901 124.354
13.7397 -4.8782902 125.159
11.1923 -8.6746101 128.209
13.2145 -6.2477698 128.10899
13.7267 -5.45046 128.64999
12.8278 -6.7651 127.995
13.1979 -6.1454301 127.084
12.9106 -6.6055999 127.567
13.4465 -5.3464599 124.449
10.4498 -9.2370501 127.422
10.9822 -8.6610699 126.74
11.869 -7.67769 125.863
12.5345 -7.0738502 127.514
12.842 -6.6302299 126.938
12.8007 -6.4648299 125.046
14.0233 -3.88978 123.639
12.3929 -7.0721202 125.433
13.7721 -4.9675102 126.402
13.5478 -5.4973502 126.829
14.0777 -4.28649 126.283
14.7902 -1.97263 125.401
15.2067 -0.81820202 125.823
14.9718 -1.69753 126.051
14.1943 -4.0939498 126.683
14.8558 -2.18995 126.255
14.3901 -3.4512899 125.867
14.2032 -3.96386 126.063
14.6155 -2.7436099 125.77
14.5269 -3.2765 126.253
14.6459 -2.8909199 126.172
14.4163 -3.5789101 126.368
15.1459 -1.75849 127.579
14.9742 -2.131 126.967
14.7848 -2.58236 126.505
14.2969 -3.86869 126.559
14.981 -2.25441 127.854
14.7471 -2.8580201 127.381
14.5151 -3.4067099 126.922
14.4222 -3.0729001 125.078
14.9888 -1.02878 124.998
14.0299 -4.4899001 126.823
13.9149 -4.79704 127.02
13.6719 -5.4517498 127.444
14.8081 -2.7338901 128.282
14.1712 -4.4368601 127.617
13.6164 -5.4876699 127.158
13.4284 -5.8320198 127.243
13.8446 -5.0620899 127.274
14.6572 -3.4374399 128.80901
14.065 -4.7824101 127.934
14.4093 -4.0784898 128.899
13.9187 -5.09869 128.30701
13.2881 -6.0871 127.427
13.2104 -6.0689602 126.613
13.4908 -5.5103402 126.172
13.1965 -5.9806199 125.712
14.5176 -3.97471 131.851
14.4559 -3.8643301 130.134
13.7355 -5.73002 131.66499
13.919 -5.4070802 131.366
14.1515 -4.8557301 130.967
14.5598 -3.5910299 129.92
14.6934 -3.26085 129.69299
13.4364 -5.8927398 127.781
14.1928 -4.77212 132.37801
15.0742 -1.64454 126.638
14.7782 -0.555246 123.15
15.0552 -0.02396 124.39
15.4869 0.39638099 125.846
15.3469 -0.69987202 126.402
14.8503 -2.7446599 130.744
15.3037 -1.47847 129.965
15.2381 -1.57868 128.418
14.9248 -2.6176 129.32899
15.0432 -2.09709 128.679
15.0129 -2.2955101 129.07401
9.3386803 -10.1636 129.133
9.9045601 -9.7188797 128.22501
9.5914898 -9.1493597 122.901
10.3933 -8.73069 123.927
13.2277 -5.1620898 121.906
9.3400202 -9.5797701 124.92
11.6026 -7.5334101 123.01
12.4604 -6.4872899 122.402
11.0509 -8.1825895 123.446
10.1865 -8.7056704 122.391
9.0561399 -9.5134897 123.442
7.9797602 -10.4253 125.082
9.5711403 -9.7404804 126.506
10.1933 -9.1572399 125.832
8.9457102 -10.2369 127.222
8.5470104 -9.9201698 124.125
8.7018204 -10.1282 125.655
12.2845 -6.9759898 124.132
11.1925 -8.2218704 124.971
11.8026 -7.6103201 124.53
13.5823 -4.5083098 121.784
14.044 -3.2695301 121.706
13.9021 -4.0479898 122.798
14.2305 -2.98158 122.602
13.6782 -4.56422 122.948
13.0348 -5.89854 123.543
14.4977 -1.54338 122.163
15.9289 0.017178999 129.899
14.7273 -3.2395599 131.271
14.3317 -4.2895098 130.53101
13.011 -6.5692701 128.465
12.9498 -6.7486901 128.981
11.6321 -8.1371098 127.492
12.4102 -7.1526799 126.513
12.8574 -6.5622702 126.095
13.182 -6.2704201 127.707
11.4076 -8.1540804 126.255
10.6848 -8.6580296 125.341
12.0043 -7.6378002 126.96
9.8656702 -9.11835 124.354
14.0403 -4.1515899 124.776
14.2187 -3.77403 125.38
13.7931 -4.60814 124.067
13.4399 -5.1745501 123.203
12.9445 -5.7624002 122.088
15.0704 -2.0311201 127.701
14.8664 -2.54374 127.167
14.6325 -3.0942299 126.64
14.5468 -3.41605 127.79
14.4973 -3.72032 128.09
14.4349 -4.01756 128.431
15.5834 -0.456361 127.42
15.2601 -1.36971 127.46
13.6739 -5.1036701 125.959
13.441 -5.4770398 125.439
13.1015 -5.9304099 124.751
12.6313 -6.4443302 123.835
12.0013 -7.0064998 122.696
7.4022799 -10.7994 125.485
8.0817604 -10.5941 126.327
8.3364 -10.8198 129.52699
9.4974499 -10.1701 129.957
8.2820702 -10.6918 127.909
12.3588 -7.6169 130.80701
12.9895 -6.8600202 131.47
13.4847 -6.1283598 132.129
11.5787 -8.4029703 130.44299
10.5602 -9.3139801 129.951
13.8859 -5.3990102 132.912
14.5438 0.79005402 121.898
14.6725 1.1622699 122.938
14.9372 1.63919 123.986
15.3667 2.2342501 125.479
16.5896 3.3333199 129.77699
16.013201 2.88399 127.484
1.32481 -4.7600198 151.45
1.64678 -5.2986202 151.461
1.03045 -6.3624401 150.136
1.11283 -5.7686 150.67999
1.44049 -5.0871401 151.466
1.70653 -6.2909999 150.272
1.81515 -5.1508498 151.813
1.4985 -4.56949 151.976
0.475012 -4.9677801 150.843
0.89718503 -5.6199298 150.55499
0.98417199 -5.2726798 150.77901
1.5174 -5.50559 151.15601
1.2882299 -5.2205701 151.164
1.17963 -4.89992 151.15199
0.52834499 -5.2410498 150.655
0.59987301 10.51 136.75
13.3454 -6.9207401 134.48
13.0305 -7.4450698 134.105
12.6591 -8.0108299 133.845
12.1949 -8.6275702 133.744
11.6422 -9.3185596 133.69299
10.9023 -10.0314 133.66
9.9873695 -10.7412 133.63
8.9716301 -11.3827 133.62801
7.7597699 -11.8177 133.694
6.6627302 -12.1429 133.89999
5.6026902 -12.4164 134.317
4.6512499 -12.6259 134.983
3.9635201 -12.7653 135.702
3.46455 -12.7355 136.33501
3.1946199 -12.7045 136.97701
4.5185299 -11.9178 142.01801
3.9652801 -12.1663 141.02901
3.56106 -12.3698 140.05099
3.2230799 -12.4936 139.12399
3.0829201 -12.5939 138.218
3.1015201 -12.668 137.405
13.5132 -6.2926798 133.798
13.1383 -6.8527098 133.17101
12.7015 -7.4846902 132.69
12.1622 -8.1662798 132.38901
11.4878 -8.8874798 132.22099
10.6821 -9.6468201 132.162
9.7270002 -10.3731 132.138
8.6400805 -11.0628 132.187
7.3295898 -11.632 132.342
6.0183401 -12.0224 132.73
4.8498101 -12.2381 133.42599
3.8187101 -12.3648 134.312
3.09284 -12.4495 135.27699
2.5940399 -12.4444 136.08501
2.3054099 -12.4178 136.763
2.16661 -12.3859 137.45
3.5941801 -11.353 142.963
2.88392 -11.6921 141.765
2.4644899 -11.9495 140.487
2.29707 -12.1843 139.32201
2.16992 -12.3039 138.308
8.1521797 -12.5223 139.619
7.7985101 -12.3363 140.29601
7.36728 -12.1088 141.07201
6.9056001 -11.8131 141.98
2.4552 -5.1202998 151.873
7.1961098 1.71981 157.58299
6.5304999 1.6213599 158.118
7.91429 1.82069 156.989
10.6555 2.0557699 155.245
9.7112904 2.01211 155.84
8.7751398 1.91451 156.396
12.5219 1.9744101 154.828
11.5623 2.04299 154.94901
13.586 1.83779 154.881
14.3884 -3.7014899 127.104
14.8645 -2.5306399 128.10201
14.6336 -3.1272199 127.585
0 -12.0784 129.436
0 -12.001 131.03101
0 -11.837 134.23
0 -11.8841 132.718
0 -11.7672 135.933
0 -11.6113 138.00301
0 -11.3345 139.239
0 -11.717 137.09599
0 -10.9421 140.67999
0 -9.8005896 143.94299
0 -10.4274 142.30099
0 -9.17836 145.14999
0 -6.21 149.98599
0 -5.4700098 150.431
0 -4.9121099 150.802
0 -5.2392402 150.59399
0 8.2492504 127.236
0 8.8264198 130.30099
-10.6811 -11.9805 136.339
-10.9728 -11.806 136.41701
-11.2431 -11.6272 136.52901
-11.4471 -11.4947 136.703
-11.5575 -11.4596 136.918
-11.6083 -11.4745 137.16
-11.5957 -11.533 137.411
-11.5051 -11.6391 137.673
-11.3257 -11.7822 137.916
-11.0772 -11.9423 138.116
-10.778 -12.1065 138.269
-10.4532 -12.2604 138.35899
-10.1314 -12.3954 138.38699
-9.8133202 -12.5112 138.35001
-9.5107098 -12.6124 138.258
-9.2256899 -12.6995 138.10899
-9.0008698 -12.7789 137.936
-8.8694401 -12.8301 137.66499
-8.8050098 -12.8543 137.37399
-8.8172102 -12.8542 137.08701
-8.8885803 -12.8313 136.81599
-9.0046501 -12.7792 136.59
-9.1760197 -12.6987 136.41
-9.45121 -12.586 136.30901
-9.7564001 -12.4636 136.258
-10.0697 -12.3164 136.254
-10.3801 -12.1487 136.287
10.3801 -12.1487 136.287
10.0697 -12.3164 136.254
9.7564001 -12.4636 136.258
9.45121 -12.586 136.30901
9.1760197 -12.6987 136.41
9.0046501 -12.7792 136.59
8.8885803 -12.8313 136.81599
8.8172102 -12.8542 137.08701
8.8050098 -12.8543 137.37399
8.8694401 -12.8301 137.66499
9.0008698 -12.7789 137.936
9.2256899 -12.6995 138.10899
9.5107098 -12.6124 138.258
9.8133202 -12.5112 138.35001
10.1314 -12.3954 138.38699
10.4532 -12.2604 138.35899
10.778 -12.1065 138.269
11.0772 -11.9423 138.116
11.3257 -11.7822 137.916
11.5051 -11.6391 137.673
11.5957 -11.533 137.411
11.6083 -11.4745 137.16
11.5575 -11.4596 136.918
11.4471 -11.4947 136.703
11.2431 -11.6272 136.52901
10.9728 -11.806 136.41701
10.6811 -11.9805 136.339
0 4.3655901 164.91299
0 6.2469802 158.55499
0 5.7381902 159.31
-1.12317 -4.1894202 153.88499
-1.7539901 -4.3685598 153.68201
-2.1428699 -4.5096002 153.645
-3.16238 -4.1150198 153.597
-4.5191102 -3.45926 153.944
-3.9260399 -4.1430402 152.765
-1.2647099 -4.2414999 152.189
-0.58566701 -4.3674898 151.254
-0.60959297 -3.8967099 152.612
-2.1024401 -4.8485398 152.62199
-3.0338299 -4.4804401 152.53799
-5.2196202 -2.6178899 155.25
-3.4449 -3.6998301 154.804
-2.41096 -4.2677398 154.724
-1.34436 -4.32689 154.748
-0.76882303 -4.4153299 154.72099
-0.67115003 -4.1744399 153.93201
-2.77795 -4.1037002 155.69501
-3.88937 -3.3496101 155.86501
-5.1454101 -2.2876899 156.325
-1.50064 -4.4597101 155.58701
-0.84242803 -4.7000599 155.492
0 -5.8825202 157.651
-2.1413 5.4204402 159.47301
-2.25769 4.8343 160.58099
-5.7261701 -0.68928701 162.19501
-5.7271199 -0.682311 161.011
-5.3648901 -0.035518002 161.11301
-5.4745998 0.038063999 162.326
-5.4063001 0.31233001 162.325
-4.8076501 -3.0736799 161.765
-5.6676998 -1.6756099 162.05
-5.2616801 1.10221 162.51801
-5.2635102 1.9306099 161.496
-5.15205 1.66278 162.66
-4.9204001 2.15065 162.80099
-4.8853598 2.6375401 161.62601
-4.5581002 2.68785 162.95
-3.92243 3.3203199 163.101
-2.9881401 3.84219 163.228
-1.94709 4.4875798 161.744
-1.83296 4.1786599 163.31
-0.822119 4.3229699 163.306
-0.31675801 4.6405201 161.815
-0.45133799 5.0589499 160.62
-0.45682001 5.6909099 159.32401
-0.45956001 6.1893401 158.59399
-0.72734499 -6.5694399 159.13
-1.3284301 -6.0521798 159.202
-2.4614899 -4.8088899 159.61301
-3.4992001 -4.0489402 160.00101
-4.0219898 -3.7447 160.106
-4.4943399 -3.2795501 160.231
-4.4646401 -3.12796 158.605
-4.9320502 -2.4418399 158.791
-0.77507502 -5.69557 157.666
-0.70356601 -6.20049 158.582
-1.03975 -5.5005898 157.683
-1.1855201 -5.7779102 158.61301
-2.10304 -4.5461302 157.961
-2.25386 -4.6951399 158.858
-3.5313599 -3.87567 158.315
-3.7895701 -3.8239501 159.22701
-5.37748 -1.89209 158.993
-5.50142 -1.82076 159.897
-5.6059098 -0.80680799 159.34399
-5.61342 -0.71719003 160.158
-5.50564 0.129162 159.48599
-5.4985199 -0.084169 160.254
-5.53936 0.63358402 159.70599
-5.42907 0.491667 160.397
-5.6266098 1.65487 160.034
-5.4460001 1.5042 160.69901
-5.7880301 2.25122 160.19901
-5.45928 2.13658 160.862
-5.6160498 2.9511499 160.20799
-5.1940598 2.80445 160.828
-5.0743599 3.8801999 160.108
-4.58641 3.55304 160.80701
-3.60447 4.3649998 160.718
-0.76586998 4.31075 164.091
-1.76326 4.1846099 164.05499
-2.8949399 3.86889 163.965
-3.8324101 3.40113 163.834
-4.474 2.7828 163.67799
-4.8696799 2.1982999 163.515
-5.1210098 1.6337399 163.356
-5.30264 1.0122401 163.19901
-5.5051999 0.23244999 162.992
-5.5452099 0.063813001 162.987
-5.7414799 -0.79357499 162.84599
-5.68154 -1.64656 162.724
-5.0299802 -2.91835 162.5
-4.5246902 -3.44066 162.28799
-4.3488898 -3.5745001 161.59399
-3.4646201 -4.4030399 161.866
-3.37711 -4.4016299 161.321
-2.77405 -5.0878701 161.578
-2.7148199 -5.0756001 161.043
-2.15341 -5.8049502 161.10201
-2.05582 -5.7736402 160.597
-1.63538 -6.3811202 160.72501
-1.5359401 -6.4422002 160.25999
-0.82517898 -7.0218101 160.48199
-0.81993401 -7.0097899 160.08701
-0.67547297 4.3692002 164.922
-1.7000099 4.2346501 164.867
-2.80516 3.9484 164.776
-3.7535 3.5088601 164.64999
-4.41397 2.9080801 164.495
-4.8382502 2.2965901 164.32201
-5.19591 1.63304 164.136
-5.4340701 0.95895201 163.938
-5.6785698 0.15513299 163.67
-5.8165398 -0.730169 163.435
-5.7233601 -1.66408 163.32899
-5.1869202 -2.7281301 163.177
-5.17487 2.1837499 161.586
-0.99488699 4.6134501 161.83701
-5.2874799 0.41514301 161.205
-5.2649698 1.32388 161.356
-5.5886898 -1.7564 160.72099
-4.6402998 -3.3582599 162.888
-3.2778699 4.0809102 161.73599
-4.2505498 3.2939401 161.698
-3.54877 -4.50775 162.282
-2.8401999 -5.1820102 161.97301
-2.23892 -5.8942699 161.57401
-1.70709 -6.4751501 161.177
-0.83679801 -7.08641 160.838
-1.0861 5.6111498 159.37
-1.0664099 6.0536699 158.71001
-1.0509599 4.9948902 160.63
-0.83582997 -5.2506099 156.735
-5.6028299 0.368588 158.89101
-5.6940098 0.799766 159.06
-6.17907 2.41131 159.729
-5.8987298 1.77345 159.44501
-5.9906602 3.17889 159.79201
-1.53171 5.9450898 158.80499
-1.57383 5.5155602 159.45599
-1.70965 4.9376101 160.62
-4.72823 -2.55827 157.879
-4.4254799 -2.96731 157.77299
-1.8997101 -4.5661201 157.058
-3.2925501 -3.9519899 157.416
-5.2539701 -1.97725 158.12601
-5.64012 -0.85374999 158.52699
0 4.3424702 164.10201
0 4.3149199 163.28999
0 4.6255498 161.804
0 -6.7762599 159.117
0 -7.152 160.12
0 -7.1498299 160.493
0 -7.1845798 160.82001
-0.147038 4.4370098 162.603
-1.8462 4.3125801 162.59801
-3.1549499 3.92941 162.547
-4.0891199 3.2578499 162.46201
-4.7105999 2.5952101 162.34
-5.0138898 2.1427 162.235
-5.1925998 1.78192 162.11501
-5.2625499 1.18873 161.95399
-5.3399701 0.36761799 161.81
-5.41396 0.0045960001 161.76199
-5.7427001 -0.69878399 161.662
-5.6226802 -1.67018 161.435
-4.7113299 -3.12696 161.061
-4.2298002 -3.6719401 160.903
-3.22032 -4.3611002 160.638
-2.60865 -4.9924798 160.338
-1.43504 -6.3140702 159.745
-0.775738 -6.8492699 159.62601
0 -7.0311699 159.632
-0.88317901 4.4202099 162.61301
0 4.4238901 162.59801
-6.2641001 1.8642 158.94501
-5.9665198 0.940718 158.39101
-5.82234 0.49367401 158.134
-5.7013698 -0.340074 157.828
-5.7041001 -0.91225398 157.69099
-5.1753302 -2.0697501 157.25
-4.1671801 -3.13885 156.838
-3.0553601 -4.0396199 156.567
-1.74763 -4.5187001 156.32201
-0.86564398 -4.9930902 156.105
-5.5201702 -0.245113 159.45799
-5.5810399 -0.31123501 158.65199
-5.5404401 -1.71591 156.595
-5.5409999 -1.55283 157.49899
-5.5355601 -1.4567699 158.339
-5.5671802 -1.38967 159.187
-5.65938 -1.31973 160.07201
-5.6984901 -1.19529 160.88
-5.7500901 -1.10302 161.57899
-5.7729602 -0.99454802 162.15199
-4.6117001 -3.0825801 154.99899
-4.6890402 -2.7467599 156.101
-4.79775 -2.4874799 157.063
-4.9556298 -2.35864 157.96001
-5.1147399 -2.2725401 158.856
-5.2800598 -2.2209001 159.765
-5.3757901 -2.1368101 160.59599
-5.4800601 -2.0281501 161.349
-5.5338998 -1.94608 161.99699
-4.5549798 -2.7121301 156.96899
-4.37883 -2.9786301 155.98199
-4.20402 -3.2773099 154.908
-4.0027099 -3.7051499 153.819
-2.3266499 -4.23774 155.66499
-2.0279601 -4.28056 154.72701
-3.29723 -4.0665898 159.129
-3.0494599 -4.09654 158.215
-2.8317399 -4.1743498 157.32401
-4.08183 -3.9652801 162.564
-4.0123401 -3.94087 162.071
-3.8735001 -3.97666 161.455
-3.7260699 -4.0422301 160.77901
-2.6033101 -4.2330399 156.498
-1.77188 -5.5151701 159.36301
-1.6201299 -5.3143201 158.72
-1.44418 -5.16429 157.80299
-1.2647099 -5.0159798 156.867
-1.92272 -5.7063699 159.98199
-1.1164 -4.8877001 156.18401
-0.90117401 -6.0540099 158.59
-1.02858 -6.3604698 159.15199
-1.2224801 -6.7817502 160.562
-1.25686 -6.8717999 160.96899
-1.20999 -6.76297 160.149
-1.1397099 -6.6287899 159.67101
-0.393767 -4.4408598 154.759
-0.40777099 -4.7726998 155.48801
-0.33495101 -4.1934099 153.985
-0.23127501 -3.84358 152.655
-0.403487 -5.3821301 156.731
-0.38529399 -5.8155398 157.647
-0.38095099 -6.3404002 158.571
-0.377267 -6.7048702 159.119
-0.414877 -7.1241798 160.479
-0.41884401 -7.1614599 160.814
-0.41139901 -7.10777 160.101
-0.405947 -6.9679699 159.625
-0.42118999 -5.0997901 156.117
-1.97128 -4.21136 155.625
-1.73636 -4.23628 154.73599
-1.46997 -4.21104 153.787
-0.98613501 -4.0525498 152.44501
-0.25644699 -4.0343599 151.63699
-3.0507801 -4.2632699 159.87601
-2.86485 -4.1852698 159.03
-2.6419101 -4.1553001 158.093
-2.42313 -4.1924601 157.192
-2.23648 -4.2221899 156.408
-2.75968 -4.19063 154.744
-3.1777501 -3.91119 155.754
-2.8570199 -4.3541799 153.62
-2.40488 -4.74264 152.563
-4.2536201 -3.4233201 159.367
-3.7343099 -3.6686201 157.539
-3.99822 -3.55914 158.455
-3.49632 -3.7715499 156.657
-5.0964298 -2.3982999 159.68401
-5.1595101 -2.4434199 160.515
-5.3780398 -2.2206099 161.287
-4.7367401 -2.9006701 159.54201
-4.9295702 -2.7313001 160.40199
-5.5883999 -2.0065801 162.694
-5.4189501 -2.2820499 161.94901
-5.17485 -2.5383 161.22301
-5.7333598 0.075432003 157.937
-5.5886898 0.063763998 158.776
-0.121866 -3.8724501 152.30701
-0.347662 -3.9044099 152.20799
-0.70778501 -4.0236001 151.979
-1.0069799 -4.2681499 151.709
-0.63196999 -4.0107799 153.269
-0.27887699 -3.99788 153.31599
-0.92554802 -4.0693202 153.19
-1.23927 -4.1540298 153.01401
-1.8538899 -4.7794299 152.66
-1.52974 -4.3086801 152.82401
-2.3995299 -4.53686 153.653
-3.2241001 -3.91729 154.783
-3.60396 -3.5855899 155.817
-4.1887102 -3.2741899 157.685
-3.9068501 -3.4000101 156.761
-1.67112 -4.4317698 152.71899
-0.266166 -4.3914099 151.19501
-0.73295599 -4.3629298 151.37601
-4.9310999 -2.6631501 159.603
-4.6907701 -2.8306899 158.687
-5.5756202 -2.12345 163.341
-5.37814 -2.4339299 162.64301
-5.0861602 -2.7313001 161.84399
-2.5744901 -4.6918001 152.578
-5.4061999 0.99524301 160.577
-5.2684798 0.853769 161.276
-5.7372899 1.25721 159.27901
-5.52422 1.13282 159.90401
-5.4498501 0.47811699 163.052
-5.6501899 0.312298 163.728
-5.34761 0.60878301 162.375
-5.2743101 0.71240002 161.86301
-6.04145 1.41696 158.65601
1.12317 -4.1894202 153.88499
1.7539901 -4.3685598 153.68201
2.1428699 -4.5096002 153.645
3.16238 -4.1150198 153.597
4.5191102 -3.45926 153.944
3.9260399 -4.1430402 152.765
1.2647099 -4.2414999 152.189
0.58566701 -4.3674898 151.254
0.60959297 -3.8967099 152.612
2.1024401 -4.8485398 152.62199
3.0338299 -4.4804401 152.53799
5.2196202 -2.6178899 155.25
3.4449 -3.6998301 154.804
2.41096 -4.2677398 154.724
1.34436 -4.32689 154.748
0.76882303 -4.4153299 154.72099
0.67115003 -4.1744399 153.93201
2.77795 -4.1037002 155.69501
3.88937 -3.3496101 155.86501
5.1454101 -2.2876899 156.325
1.50064 -4.4597101 155.58701
0.84242803 -4.7000599 155.492
2.1413 5.4204402 159.47301
2.25769 4.8343 160.58099
5.7261701 -0.68928701 162.19501
5.7271199 -0.682311 161.011
5.3648901 -0.035518002 161.11301
5.4745998 0.038063999 162.326
5.4063001 0.31233001 162.325
4.8076501 -3.0736799 161.765
5.6676998 -1.6756099 162.05
5.2616801 1.10221 162.51801
5.2635102 1.9306099 161.496
5.15205 1.66278 162.66
4.9204001 2.15065 162.80099
4.8853598 2.6375401 161.62601
4.5581002 2.68785 162.95
3.92243 3.3203199 163.101
2.9881401 3.84219 163.228
1.94709 4.4875798 161.744
1.83296 4.1786599 163.31
0.822119 4.3229699 163.306
0.31675801 4.6405201 161.815
0.45133799 5.0589499 160.62
0.45682001 5.6909099 159.32401
0.45956001 6.1893401 158.59399
0.72734499 -6.5694399 159.13
1.3284301 -6.0521798 159.202
2.4614899 -4.8088899 159.61301
3.4992001 -4.0489402 160.00101
4.0219898 -3.7447 160.106
4.4943399 -3.2795501 160.231
4.4646401 -3.12796 158.605
4.9320502 -2.4418399 158.791
0.77507502 -5.69557 157.666
0.70356601 -6.20049 158.582
1.03975 -5.5005898 157.683
1.1855201 -5.7779102 158.61301
2.10304 -4.5461302 157.961
2.25386 -4.6951399 158.858
3.5313599 -3.87567 158.315
3.7895701 -3.8239501 159.22701
5.37748 -1.89209 158.993
5.50142 -1.82076 159.897
5.6059098 -0.80680799 159.34399
5.61342 -0.71719003 160.158
5.50564 0.129162 159.48599
5.4985199 -0.084169 160.254
5.53936 0.63358402 159.70599
5.42907 0.491667 160.397
5.6266098 1.65487 160.034
5.4460001 1.5042 160.69901
5.7880301 2.25122 160.19901
5.45928 2.13658 160.862
5.6160498 2.9511499 160.20799
5.1940598 2.80445 160.828
5.0743599 3.8801999 160.108
4.58641 3.55304 160.80701
3.60447 4.3649998 160.718
0.76586998 4.31075 164.091
1.76326 4.1846099 164.05499
2.8949399 3.86889 163.965
3.8324101 3.40113 163.834
4.474 2.7828 163.67799
4.8696799 2.1982999 163.515
5.1210098 1.6337399 163.356
5.30264 1.0122401 163.19901
5.5051999 0.23244999 162.992
5.5452099 0.063813001 162.987
5.7414799 -0.79357499 162.84599
5.68154 -1.64656 162.724
5.0299802 -2.91835 162.5
4.5246902 -3.44066 162.28799
4.3488898 -3.5745001 161.59399
3.4646201 -4.4030399 161.866
3.37711 -4.4016299 161.321
2.77405 -5.0878701 161.578
2.7148199 -5.0756001 161.043
2.15341 -5.8049502 161.10201
2.05582 -5.7736402 160.597
1.63538 -6.3811202 160.72501
1.5359401 -6.4422002 160.25999
0.82517898 -7.0218101 160.48199
0.81993401 -7.0097899 160.08701
0.67547297 4.3692002 164.922
1.7000099 4.2346501 164.867
2.80516 3.9484 164.776
3.7535 3.5088601 164.64999
4.41397 2.9080801 164.495
4.8382502 2.2965901 164.32201
5.19591 1.63304 164.136
5.4340701 0.95895201 163.938
5.6785698 0.15513299 163.67
5.8165398 -0.730169 163.435
5.7233601 -1.66408 163.32899
5.1869202 -2.7281301 163.177
5.17487 2.1837499 161.586
0.99488699 4.6134501 161.83701
5.2874799 0.41514301 161.205
5.2649698 1.32388 161.356
5.5886898 -1.7564 160.72099
4.6402998 -3.3582599 162.888
3.2778699 4.0809102 161.73599
4.2505498 3.2939401 161.698
3.54877 -4.50775 162.282
2.8401999 -5.1820102 161.97301
2.23892 -5.8942699 161.57401
1.70709 -6.4751501 161.177
0.83679801 -7.08641 160.838
1.0861 5.6111498 159.37
1.0664099 6.0536699 158.71001
1.0509599 4.9948902 160.63
0.83582997 -5.2506099 156.735
5.6028299 0.368588 158.89101
5.6940098 0.799766 159.06
6.17907 2.41131 159.729
5.8987298 1.77345 159.44501
5.9906602 3.17889 159.79201
1.53171 5.9450898 158.80499
1.57383 5.5155602 159.45599
1.70965 4.9376101 160.62
4.72823 -2.55827 157.879
4.4254799 -2.96731 157.77299
1.8997101 -4.5661201 157.058
3.2925501 -3.9519899 157.416
5.2539701 -1.97725 158.12601
5.64012 -0.85374999 158.52699
0.147038 4.4370098 162.603
1.8462 4.3125801 162.59801
3.1549499 3.92941 162.547
4.0891199 3.2578499 162.46201
4.7105999 2.5952101 162.34
5.0138898 2.1427 162.235
5.1925998 1.78192 162.11501
5.2625499 1.18873 161.95399
5.3399701 0.36761799 161.81
5.41396 0.0045960001 161.76199
5.7427001 -0.69878399 161.662
5.6226802 -1.67018 161.435
4.7113299 -3.12696 161.061
4.2298002 -3.6719401 160.903
3.22032 -4.3611002 160.638
2.60865 -4.9924798 160.338
1.43504 -6.3140702 159.745
0.775738 -6.8492699 159.62601
0.88317901 4.4202099 162.61301
6.2641001 1.8642 158.94501
5.9665198 0.940718 158.39101
5.82234 0.49367401 158.134
5.7013698 -0.340074 157.828
5.7041001 -0.91225398 157.69099
5.1753302 -2.0697501 157.25
4.1671801 -3.13885 156.838
3.0553601 -4.0396199 156.567
1.74763 -4.5187001 156.32201
0.86564398 -4.9930902 156.105
5.5201702 -0.245113 159.45799
5.5810399 -0.31123501 158.65199
5.5404401 -1.71591 156.595
5.5409999 -1.55283 157.49899
5.5355601 -1.4567699 158.339
5.5671802 -1.38967 159.187
5.65938 -1.31973 160.07201
5.6984901 -1.19529 160.88
5.7500901 -1.10302 161.57899
5.7729602 -0.99454802 162.15199
4.6117001 -3.0825801 154.99899
4.6890402 -2.7467599 156.101
4.79775 -2.4874799 157.063
4.9556298 -2.35864 157.96001
5.1147399 -2.2725401 158.856
5.2800598 -2.2209001 159.765
5.3757901 -2.1368101 160.59599
5.4800601 -2.0281501 161.349
5.5338998 -1.94608 161.99699
4.5549798 -2.7121301 156.96899
4.37883 -2.9786301 155.98199
4.20402 -3.2773099 154.908
4.0027099 -3.7051499 153.819
2.3266499 -4.23774 155.66499
2.0279601 -4.28056 154.72701
3.29723 -4.0665898 159.129
3.0494599 -4.09654 158.215
2.8317399 -4.1743498 157.32401
4.08183 -3.9652801 162.564
4.0123401 -3.94087 162.071
3.8735001 -3.97666 161.455
3.7260699 -4.0422301 160.77901
2.6033101 -4.2330399 156.498
1.77188 -5.5151701 159.36301
1.6201299 -5.3143201 158.72
1.44418 -5.16429 157.80299
1.2647099 -5.0159798 156.867
1.92272 -5.7063699 159.98199
1.1164 -4.8877001 156.18401
0.90117401 -6.0540099 158.59
1.02858 -6.3604698 159.15199
1.2224801 -6.7817502 160.562
1.25686 -6.8717999 160.96899
1.20999 -6.76297 160.149
1.1397099 -6.6287899 159.67101
0.393767 -4.4408598 154.759
0.40777099 -4.7726998 155.48801
0.33495101 -4.1934099 153.985
0.23127501 -3.84358 152.655
0.403487 -5.3821301 156.731
0.38529399 -5.8155398 157.647
0.38095099 -6.3404002 158.571
0.377267 -6.7048702 159.119
0.414877 -7.1241798 160.479
0.41884401 -7.1614599 160.814
0.41139901 -7.10777 160.101
0.405947 -6.9679699 159.625
0.42118999 -5.0997901 156.117
1.97128 -4.21136 155.625
1.73636 -4.23628 154.73599
1.46997 -4.21104 153.787
0.98613501 -4.0525498 152.44501
0.25644699 -4.0343599 151.63699
3.0507801 -4.2632699 159.87601
2.86485 -4.1852698 159.03
2.6419101 -4.1553001 158.093
2.42313 -4.1924601 157.192
2.23648 -4.2221899 156.408
2.75968 -4.19063 154.744
3.1777501 -3.91119 155.754
2.8570199 -4.3541799 153.62
2.40488 -4.74264 152.563
4.2536201 -3.4233201 159.367
3.7343099 -3.6686201 157.539
3.99822 -3.55914 158.455
3.49632 -3.7715499 156.657
5.0964298 -2.3982999 159.68401
5.1595101 -2.4434199 160.515
5.3780398 -2.2206099 161.287
4.7367401 -2.9006701 159.54201
4.9295702 -2.7313001 160.40199
5.5883999 -2.0065801 162.694
5.4189501 -2.2820499 161.94901
5.17485 -2.5383 161.22301
5.7333598 0.075432003 157.937
5.5886898 0.063763998 158.776
0.121866 -3.8724501 152.30701
0.347662 -3.9044099 152.20799
0.70778501 -4.0236001 151.979
1.0069799 -4.2681499 151.709
0.63196999 -4.0107799 153.269
0.27887699 -3.99788 153.31599
0.92554802 -4.0693202 153.19
1.23927 -4.1540298 153.01401
1.8538899 -4.7794299 152.66
1.52974 -4.3086801 152.82401
2.3995299 -4.53686 153.653
3.2241001 -3.91729 154.783
3.60396 -3.5855899 155.817
4.1887102 -3.2741899 157.685
3.9068501 -3.4000101 156.761
1.67112 -4.4317698 152.71899
0.266166 -4.3914099 151.19501
0.73295599 -4.3629298 151.37601
4.9310999 -2.6631501 159.603
4.6907701 -2.8306899 158.687
5.5756202 -2.12345 163.341
5.37814 -2.4339299 162.64301
5.0861602 -2.7313001 161.84399
2.5744901 -4.6918001 152.578
5.4061999 0.99524301 160.577
5.2684798 0.853769 161.276
5.7372899 1.25721 159.27901
5.52422 1.13282 159.90401
5.4498501 0.47811699 163.052
5.6501899 0.312298 163.728
5.34761 0.60878301 162.375
5.2743101 0.71240002 161.86301
6.04145 1.41696 158.65601
0 -3.9172699 151.886
0 -3.8453801 152.666
0 -4.37817 151.18201
0 -4.48385 154.783
0 -4.20261 154.006
0 -4.0795698 151.532
0 -3.86799 152.306
0 -3.9888101 153.306
0 -4.8269801 155.511
0 -6.4135499 158.561
0 -5.44134 156.73801
0 -5.1674299 156.13699
0 5.0383701 160.614
0 -7.43434 161.49001
-6.0908999 -0.51543403 165.16
-5.9259701 0.44898701 165.33
-5.9154601 -1.60429 164.85201
-1.68259 -7.7714701 162.037
-2.1721101 -7.47089 162.299
-1.3608299 -7.3705001 161.813
-1.92591 -7.1487098 162.125
-0.72329301 -7.81954 161.85699
-1.30085 -7.8452101 161.92799
-0.73738903 -7.34658 161.517
-0.72815698 -7.4939799 161.67101
-1.32172 -7.1876998 161.681
-1.79787 -6.9784598 161.95399
-2.4083099 -6.4437599 162.379
-2.5483201 -6.60816 162.52299
-3.00506 -5.9222898 162.66499
-3.10289 -6.0688601 162.78
-5.68923 1.21573 165.528
-5.3327799 1.86818 165.70399
-4.4331102 3.1325901 166.097
-4.9301801 2.51806 165.907
-3.7381401 3.71507 166.254
-1.5312099 4.5844598 166.564
-2.6642699 4.1811199 166.38699
0 -7.78969 161.826
-3.7931299 3.9834399 166.85201
-2.61062 4.4868798 166.957
-5.8038502 1.43048 166.272
-6.0556402 0.66793901 166.146
-5.05193 2.7486401 166.58099
-5.4389 2.1517401 166.414
-4.5042901 3.4077899 166.743
-6.2764201 -0.336263 166.17599
-6.0703201 -1.4001 166.15401
-5.98874 -1.5498101 165.35899
-6.1374302 -0.48050401 165.397
-1.5973099 -8.0081501 162.02699
-2.35884 -7.0542402 162.44
-2.65695 -6.7831702 162.591
-2.8097401 -6.3545399 162.636
-1.77574 -7.5004201 162.06599
-2.05165 -7.3104401 162.237
-2.2281201 -6.8936701 162.33701
-1.42794 -7.6242199 161.91701
-1.50025 -7.8186102 161.976
-1.03257 -7.6362901 161.82401
-1.28545 -7.6438999 161.877
-1.5583 -7.5946898 161.965
-1.05764 -8.0261202 161.923
-1.03721 -7.8316002 161.886
-0.37789801 -7.6634302 161.774
-0.72220999 -7.6522102 161.786
-1.06559 -7.4481401 161.73399
-0.37832299 -7.9514298 161.884
-0.379235 -7.8047299 161.842
0 -7.6809802 161.776
-0.362124 -7.5229802 161.65401
-1.80417 -7.93648 162.09399
-1.3588099 -8.0559397 161.96899
-0.72781801 -7.9890299 161.897
0 -7.91078 161.87
-1.6419899 -7.3242202 161.951
-1.90476 -7.6651802 162.14101
-0.367028 -7.3991098 161.505
-1.1103801 -7.2508001 161.599
-1.50858 -7.1213002 161.778
-2.0413599 -6.7589502 162.138
-2.6421001 -6.22645 162.487
-3.23685 -5.67908 162.776
6.0908999 -0.51543403 165.16
5.9259701 0.44898701 165.33
5.9154601 -1.60429 164.85201
1.68259 -7.7714701 162.037
2.1721101 -7.47089 162.299
1.3608299 -7.3705001 161.813
1.92591 -7.1487098 162.125
0.72329301 -7.81954 161.85699
1.30085 -7.8452101 161.92799
0.73738903 -7.34658 161.517
0.72815698 -7.4939799 161.67101
1.32172 -7.1876998 161.681
1.79787 -6.9784598 161.95399
2.4083099 -6.4437599 162.379
2.5483201 -6.60816 162.52299
3.00506 -5.9222898 162.66499
3.10289 -6.0688601 162.78
5.68923 1.21573 165.528
5.3327799 1.86818 165.70399
4.4331102 3.1325901 166.097
4.9301801 2.51806 165.907
3.7381401 3.71507 166.254
1.5312099 4.5844598 166.564
2.6642699 4.1811199 166.38699
3.7931299 3.9834399 166.85201
2.61062 4.4868798 166.957
5.8038502 1.43048 166.272
6.0556402 0.66793901 166.146
5.05193 2.7486401 166.58099
5.4389 2.1517401 166.414
4.5042901 3.4077899 166.743
6.2764201 -0.336263 166.17599
6.0703201 -1.4001 166.15401
5.98874 -1.5498101 165.35899
6.1374302 -0.48050401 165.397
1.5973099 -8.0081501 162.02699
2.35884 -7.0542402 162.44
2.65695 -6.7831702 162.591
2.8097401 -6.3545399 162.636
1.77574 -7.5004201 162.06599
2.05165 -7.3104401 162.237
2.2281201 -6.8936701 162.33701
1.42794 -7.6242199 161.91701
1.50025 -7.8186102 161.976
1.03257 -7.6362901 161.82401
1.28545 -7.6438999 161.877
1.5583 -7.5946898 161.965
1.05764 -8.0261202 161.923
1.03721 -7.8316002 161.886
0.37789801 -7.6634302 161.774
0.72220999 -7.6522102 161.786
1.06559 -7.4481401 161.73399
0.37832299 -7.9514298 161.884
0.379235 -7.8047299 161.842
0.362124 -7.5229802 161.65401
1.80417 -7.93648 162.09399
1.3588099 -8.0559397 161.96899
0.72781801 -7.9890299 161.897
1.6419899 -7.3242202 161.951
1.90476 -7.6651802 162.14101
0.367028 -7.3991098 161.505
1.1103801 -7.2508001 161.599
1.50858 -7.1213002 161.778
2.0413599 -6.7589502 162.138
2.6421001 -6.22645 162.487
3.23685 -5.67908 162.776
0 -7.5422201 161.66
0 -7.2197099 161.07201
0.829512 -7.12325 161.149
1.29196 -6.9686999 161.356
1.8006099 -6.63657 161.687
2.3568299 -6.08003 162.10001
2.9561501 -5.4981298 162.40401
3.6210499 -4.7464199 162.73801
4.1813898 -4.0808301 163.054
4.7465901 -3.3995399 163.452
5.3113198 -2.5862401 163.87
5.7758098 -1.65317 164.131
5.94384 -0.65805799 164.325
5.8105602 0.29017201 164.485
5.5776401 1.00376 164.69901
5.2167101 1.70503 164.903
4.8368602 2.3902299 165.112
4.3675399 3.04071 165.311
3.68415 3.61327 165.48399
2.71138 4.0444298 165.62399
1.63375 4.3315001 165.728
0.56721097 4.4463501 165.80701
0 4.4464998 165.799
-0.56721097 4.4463501 165.80701
-1.63375 4.3315001 165.728
-2.71138 4.0444298 165.62399
-3.68415 3.61327 165.48399
-4.3675399 3.04071 165.311
-4.8368602 2.3902299 165.112
-5.2167101 1.70503 164.903
-5.5776401 1.00376 164.69901
-5.8105602 0.29017201 164.485
-5.94384 -0.65805799 164.325
-5.7758098 -1.65317 164.131
-5.3113198 -2.5862401 163.87
-4.7465901 -3.3995399 163.452
-4.1813898 -4.0808301 163.054
-3.6210499 -4.7464199 162.73801
-2.9561501 -5.4981298 162.40401
-2.3568299 -6.08003 162.10001
-1.8006099 -6.63657 161.687
-1.29196 -6.9686999 161.356
-0.829512 -7.12325 161.149
-0.40958801 -7.1875701 161.084
0.40958801 -7.1875701 161.084
-0.209593 -12.7647 164.81799
-0.56523103 -12.7429 164.74699
-0.92320001 -12.6654 164.683
-1.2722 -12.5399 164.61099
-1.69261 -12.3542 164.521
-2.1986101 -12.1034 163.942
-2.22138 -11.5848 162.19701
-2.0225201 -11.3306 161.83099
-1.77833 -11.0926 161.659
-1.22932 -10.7506 161.511
-0.98325598 -11.1336 161.44701
-0.50629503 -11.7265 161.42799
-0.24579599 -11.7168 161.42101
-1.7330101 -12.6069 163.401
-1.25458 -12.8703 163.50301
-1.26108 -12.8111 162.76401
-1.7708 -12.5071 162.73
-1.21146 -12.61 162.201
-1.6919301 -12.2549 162.16299
-1.15171 -12.3403 161.819
-1.57171 -11.9936 161.783
-1.0405 -11.9964 161.55099
-1.3914599 -11.6207 161.543
-0.43776101 -13.0565 162.864
-0.849195 -12.9719 162.828
-0.412543 -13.1152 163.317
-0.19425499 -13.1339 163.356
-0.198956 -12.928 162.481
-0.41734201 -12.9289 162.507
-0.102876 -13.0979 162.976
-0.103566 -13.0332 162.746
-0.19184799 -13.0694 163.849
-0.430336 -13.0591 163.8
-0.73253 -12.2071 161.589
-0.79929799 -12.5109 161.85899
-0.445106 -12.5809 161.888
-0.45843601 -12.3026 161.604
-0.21923199 -12.6034 161.884
-0.233399 -12.3326 161.60001
-0.206118 -12.7907 162.198
-0.184921 -12.7906 164.446
-0.84942102 -13.008 163.586
-1.67094 -12.4754 164.04601
-1.23322 -12.6597 164.187
-0.88374197 -12.7578 164.29601
-0.499062 -12.7916 164.377
-0.81444299 -12.7602 162.27
-0.42685899 -12.7811 162.209
-0.13707501 -13.0662 162.854
-0.19270401 -13.1146 163.103
-0.194616 -13.0006 162.65401
-0.246539 -13.0599 162.855
0 5.46626 167.739
0 -8.0489397 161.894
0 -10.8587 181.14
0 3.7461901 181.808
0 -8.98594 182.668
0 -5.8322601 183.701
0 6.1570601 168.985
0 -8.6534204 161.86099
-5.52246 -10.2521 174.86501
-5.4387298 -10.3969 174.651
-2.3329501 -11.8139 166.08299
-3.0350001 -11.8747 167.035
-2.9667301 -11.9262 166.90601
-3.0439799 -11.8487 166.76601
-3.12374 -11.7965 166.85001
-1.4135799 -12.9578 168.804
-1.36772 -12.8612 168.73801
-1.4532 -12.7675 168.842
-1.49208 -12.8508 168.91499
-1.1018 -14.0742 169.43201
-1.09981 -14.0097 169.591
-1.56012 -12.8329 169.21001
-1.54766 -12.7118 169.086
-1.46392 -13.0012 169.64301
-1.51127 -13.1307 169.46001
-1.5591201 -12.7173 169.31
-1.28373 -13.3529 169.836
-1.40485 -12.7256 168.651
-1.65116 -12.563 168.55299
-1.48311 -12.6452 168.746
-1.44423 -12.6942 168.79201
-1.35551 -12.7845 168.68401
-1.53345 -12.9719 169.071
-1.48311 -13.1014 168.94701
-1.52124 -13.2535 169.287
-1.49009 -13.3576 169.147
-1.3428 -13.6966 169.325
-7.7527499 -1.7132601 169.631
-7.55021 -2.10952 169.267
-7.7322602 -1.66093 169.472
-8.1601 -1.23588 173.89
-7.9565001 -1.62524 173.72
-8.0661497 -1.21022 173.85899
-7.9089999 -1.12806 169.68201
-7.9152398 -1.18344 169.80499
-8.07722 -0.55502099 170.071
-8.0734901 -0.64354497 170.14301
-8.1756601 -0.078484997 170.72301
-8.1537399 -0.178774 170.731
-8.3060198 0.31237099 171.61301
-8.2701302 0.20904399 171.61
-8.3935299 0.34612599 172.375
-8.3614902 0.27514899 172.347
-8.4569101 0.21180201 173.089
-8.4083099 0.116792 173.021
-8.4786596 -0.141293 173.507
-8.41716 -0.203509 173.44901
-8.3285704 -0.722893 173.815
-8.2148199 -0.72322899 173.786
-1.30381 -12.9012 170.604
-1.63788 -12.5383 170.37399
-1.6947 -12.4029 170.658
-2.10566 -12.185 169.994
-2.2053499 -12.0489 170.396
-0.954512 -13.2476 168.692
-1.03501 -13.1984 168.662
-1.1439199 -13.0187 168.61099
-1.23439 -12.969 168.64301
-1.28249 -13.0611 168.703
-1.5406801 -12.6114 169.054
-1.56111 -12.6111 169.39
-1.43002 -12.9078 169.761
-1.67326 -12.4378 169.56599
-1.60597 -12.4823 169.48199
-2.2903299 -12.0485 169.21899
-2.4236801 -11.9915 169.474
-1.04299 -13.0362 168.283
-0.37059 -13.5133 168.116
-0.44111899 -13.483 167.894
-0.25495201 -13.522 168.08099
-0.31152499 -13.4897 167.87
-1.5513999 -12.5438 169.039
-1.60373 -12.4752 169.01401
-7.04181 -3.33376 171.815
-6.9725299 -3.8524301 171.575
-7.0082302 -3.4198799 171.48399
-1.3595999 -11.9086 171.86301
-1.74333 -12.026 171.231
-1.60569 -11.8015 171.673
-2.24423 -11.9499 170.65401
-1.71738 -12.2498 170.924
-2.8294001 -11.6893 170.552
-3.4634099 -11.4473 170.548
-4.0852199 -11.2009 170.636
-4.5562501 -10.9815 170.76801
-4.8680201 -10.7919 170.879
-5.2328801 -10.4679 171.07401
-5.5750599 -10.0562 171.24699
-5.2072001 -10.278 171.651
-5.3019099 -10.439 170.59
-4.7322001 -10.8746 170.414
-4.0939498 -11.1819 170.20799
-3.44646 -11.477 170.23199
-2.77283 -11.772 170.214
-3.6515801 -11.383 178.15401
-4.2582002 -10.9357 177.98
-4.88587 -10.1675 178.142
-5.4918599 -9.4802303 177.638
-3.7079999 -11.1865 178.664
-4.2964802 -10.7354 178.467
-2.9470999 -11.7528 178.258
-2.9956501 -11.5467 178.76801
-4.8131599 -10.5154 177.29601
-4.7947502 -10.6443 176.923
-5.3664598 -10.0103 176.51199
-3.5907099 -11.5379 177.689
-2.8787 -11.9044 177.802
-4.7566099 -10.7904 176.55
-4.1882401 -11.2084 177.14799
-4.1510601 -11.3161 176.78999
-3.5378001 -11.6564 177.299
-3.4867699 -11.7515 176.94901
-2.7530799 -12.0838 177.067
-4.2186799 -11.0862 177.533
-4.37642 -10.2094 179.425
-4.9835501 -9.6526003 179.05499
-3.76408 -10.6554 179.64
-2.2328401 -10.9418 180.463
-2.27033 -10.4841 181.002
-3.09057 -10.5871 180.382
-3.1187401 -10.1466 180.88699
-3.7946601 -10.1989 180.20799
-3.8255601 -9.7503796 180.68201
-4.40733 -9.7644997 179.94501
-4.4386902 -9.2891302 180.411
-5.0272198 -8.7483902 180.034
-3.0421 -11.2956 179.28101
-3.7377701 -10.9409 179.164
-2.2913301 -11.5793 171.394
-2.80248 -11.4723 171.30099
-3.2650399 -11.3564 171.286
-4.8358598 -10.4512 171.908
-6.4116998 -8.1116304 172.679
-6.6629 -7.1767702 172.73399
-6.4017301 -8.0820303 172.88
-5.9944901 -9.0114498 172.972
-6.0022202 -9.0498304 172.739
-5.70117 -9.4373598 173.022
-5.6725001 -9.4924498 172.83701
-5.4200501 -9.7942495 173.13901
-6.6741199 -7.2944698 171.716
-6.4219198 -8.1419401 172.476
-6.4154301 -8.2768602 171.61099
-5.9790502 -9.1552601 172.509
-5.8995399 -9.4570704 171.836
-5.61517 -9.6061001 172.59399
-5.5401702 -9.7660904 172.291
-5.3250999 -10.1008 171.836
-5.0967898 -10.1601 172.302
-5.4432201 -9.9246101 172.05
-3.40484 -12.2077 175.013
-4.1034098 -11.79 175.09399
-4.7030401 -11.3115 174.991
-5.1670899 -10.8542 174.826
-5.9850302 -9.0164499 173.44299
-5.9802999 -9.1512699 174.12199
-5.75775 -9.5026598 173.81599
-5.7425299 -9.4398804 173.51401
-5.4995399 -9.9482803 173.87801
-5.7497702 -9.6030998 174.09599
-5.7143698 -9.4196796 173.211
-5.4432201 -9.7972498 173.29601
-5.7245798 -9.42342 173.349
-4.2367401 -10.9036 167.95
-4.31675 -10.8563 168.304
-3.94789 -11.1356 167.966
-4.0318899 -11.0698 167.81799
-3.7432899 -11.2893 167.573
-3.8506999 -11.2096 167.215
-3.9927599 -11.0986 167.32899
-4.4106998 -10.7315 167.826
-4.19312 -10.93 167.761
-4.2890701 -10.8378 167.673
-4.17769 -10.9367 167.53799
-4.57444 -10.5949 168.033
-4.3272099 -10.764 167.33299
-4.5211101 -10.5593 167.502
-4.7802901 -10.2275 167.541
-3.9611101 -11.1077 166.94299
-4.06952 -11.0126 167.047
-4.1707101 -10.9161 167.17599
-4.0685201 -11.0329 167.407
-2.6833601 -11.5871 164.30299
-2.74101 -11.5336 163.854
-3.08092 -11.2013 164.054
-3.00016 -11.3369 164.39301
-3.34378 -10.9636 164.245
-3.2516999 -11.1431 164.584
-3.5243199 -10.8307 164.463
-3.6437299 -10.7965 164.73
-3.3812599 -11.101 164.867
-3.7746201 -10.8037 165.125
-3.5057099 -11.101 165.211
-3.97242 -10.8433 165.795
-3.7602301 -11.0573 165.71001
-4.2207999 -10.8008 166.71001
-4.0702701 -10.9467 166.558
-4.3835402 -10.6353 166.92599
-4.3406901 -10.412 166.089
-4.13236 -10.6588 165.899
-3.9599099 -10.59 165.114
-4.2079501 -10.2713 165.177
-4.7528801 -10.7281 171.33701
-5.0417299 -10.4764 171.493
-5.03052 -10.4978 169.55499
-5.5291901 -10.1135 170.274
-5.8541799 -9.6232901 170.924
-6.1484499 -6.8180299 166.548
-6.4822202 -7.49225 170.28101
-6.3404298 -7.5524802 169.59599
-6.49195 -6.5246501 169.688
-6.6382298 -6.36935 170.35201
-6.6003599 -7.4198799 170.92
-6.7536101 -6.28654 171.00101
-6.8368602 -6.1823702 171.813
-6.8211598 -5.3120999 171.16701
-6.9138598 -5.2195902 172.035
-6.3653498 -8.3768501 170.924
-6.2681499 -8.4074802 170.20599
-6.57793 -5.5668201 169.724
-6.7189898 -5.3210502 170.45
-6.6146002 -5.1854801 169.754
-6.7504201 -4.0100198 170.36
-6.8810201 -3.9479401 171.01601
-5.7814202 -9.6382399 169.966
-4.5814099 -10.4169 167.17599
-4.60919 -10.0405 166.364
-4.4797502 -9.8389702 165.30099
-4.0904398 -11.0181 167.705
-4.7551999 -9.4248304 165.498
-3.54375 -11.2216 165.63901
-2.7297201 -8.0341597 162.414
-2.2787299 -8.4062099 162.19299
-1.93793 -8.0887604 162.13499
-2.4279599 -7.7325602 162.37
-3.7021699 -10.5294 164.246
-3.4128101 -10.7766 163.952
-3.5557699 -10.4211 163.545
-3.8303399 -10.0779 163.742
-3.5569201 -10.1439 163.149
-3.8159499 -9.77913 163.345
-3.44241 -9.8009501 162.74699
-3.71454 -9.4425802 162.94299
-3.1649001 -9.3523102 162.382
-3.49913 -8.98985 162.59399
-2.7279799 -8.8401499 162.224
-3.1068599 -8.4496202 162.451
-2.32446 -12.1381 168.328
-1.89763 -12.3348 168.73801
-2.21099 -12.2575 168.252
-2.4814899 -12.2158 167.72301
-2.6554401 -12.0464 167.798
-2.92559 -11.9349 167.354
-2.8219099 -12.0269 167.33
-1.76124 -12.3976 169.657
-2.61257 -12.203 167.304
-2.8485899 -11.8405 168
-2.7531199 -11.9385 167.89799
-3.0193 -11.8435 167.423
-3.13395 -11.731 167.522
-3.29494 -11.6502 167.21201
-3.1723299 -11.7617 167.071
-3.2832301 -11.6855 166.88
-3.3861599 -11.5951 167.043
-3.2091999 -11.7276 166.71899
-3.26353 -11.6762 166.58299
-3.3577499 -11.6291 166.724
-5.3096399 -10.0928 169.16299
-4.6514401 -10.6444 168.839
-4.8829699 -10.3618 168.493
-1.89806 -12.3272 169.77
-2.20136 -12.089 169.05701
-2.58741 -11.8961 168.62
-2.69906 -11.8291 168.786
-2.96597 -11.7355 168.142
-3.1192501 -11.6322 168.343
-3.2822299 -11.5957 167.677
-3.48559 -11.4503 167.914
-3.49281 -11.4874 167.308
-1.4704 -12.7399 170.026
-1.41931 -12.8139 169.894
-1.20573 -13.1223 170.049
-1.5546401 -12.6517 170.16901
-2.0206299 -12.2163 168.869
-2.11638 -12.1407 168.953
-2.40697 -12.048 168.41299
-2.4951899 -11.9683 168.5
-0.75868899 -11.4644 161.41901
-0.56368202 -11.1665 161.40401
-3.0467601 -11.507 165.41499
-2.9091599 -11.61 165.47701
-2.9603601 -11.5443 165.27
-3.1273 -11.3764 165.061
-3.2174201 -11.3618 165.297
-3.8288701 -10.5614 164.668
-4.0853901 -10.1665 164.62199
-4.4163098 -9.6130304 164.633
-4.8267102 -8.9993 164.802
-5.41327 -8.1823397 165.05
-5.15904 -8.9367399 166.024
-3.0158401 -11.4194 164.88901
-2.7824299 -11.6413 165.07401
-2.8522699 -11.5154 164.75
-3.11057 -11.111 163.815
-3.14327 -10.9827 163.342
-3.3833499 -10.6382 163.435
-3.1198599 -10.7812 162.894
-3.352 -10.4305 163.011
-3.0006001 -10.4783 162.465
-3.2290499 -10.1174 162.595
-2.6189401 -10.0254 162.067
-2.86973 -9.6960297 162.19901
-2.2933099 -12.1441 163.392
-2.3367901 -11.8771 162.755
-2.8320999 -11.1609 162.785
-2.82511 -11.412 163.304
-4.2877102 -9.0780201 163.597
-4.3291602 -9.4018402 164.075
-4.8204999 -8.3673897 163.905
-4.8481498 -8.7004099 164.356
-5.48384 -7.6375599 164.38499
-5.9704499 -6.8438301 165.02499
-5.8875198 -7.5465102 165.802
-6.2475901 -6.0918298 165.722
-2.13712 -10.7075 161.80701
-0.223645 -10.5406 161.436
-0.249 -11.1401 161.39799
-1.46343 -8.2849503 161.989
-1.9034899 -8.6917496 162.047
-1.35034 -8.5766296 161.925
-0.71864998 -8.4506702 161.897
-0.73081303 -8.1541595 161.91299
-2.7623899 -6.9383502 162.63
-2.9758999 -7.2190499 162.668
-3.33622 -6.3492799 162.92101
-3.5451701 -6.61904 162.97501
-3.94909 -5.6619601 163.26601
-4.1415701 -5.90205 163.33
-4.5317898 -4.90765 163.729
-4.68575 -5.0904498 163.76601
