# .PCD v.7 - Point Cloud Data file format
VERSION .7
FIELDS x y z
SIZE 4 4 4
TYPE F F F
COUNT 1 1 1
WIDTH 1698
HEIGHT 1
VIEWPOINT 0 0 0 1 0 0 0
POINTS 1698
DATA ascii
1.028 -86.562599 122.784
0.92305702 -86.663803 122.775
1.006 -86.559196 122.604
0.91521299 -86.630699 122.58
0.76503003 -86.835503 122.741
0.619232 -87.052803 122.713
0.76977098 -86.767303 122.526
0.61407101 -86.9673 122.451
1.29668 -86.124901 122.578
1.29529 -86.118301 122.576
1.33585 -86.219902 122.574
1.34465 -86.311096 122.559
1.33582 -86.210297 122.569
1.34718 -86.302399 122.552
1.33259 -86.356102 122.552
1.32098 -86.369102 122.549
1.34124 -86.345802 122.54
1.33433 -86.3592 122.53
1.30896 -86.379799 122.503
1.10071 -86.500999 122.495
1.03031 -86.5439 122.474
0.95019901 -86.594902 122.443
1.10778 -86.4963 122.398
1.03772 -86.530403 122.36
0.82458198 -86.701401 122.361
0.68693203 -86.893097 122.212
0.92906803 -86.612602 122.253
0.81908399 -86.806297 121.998
1.31775 -86.091301 122.574
1.39957 -86.051399 122.578
1.35559 -86.185699 122.568
1.36518 -86.288803 122.545
1.41645 -86.150398 122.581
1.42783 -86.266197 122.549
1.36736 -86.320702 122.53
1.36485 -86.3358 122.513
1.42501 -86.301498 122.531
1.4268399 -86.319199 122.507
1.35119 -86.3526 122.477
1.31951 -86.368301 122.422
1.42755 -86.331596 122.452
1.42152 -86.343102 122.382
1.27065 -86.403801 122.37
1.4093 -86.365601 122.316
1.23395 -86.429901 122.333
1.18984 -86.453598 122.289
1.39779 -86.383003 122.266
1.37757 -86.396103 122.21
1.10577 -86.4935 122.178
1.32962 -86.421204 122.075
1.61263 -86.060501 122.614
1.62728 -86.1661 122.604
1.63625 -86.264 122.562
1.63668 -86.306999 122.532
1.63104 -86.330498 122.5
1.6273 -86.352097 122.427
1.63616 -86.361 122.308
1.64606 -86.363899 122.213
1.65198 -86.368202 122.144
1.64715 -86.373596 122.071
1.61958 -86.391899 121.938
1.9188 -86.149002 122.538
1.9291199 -86.230202 122.525
1.9328001 -86.305099 122.474
1.92899 -86.348396 122.44
1.92356 -86.3703 122.405
1.92144 -86.390999 122.331
1.93783 -86.3853 122.19
1.9630899 -86.368103 122.074
1.9834599 -86.364304 121.995
1.9947799 -86.362999 121.919
1.99575 -86.374199 121.786
2.27212 -86.276001 122.454
2.27844 -86.348602 122.431
2.28053 -86.410797 122.382
2.27828 -86.439697 122.348
2.27632 -86.455498 122.306
2.28543 -86.454201 122.226
2.31214 -86.406303 122.082
2.3449199 -86.3638 121.966
2.3703201 -86.348396 121.894
2.39064 -86.342003 121.83
2.4161501 -86.338203 121.713
2.62937 -86.3386 122.428
2.6349499 -86.400902 122.4
2.6365099 -86.455101 122.357
2.6377499 -86.481598 122.32
2.6432199 -86.486397 122.274
2.6617601 -86.472801 122.187
2.69749 -86.408203 122.054
2.7309899 -86.349899 121.948
2.75598 -86.322899 121.886
2.7795401 -86.305801 121.832
2.8212199 -86.284698 121.724
2.94485 -86.345703 122.466
2.94906 -86.407204 122.44
2.9519899 -86.458298 122.397
2.95979 -86.478996 122.355
2.97066 -86.472198 122.314
2.99843 -86.449203 122.237
3.03846 -86.378098 122.111
3.07236 -86.317497 122.012
3.0975101 -86.2864 121.954
3.12093 -86.257599 121.906
3.1663599 -86.211899 121.802
3.1977999 -86.301804 122.557
3.20016 -86.363297 122.528
3.2053299 -86.411903 122.491
3.2177999 -86.434998 122.449
3.2341101 -86.432198 122.41
3.2688301 -86.401703 122.346
3.32533 -86.329399 122.229
3.3643301 -86.264801 122.139
3.3886001 -86.2286 122.087
3.4103899 -86.189903 122.035
3.45313 -86.124496 121.922
3.43994 -86.198898 122.685
3.44204 -86.269203 122.659
3.4430499 -86.330902 122.612
3.46034 -86.359703 122.577
3.4818399 -86.356903 122.543
3.52127 -86.324203 122.494
3.5792601 -86.248199 122.395
3.6171999 -86.187599 122.32
3.6406801 -86.1539 122.27
3.6617601 -86.117401 122.216
3.7051699 -86.043404 122.098
0.31839201 -86.477898 115.823
0.43629301 -86.456703 115.853
0.81131101 -86.372597 115.904
1.24547 -86.189201 115.925
1.4365799 -86.052002 115.941
1.71626 -85.834396 115.96
2.24985 -85.409203 116.011
2.37953 -85.287598 116.045
2.53128 -85.161903 116.076
2.5912099 -85.077904 116.126
2.5139201 -85.215302 116.056
2.1025701 -85.542099 116.019
1.70155 -85.791397 116.002
0.56837797 -86.181099 116.002
0.37623 -86.211899 115.99
0.182373 -86.228302 115.974
2.53703 -84.898201 116.195
2.5373499 -84.923401 116.225
0.42680299 -86.236298 115.993
0.31146801 -86.2528 115.964
0.58387899 -86.220299 116.009
0.79978901 -86.197899 116.023
1.0031199 -86.153702 116.025
1.22572 -86.028099 116.042
1.41277 -85.8937 116.066
1.6589 -85.710999 116.095
2.0102301 -85.452904 116.125
2.1770899 -85.3041 116.153
2.2931099 -85.174698 116.179
2.3865399 -85.060501 116.212
2.4744501 -84.9664 116.245
2.5125699 -84.955498 116.146
2.4619801 -85.013298 116.112
2.3826699 -85.119499 116.074
2.3060999 -85.221298 116.062
2.0441899 -85.432404 116.047
1.67294 -85.694702 116.022
1.43205 -85.806503 116.018
1.19066 -85.8983 116.027
0.920412 -85.981903 116.031
0.56433201 -86.065102 116.025
0.378582 -86.093597 116.016
0.185178 -86.107597 116.002
0.155573 -86.268303 115.946
0.904468 -88.311798 118.402
1.1002001 -88.002701 118.407
1.03527 -87.982697 118.257
1.00071 -87.623497 118.125
0.910721 -87.608597 118.119
0.89378899 -87.4468 118.09
1.06638 -87.205002 118.078
1.08112 -86.980003 118.05
1.1115 -86.9328 118.019
1.24198 -86.8535 117.886
0.77905703 -87.176697 117.557
0.58474702 -87.288696 117.302
0.47956899 -87.382301 117.515
0.25327101 -87.484001 117.516
0.130877 -87.467796 117.45
2.32863 -69.487099 129.69
1.89064 -78.500504 135.552
1.67749 -81.615402 135.021
1.56872 -83.047897 134.57001
1.48897 -83.947701 134.18401
1.37427 -87.533302 131.433
1.3394901 -88.467796 129.338
2.2121401 -88.157501 129.433
2.1052999 -88.482101 126.908
2.0390401 -88.445503 126.055
2.0929501 -88.485298 125.084
2.1485701 -88.474701 124.753
1.5633399 -88.251404 124.082
1.15268 -88.136703 123.831
0.59810799 -87.720703 123.283
0.45585999 -87.560501 123.014
0.33177301 -87.517097 122.309
0.39805299 -87.515297 121.914
0.53242201 -87.541801 121.437
1.07506 -87.102501 121.064
1.07645 -87.296204 120.675
1.0846 -87.430397 120.313
1.03843 -87.529099 119.78
1.0048701 -87.551498 119.573
1.0413899 -87.653999 119.274
1.148 -87.823502 118.947
1.18186 -87.895302 118.737
0.77859002 -88.300301 119.077
0.77040702 -88.130898 119.25
0.73077798 -88.129997 119.356
0.73995 -88.515099 118.247
0.85698497 -88.322701 118.273
0.78649902 -88.505699 118.375
0.80875999 -88.517601 118.537
0.79795998 -88.513901 118.714
0.86134398 -88.2948 118.91
0.73718899 -88.546402 118.884
0.68296301 -88.745796 118.667
0.70041603 -88.712502 118.491
-0.023584999 -89.480904 118.717
-0.031191999 -89.465599 118.871
0.152623 -89.425903 118.748
0.14542601 -89.4086 118.9
0.33717 -89.292503 118.72
0.33087 -89.257401 118.909
0.60423499 -88.5009 119.273
0.64247799 -88.480698 119.183
0.488731 -88.986099 118.963
0.49522901 -89.067101 118.773
0.56362998 -88.929802 118.414
0.55358303 -88.995796 118.595
0.62344497 -88.806297 118.835
0.49653199 -88.840599 119.161
0.653898 -88.600098 119.03
-0.011511 -89.478104 118.567
0.161633 -89.4245 118.618
0.37965801 -89.232903 118.508
0.38857201 -89.149902 118.309
0.179811 -89.383698 118.427
0.206881 -89.296097 118.22
0.004408 -89.445 118.372
0.026222 -89.359001 118.152
1.11763 -88.3228 123.935
1.11052 -88.524498 124.134
1.56726 -88.4888 124.289
0.77582699 -88.250504 123.758
0.77529699 -88.5028 124.034
1.08293 -88.673401 124.429
0.92975301 -88.607002 124.23
1.5376 -88.631401 124.573
0.254127 -88.545197 117.824
0.212888 -88.625603 117.793
0.143848 -88.466103 117.741
0.194387 -88.414703 117.78
0.105347 -88.284203 117.69
0.18363 -88.241997 117.763
0.35564899 -88.636902 117.904
0.302901 -88.755402 117.869
-0.34370899 -88.091904 123.062
-0.31695601 -88.123596 123.275
-0.329083 -88.210602 123.499
-0.345247 -88.3424 123.783
-0.353778 -88.509003 124.192
-0.36559099 -88.652298 124.68
-0.38125801 -88.743103 125.243
-0.39631101 -88.831802 125.924
-0.39774299 -88.8769 126.381
-0.394225 -88.9039 126.755
-0.38862801 -88.927399 127.132
-0.390385 -88.916702 127.601
-0.40960699 -88.865402 128.158
-0.43788201 -88.790497 128.686
-0.46729901 -88.698402 129.211
-0.52542502 -88.513603 129.963
-0.59020698 -88.240799 130.632
0.016611001 -88.852203 128.174
-0.0081580002 -88.775703 128.70399
-0.035110001 -88.681999 129.235
-0.067094997 -88.491203 129.98599
-0.051936999 -88.222198 130.64799
0.193781 -87.767097 131.42
0.68481302 -87.756699 118.278
0.74063599 -87.563599 118.292
0.72929102 -87.4235 118.279
0.677145 -87.314499 118.252
0.58944702 -87.270203 118.22
0.36718401 -87.326103 118.206
0.56912601 -87.361099 117.824
0.66496497 -87.305199 117.972
0.53991699 -87.389603 117.9
0.63652098 -87.306099 118.161
0.67266703 -87.3256 118.173
0.66936898 -87.315498 118.094
0.70274299 -87.325798 118.117
0.71516502 -87.286797 118.032
0.74564803 -87.310501 118.068
0.446518 -88.809998 118.018
0.377415 -88.944801 118.029
0.294824 -88.890099 117.904
0.66682798 -88.163803 119.77
0.429809 -88.684898 119.719
0.53583997 -88.557602 119.466
0.69223899 -88.122101 119.548
0.300295 -89.208801 119.123
0.51827198 -88.818604 118.126
0.56240898 -88.684402 118.09
0.42701599 -88.727798 117.967
0.57585597 -88.545601 118.052
0.546983 -88.864998 118.248
0.38451999 -89.037903 118.143
0.63437998 -88.677597 118.197
0.677719 -88.683601 118.323
0.66822201 -88.544197 118.142
-0.108834 -89.145401 120
-0.13310499 -89.022003 120.347
0.057771999 -89.043602 120.024
0.032157 -88.918701 120.38
0.201492 -88.898804 120.027
0.170369 -88.757797 120.398
0.385849 -88.603104 120.039
0.35036299 -88.490501 120.408
0.62777501 -88.176399 120.048
0.59340698 -88.104897 120.396
-0.14947601 -88.881798 120.709
-0.16068999 -88.695198 121.135
0.012532 -88.7658 120.746
-0.00024199999 -88.576202 121.166
0.14883 -88.598 120.784
0.13409001 -88.371399 121.221
0.32710099 -88.298302 120.835
0.298421 -88.045601 121.31
0.70337802 -87.353897 118.184
0.74031103 -87.356499 118.131
0.77885699 -87.349899 118.095
0.80345702 -87.250298 118.03
0.89453298 -87.1772 118.019
-0.057165001 -89.3563 119.367
-0.078884996 -89.259201 119.662
0.109908 -89.284203 119.379
0.089345999 -89.171501 119.677
0.26662001 -89.144798 119.38
0.236378 -89.028 119.676
0.43183899 -88.856201 119.408
0.88105398 -87.069298 117.937
0.77059698 -87.1745 117.917
0.64334202 -87.287697 117.728
0.168502 -87.949699 118.124
0.187656 -87.7939 118.173
0.26987001 -87.990303 117.981
0.30042201 -87.820602 118.024
0.25781199 -88.012604 117.865
0.300708 -87.836899 117.895
0.21695 -88.0457 117.767
0.24896 -87.866699 117.769
0.115024 -88.082497 117.68
0.13449401 -87.9021 117.676
0.29825199 -87.677399 117.777
0.353596 -87.679497 117.917
0.336523 -87.659698 118.057
0.207839 -87.642601 118.198
1.3378 -88.704803 127.708
1.3545001 -88.661301 128.254
0.53583097 -88.847198 127.653
0.026898 -88.893997 127.624
0.53562897 -88.803398 128.198
1.3169399 -88.7015 126.871
1.30472 -88.678902 126.498
0.64060497 -88.822701 126.826
0.62500501 -88.798698 126.468
0.314877 -88.867104 126.806
0.262546 -88.837601 126.441
-0.034820002 -88.896896 126.78
-0.074386999 -88.865898 126.408
0.012581 -88.909698 127.158
0.50003898 -88.856201 127.194
1.32531 -88.710899 127.251
0.49381 -88.6353 129.267
0.429131 -88.157799 130.66901
0.455221 -88.434998 130.01801
0.51846701 -88.732498 128.73199
1.34817 -88.577599 128.799
0.573035 -88.330002 123.785
0.30316401 -88.255699 123.645
0.32803601 -88.022301 123.383
0.47850499 -87.8853 123.323
0.16868 -88.095596 123.415
-0.117868 -88.094101 123.272
-0.010115 -88.019699 123.118
-0.171674 -88.064201 123.059
0.084220998 -88.211601 123.567
-0.13514 -88.206398 123.514
-0.149269 -88.348701 123.786
0.076732002 -88.369698 123.827
0.33289301 -88.402702 123.873
-0.14177801 -88.516197 124.19
-0.12772 -88.662598 124.694
-0.117773 -88.742401 125.266
-0.106188 -88.822701 125.95
0.18653999 -87.5858 117.606
0.039032999 -87.532204 117.526
1.45418 -88.6744 124.957
0.84589702 -71.822701 133.321
0.96195602 -70.263397 131.64799
1.04513 -69.218399 129.772
0.34807801 -83.121002 134.748
0.33592299 -81.575699 135.255
0.411773 -78.391701 135.79601
0.58735698 -76.439102 135.65199
0.73956102 -74.347397 135.024
0.79617602 -73.0364 134.28999
0.210233 -86.818398 132.57899
0.24774399 -85.589401 133.49001
0.32858601 -84.0578 134.37199
1.4177999 -88.627701 125.448
1.25567 -88.660004 125.992
0.98290902 -88.701302 125.39
0.94836402 -88.724197 124.834
0.591335 -88.763901 126.003
0.22064599 -88.803902 125.982
0.181769 -88.747002 125.3
0.53644502 -88.736702 125.35
0.370545 -88.582199 124.248
0.13734899 -88.671997 124.71
0.479222 -88.697304 124.753
0.088544004 -88.534897 124.204
0.333139 -87.7342 123.045
0.34874201 -87.546402 117.757
0.154322 -87.728203 117.654
0.22172301 -88.356598 117.835
0.25994301 -88.457298 117.859
0.357236 -88.512199 117.922
0.53176498 -88.476601 118.022
0.72626102 -88.280403 118.11
0.56595403 -87.893204 120.857
0.40585399 -87.463501 117.645
0.519997 -87.408501 118.006
0.62349802 -87.330597 118.058
0.82783401 -87.453499 118.121
0.79433501 -87.453201 118.149
0.83246201 -87.583199 118.159
0.11458 -88.728996 117.761
0.083020002 -88.497803 117.71
0.098048002 -88.884598 117.806
0.071897998 -89.037697 117.873
0.050096001 -89.196297 117.976
-0.041088 -89.420502 119.096
-0.180663 -88.445503 121.67
-0.205806 -88.209503 122.233
-0.204882 -88.085403 122.721
0.24650501 -89.018303 117.946
0.49540901 -88.3591 118.039
0.349273 -88.400398 117.968
0.26336601 -88.373497 117.913
0.79232901 -88.316299 118.177
0.86282098 -87.889801 118.142
0.223441 -87.419098 118.211
0.176704 -88.134003 118.04
0.215828 -88.224701 118.012
0.24943 -88.269699 118.045
0.319572 -88.283798 118.085
0.44324499 -88.226501 118.138
0.562877 -88.042801 118.231
0.77329201 -87.573303 118.212
0.73791403 -87.779503 118.195
0.75575 -87.459099 118.198
0.59549898 -87.321602 118.132
0.44556901 -87.405296 118.102
0.35240799 -87.527199 118.079
0.22582801 -88.167702 117.933
0.232737 -88.295898 117.905
0.61689401 -88.098198 118.133
0.87228698 -87.105598 117.989
0.80041701 -87.834099 118.164
0.670187 -88.178299 118.109
0.39837599 -87.550598 117.922
0.220439 -88.2033 117.846
-0.022155 -88.320702 121.699
-0.049513999 -88.113403 122.246
-0.043912999 -88.005898 122.728
0.244413 -87.8592 121.813
0.107336 -88.137299 121.741
0.20559201 -87.7724 122.274
0.076746002 -87.975304 122.259
0.23500299 -87.693199 122.696
0.097704001 -87.870399 122.721
0.172828 -87.918404 123.106
0.77294898 -87.201401 117.994
0.71895099 -87.229797 117.929
0.22938199 -89.1521 118.05
0.129887 -89.361397 119.113
0.76363403 -69.863899 122.128
1.7337101 -70.020699 122.01
6.1462402 -75.949799 118.798
6.01086 -75.905098 117.908
4.90517 -85.677696 129.478
5.4470701 -84.891296 129.036
4.8557601 -86.093803 128.416
5.39327 -85.296997 128.05901
4.2101898 -86.4431 129.81799
4.1784801 -86.892799 128.711
5.81951 -84.3153 127.486
5.9496698 -83.635399 128.224
4.78122 -86.303802 127.522
5.2775898 -85.579903 127.211
5.6118698 -84.966301 126.821
5.8462501 -84.332603 126.276
4.76618 -86.365997 127.124
5.2276301 -85.697098 126.837
5.5121002 -85.195999 126.5
5.7318702 -84.6894 126.015
5.8474102 -83.532898 119.971
5.7326999 -83.153099 119.19
5.9424801 -84.147003 122.418
5.9304399 -84.0737 121.547
5.91956 -83.876503 120.851
4.72684 -86.5037 126.231
5.15905 -85.883301 125.972
5.55299 -85.137299 125.553
5.7321901 -84.627296 124.961
5.8270001 -84.305199 124.249
5.8778901 -84.160301 123.678
5.9049201 -84.1343 123.448
5.9228702 -84.128899 123.223
5.6965199 -82.755302 118.606
5.8147101 -82.1576 118.02
5.6581302 -84.638199 122.756
5.9343801 -84.150398 122.778
6.1820302 -83.542503 122.842
1.07003 -88.096397 118.576
0.80024302 -87.314003 121.247
0.82194901 -87.030197 121.636
1.0575 -88.074402 118.741
0.88154 -87.838303 119.334
0.85755002 -87.830597 119.402
0.897807 -87.874603 119.271
1.00608 -88.042503 118.938
0.84570998 -87.816002 119.579
0.847229 -87.821602 119.789
0.80953699 -87.573097 120.792
0.828426 -87.757004 120.367
0.838476 -87.820602 120.039
0.94361299 -87.971397 119.13
6.7697301 -79.854103 123.266
6.7142701 -79.741898 122.691
6.5551 -78.934303 117.594
6.49054 -79.193497 117.074
6.6344399 -79.023804 119.347
6.61731 -78.868896 118.49
6.35221 -81.605499 128.287
6.5273499 -80.999001 127.107
6.6433702 -80.5495 126.093
6.7267299 -80.3582 125.219
6.7836699 -80.085403 124.141
6.6585398 -79.537201 122.051
6.6027298 -79.399002 121.346
6.61518 -79.238297 120.271
5.4652901 -84.9198 122.046
5.7154398 -84.583801 121.942
5.9347401 -84.136803 121.91
6.76162 -78.3424 129.423
6.5357699 -78.778 130.53799
5.6979599 -79.359802 132.498
5.0581398 -79.642502 133.511
3.8817999 -79.920403 134.401
2.83024 -80.070702 134.961
1.78924 -80.0933 135.35001
0.40231699 -80.006897 135.58501
6.4608898 -76.458504 120.958
6.3367801 -76.926903 120.735
6.6402402 -75.891701 121.101
6.35988 -77.259399 120.633
6.4562802 -77.579903 120.533
6.5468402 -78.026802 120.418
6.7951102 -75.018898 121.189
6.7940302 -74.459801 121.201
6.24087 -72.434898 121.367
6.6030998 -73.3396 121.222
5.4563498 -71.4226 121.928
4.8893299 -70.857903 122.268
4.1535602 -70.408798 122.52
3.0037501 -69.938797 122.838
1.94785 -69.5877 123.065
0.98124403 -69.386497 123.189
6.6177902 -78.591301 120.265
4.1443501 -87.055397 127.742
3.54721 -87.506699 128.869
4.0613599 -85.030403 117.736
3.96632 -85.1008 117.709
6.6743102 -79.936699 127.766
6.5506001 -80.185097 129.034
5.5654802 -81.4655 132.121
4.9116001 -81.773003 133.09599
3.6611199 -82.110603 134.00301
2.6389699 -82.254204 134.517
1.61903 -82.364899 134.817
6.36064 -80.735603 130.16901
0.34088501 -82.339203 135.039
6.8817601 -78.522102 127.372
6.8312402 -78.6707 128.241
6.6951499 -78.995903 129.33701
6.4874802 -79.421898 130.46201
5.64114 -80.065903 132.438
4.9953699 -80.349899 133.40401
3.7971201 -80.620598 134.30901
2.7555799 -80.817001 134.85001
1.7310899 -80.864403 135.214
0.36500499 -80.845299 135.439
7.0075598 -77.572304 126.959
6.9772801 -77.556999 127.599
6.9354601 -77.586601 128.401
6.8032298 -77.761002 129.442
6.5714302 -78.1661 130.58099
5.72891 -78.7258 132.55901
5.1206598 -78.971001 133.57201
3.9519899 -79.187599 134.50101
2.89361 -79.279297 135.071
1.83619 -79.276299 135.472
0.38590601 -79.193802 135.722
6.9521599 -76.309998 128.416
6.8338499 -76.519501 129.37801
6.5939202 -76.908401 130.60201
5.8034902 -77.295403 132.606
5.1827798 -77.461899 133.63901
4.0628099 -77.546997 134.60001
3.01793 -77.556503 135.14101
1.9363101 -77.519302 135.562
0.45906201 -77.396301 135.772
6.9119902 -75.180397 128.519
6.7972798 -75.285004 129.306
6.5932102 -75.602501 130.41901
5.9001398 -75.778603 132.313
5.2226 -75.801903 133.37
4.1086302 -75.7248 134.369
3.1047201 -75.5877 134.868
2.02472 -75.518501 135.255
0.655994 -75.501602 135.44099
5.5135598 -82.742203 131.604
6.2465501 -81.803596 129.743
6.4131799 -81.243202 128.534
6.57019 -80.692497 127.269
2.3350201 -84.626297 133.59
1.47092 -84.767601 133.746
2.7732999 -84.5187 133.44099
3.5920801 -84.235603 133.15401
4.0370302 -83.998596 132.881
4.8965602 -83.489197 132.23
0.29796499 -84.904297 133.935
2.2590401 -85.849197 132.771
1.45166 -86.014999 132.929
2.8919401 -85.651604 132.58299
3.5990701 -85.367699 132.282
4.19168 -85.0028 131.897
4.92033 -84.445396 131.267
5.4765701 -83.842102 130.556
6.2838802 -82.039398 127.941
6.0957599 -82.740303 129.033
6.4581499 -81.5205 126.767
0.205938 -86.194199 133.082
3.60216 -86.137802 131.459
2.9607201 -86.490196 131.761
2.2375801 -86.790703 131.90601
1.43391 -87.0308 132.02
0.190651 -87.277702 132.05901
6.0167499 -81.705704 130.914
5.9802999 -82.261597 130.664
5.9364901 -82.836601 130.216
5.8947301 -83.268402 129.77499
5.8354998 -83.680702 129.312
5.8157401 -83.869904 129.01801
5.7964401 -84.1194 128.55901
5.7555599 -84.390099 128.108
6.3937302 -74.524597 130.688
6.3741102 -74.9841 131.02699
5.76443 -71.996498 121.14
5.7863998 -71.807899 121.667
5.9130702 -71.641602 122.316
6.0997901 -71.630898 123.693
6.2336898 -71.656403 125.265
6.3646498 -71.9907 126.777
6.4441099 -72.467697 128.07001
6.4587798 -73.242897 129.40199
6.3566799 -75.723099 131.239
6.3502102 -76.396202 131.381
6.3195801 -77.108498 131.44299
6.2834001 -77.8489 131.47301
6.2540698 -78.460403 131.466
6.1129799 -80.424698 131.332
6.0582399 -81.119797 131.136
5.6963401 -84.655998 127.713
6.2033801 -79.0895 131.463
6.1591702 -79.755798 131.396
6.74301 -74.729103 129.37399
6.66399 -74.302498 129.625
3.4582801 -71.514603 131.978
2.2186899 -71.096901 132.25301
4.4550099 -71.976997 131.69701
5.3751898 -72.633102 131.112
5.9885502 -73.198601 130.586
6.3994598 -73.808502 130.069
0.88214898 -70.860901 132.436
6.9463401 -74.3442 127.948
6.7518902 -73.376404 128.37199
6.4577098 -72.821098 128.75301
6.0376701 -72.175903 129.214
5.4004798 -71.563202 129.67599
4.49052 -70.934601 130.10899
3.4988501 -70.404503 130.37
2.31533 -69.9571 130.64101
7.0036001 -75.246101 127.681
1.00143 -69.737198 130.784
0.65107399 -85.2742 112.023
0.465139 -85.248299 111.979
0.55655801 -85.261398 112
0.690099 -85.025803 111.762
0.66886401 -85.1577 111.893
0.94957399 -85.236504 112.02
0.76459998 -85.271896 112.028
0.61696899 -85.414497 112.186
0.62946302 -85.365196 112.126
1.37682 -85.2836 112.218
1.34587 -85.5989 112.804
1.37063 -85.4533 112.479
0.94907802 -85.439301 112.27
1.17195 -85.356697 112.233
1.3746901 -84.928101 111.812
1.37454 -85.101601 111.989
1.82723 -85.0755 112.246
1.5856301 -85.201302 112.22
2.38012 -84.614998 112.42
2.0943601 -84.879997 112.302
2.29233 -84.221298 112.019
2.3457301 -84.408203 112.197
2.89821 -83.952103 112.672
2.65927 -84.270302 112.541
2.35092 -85.044601 112.951
2.38536 -84.837898 112.681
0.98774898 -85.014 111.802
0.81616801 -85.023102 111.777
0.49369299 -85.035202 111.746
0.59033 -85.027496 111.749
0.73416799 -84.745201 111.53
0.71231103 -84.888397 111.639
1.01407 -84.718102 111.554
1.00305 -84.861504 111.665
1.18839 -84.982201 111.805
0.96210998 -85.153397 111.932
1.35655 -84.584297 111.571
1.37084 -84.754501 111.675
1.7835799 -84.705002 111.854
1.5668499 -84.836403 111.824
2.0262201 -84.505302 111.91
2.16998 -83.870499 111.817
2.2341199 -84.047897 111.887
2.6886799 -83.581703 112.248
2.53145 -83.886299 112.136
0.79719698 -84.234901 111.4
0.87024802 -83.627296 111.485
0.84315503 -83.918198 111.432
0.99938601 -84.2015 111.424
0.91353399 -84.224503 111.412
0.76472002 -84.547798 111.438
0.57572901 -84.257599 111.377
0.68509799 -84.241898 111.388
1.21558 -84.060402 111.471
1.08792 -84.156799 111.443
1.01623 -84.507103 111.466
1.0663 -83.713303 111.485
1.1302299 -83.831596 111.474
1.50589 -83.782898 111.562
1.3577501 -83.932701 111.509
1.31336 -84.3647 111.498
1.83052 -83.408203 111.732
1.66912 -83.607201 111.628
1.40848 -83.029503 111.764
1.61331 -83.206001 111.744
2.14013 -83.028801 111.941
1.99035 -83.213898 111.834
2.0485599 -83.6623 111.764
2.9298699 -84.353996 113.154
2.6471 -84.739502 113.055
2.2137899 -85.239098 113.569
2.2864101 -85.175201 113.254
1.8049001 -85.393501 112.82
2.06914 -85.239799 112.858
0.28224301 -85.763702 114.263
0.31544301 -85.808701 113.744
0.29286501 -85.7453 114.056
0.54539502 -85.755501 114.241
0.38802001 -85.760498 114.26
0.265003 -85.893997 114.525
0.27667099 -85.822899 114.413
0.530729 -85.804802 113.727
0.53035998 -85.740402 114.026
0.927773 -85.715401 114.203
0.73212802 -85.743202 114.213
0.550632 -85.8713 114.504
0.55669099 -85.806702 114.39
0.88414699 -85.778297 113.68
0.90345103 -85.724403 113.973
1.2833101 -85.628403 114.166
1.11013 -85.686302 114.181
0.92953801 -85.805603 114.481
0.93884403 -85.751801 114.362
1.2863801 -85.7099 113.594
1.2756701 -85.650803 113.927
1.6723 -85.481003 114.118
1.46453 -85.566902 114.148
1.2662801 -85.704697 114.469
1.28592 -85.652603 114.344
1.70613 -85.542198 113.532
1.66958 -85.504402 113.859
2.1475899 -85.228302 114.093
1.9019099 -85.370499 114.098
1.6517299 -85.5569 114.457
1.67702 -85.502197 114.324
2.1629701 -85.239304 113.843
2.7171299 -84.7855 114.123
2.4217701 -85.030197 114.09
2.1652999 -85.247704 114.362
2.1697299 -85.2295 114.28
0.40603 -85.805801 113.742
0.55259901 -85.833099 113.125
0.53873199 -85.850197 113.384
0.68698102 -85.798599 113.705
0.85523301 -85.801003 113.152
0.856911 -85.822098 113.342
1.09522 -85.766998 113.626
1.31161 -85.693802 113.197
1.48162 -85.638298 113.565
1.75843 -85.502197 113.165
1.9511 -85.408096 113.524
2.8128099 -84.686501 113.656
2.50739 -85.017998 113.616
0.91549599 -85.690498 112.734
1.1376801 -85.661102 112.788
1.55922 -85.508301 112.802
0.36497599 -85.845802 113.126
0.34294501 -85.857399 113.4
0.455809 -85.843498 113.125
0.38807201 -85.752701 112.785
0.38211 -85.789902 112.898
0.44277999 -85.406097 112.17
0.45317599 -85.347099 112.096
0.47766501 -85.152603 111.867
0.52637798 -84.764503 111.52
0.51052302 -84.903099 111.626
0.54938102 -84.566299 111.418
0.62644303 -83.641602 111.46
0.60439903 -83.924202 111.405
0.63024902 -84.752701 111.521
0.855847 -84.732399 111.538
1.18783 -84.6558 111.562
1.72499 -84.3461 111.623
1.53201 -84.480797 111.591
1.9400001 -84.148804 111.684
2.4983499 -83.344398 112.088
2.3656199 -83.598801 111.967
0.363572 -85.532097 112.344
0.410797 -85.477798 112.265
0.38753799 -85.504997 112.303
0.400666 -85.565804 112.395
0.38675401 -85.547501 112.368
0.348344 -85.636597 112.515
0.39402199 -85.609497 112.467
0.37503701 -85.6269 112.497
0.378483 -85.695602 112.63
0.36349699 -85.669197 112.576
0.67881298 -85.821297 113.123
0.56721598 -85.755402 112.811
0.55796701 -85.785004 112.903
0.43239999 -85.447304 112.223
0.49542099 -85.545197 112.366
0.466295 -85.506699 112.306
0.481576 -85.634102 112.517
0.440907 -85.671997 112.588
0.39071801 -85.723602 112.7
0.44727701 -85.556099 112.381
0.40197301 -85.586502 112.429
0.43734899 -85.621902 112.492
0.94130802 -85.313599 112.109
0.86992198 -85.765404 112.985
1.21553 -83.410202 111.585
1.36239 -83.556198 111.575
1.64832 -84.089203 111.561
1.7538199 -84.529099 111.722
1.80987 -84.885201 112.024
1.82815 -85.245399 112.51
0.52935302 -85.418602 112.188
0.63850498 -85.517998 112.33
0.62663603 -85.4515 112.236
0.476161 -85.749702 112.786
0.61387599 -85.661499 112.6
0.58153099 -85.723396 112.734
0.55570501 -85.531303 112.348
0.499919 -85.589699 112.438
0.53673202 -85.6465 112.553
0.757774 -85.486298 112.297
0.63604999 -85.588898 112.453
0.726466 -85.683197 112.663
0.94113201 -85.574799 112.478
1.16675 -87.8088 118.283
1.21937 -87.497803 118.205
1.21675 -87.636902 118.245
1.2424099 -87.786201 118.445
1.2050101 -87.800903 118.355
0.96805501 -88.182503 118.336
1.07301 -87.994698 118.32
1.04421 -87.782501 118.179
1.11562 -87.800301 118.228
1.1521699 -87.268997 118.128
1.18925 -87.366501 118.163
1.32678 -87.449097 118.351
1.27565 -87.475304 118.266
1.07704 -87.508499 118.129
1.1569901 -87.504501 118.163
1.10084 -87.118797 118.085
1.12151 -87.176598 118.102
1.27195 -87.2118 118.234
1.20742 -87.240601 118.169
1.02517 -87.319199 118.077
1.0958 -87.289902 118.097
1.0816 -87.020401 118.061
1.09023 -87.0728 118.073
0.96223098 -87.078003 118.015
1.04643 -87.037102 118.045
1.18481 -86.970901 118.14
1.11124 -87.009201 118.077
1.114 -87.423203 119.362
0.93617201 -87.711502 119.372
1.0109299 -87.579498 119.376
1.13308 -87.454597 119.302
1.12297 -87.435898 119.335
1.34975 -87.040199 119.235
1.23175 -87.246498 119.323
1.11234 -87.401497 119.462
1.11062 -87.412903 119.395
1.34282 -87.0756 119.164
1.34491 -87.0578 119.206
1.43931 -86.8293 119.035
1.36225 -87.021797 119.271
1.35601 -87.029198 119.254
1.46439 -86.762199 118.823
1.40912 -86.758598 118.462
1.4547499 -86.724297 118.612
1.37596 -86.831703 118.466
1.38465 -86.793297 118.463
1.3214099 -86.830399 118.25
1.35698 -86.801804 118.314
1.51345 -86.666496 118.41
1.43881 -86.725304 118.452
1.20426 -86.897903 118.111
1.27628 -86.860497 118.189
1.1864901 -86.929497 118.123
0.96730697 -87.014603 117.99
1.09059 -86.955101 118.039
1.2882299 -86.828201 118.072
1.23113 -86.872002 118.098
0.95187098 -87.7379 119.321
1.0296 -87.614799 119.319
1.16587 -87.521896 119.203
1.14704 -87.489197 119.253
1.24173 -87.271797 119.256
1.3524899 -87.132202 119.051
1.3441401 -87.101799 119.111
1.4201699 -86.882004 118.976
1.43603 -86.814201 118.788
1.277 -87.6828 118.806
1.0933599 -87.974899 118.846
1.16819 -87.864899 118.838
1.28541 -87.746696 118.62
1.28738 -87.719498 118.705
1.3992 -87.287399 118.692
1.36329 -87.475502 118.758
1.22565 -87.601097 119.025
1.25635 -87.643402 118.916
1.39301 -87.3563 118.525
1.40084 -87.322197 118.604
1.41022 -87.042397 118.549
1.4139301 -87.141899 118.614
1.3807 -87.2024 118.888
1.3918 -87.248703 118.786
1.36759 -87.130898 118.393
1.39012 -87.088699 118.463
1.38983 -86.918198 118.48
1.40014 -86.971603 118.505
1.42298 -87.009903 118.704
1.42158 -87.007797 118.637
0.98792303 -88.199203 118.486
0.85470498 -88.420403 118.469
0.91497499 -88.315903 118.479
0.98466003 -88.183098 118.409
1.11292 -88.018402 118.496
1.07006 -88.0783 118.492
0.98867399 -88.201103 118.651
0.989299 -88.210899 118.567
1.15595 -87.948997 118.484
1.3108 -87.6054 118.398
1.27105 -87.7659 118.539
1.30512 -87.307999 118.285
1.36842 -87.397903 118.444
1.21815 -87.067596 118.176
1.24024 -87.123398 118.198
1.3307199 -87.163902 118.319
0.90077299 -88.166901 118.224
0.981933 -87.962097 118.204
0.93327802 -87.742996 118.128
0.97777301 -87.761002 118.144
1.07714 -87.631203 118.152
0.94597602 -87.5186 118.1
1.00003 -87.513901 118.106
1.0546 -87.406097 118.102
0.907453 -87.364502 118.064
0.95650399 -87.342903 118.065
0.98041803 -87.178299 118.039
0.99832302 -87.2407 118.057
1.29975 -86.904602 118.273
1.25027 -86.931602 118.212
1.19792 -87.016502 118.16
1.33384 -86.873802 118.342
1.4216501 -86.793198 118.613
1.3809 -86.869102 118.471
2.2560401 -86.214401 118.557
2.0485499 -86.358498 118.728
1.66774 -86.5821 118.681
1.40839 -86.7453 118.22
1.43979 -86.721603 118.272
1.87887 -86.471001 118.1
1.6976 -86.569603 118.264
1.37149 -86.769897 118.172
1.01256 -86.973099 117.917
1.1565599 -86.8992 117.975
1.59797 -86.663399 117.854
1.4100699 -86.7612 117.998
1.15564 -87.368103 119.644
0.92369503 -87.685501 119.685
1.0233999 -87.5392 119.675
1.13076 -87.388 119.547
1.46938 -86.993896 119.495
1.31172 -87.1856 119.587
1.20274 -87.333702 119.85
1.18172 -87.349899 119.741
1.48728 -86.808502 119.112
1.39399 -87.015297 119.358
1.37322 -87.016197 119.302
1.52678 -86.6884 118.879
2.13922 -86.515602 119.516
2.0987999 -86.521202 119.405
1.59021 -86.940201 119.67
1.81838 -86.723396 119.507
2.5965099 -86.214798 119.22
2.3509901 -86.376999 119.373
2.2391601 -86.506798 119.842
2.2030301 -86.511597 119.683
2.8080499 -86.206299 119.651
2.51634 -86.362602 119.767
2.30267 -86.510696 120.2
2.28703 -86.5075 120.053
1.6899199 -86.880402 119.981
1.96604 -86.672897 119.895
2.9416699 -86.220001 120.016
2.9106901 -86.206001 119.882
3.5428801 -85.940399 119.98
3.25158 -86.084297 120.003
2.9354999 -86.259903 120.243
2.9430201 -86.238098 120.114
3.3622899 -85.863899 119.394
3.4718699 -85.894302 119.701
4.1131701 -85.598602 119.825
3.8461201 -85.778397 119.927
3.5855999 -86.038696 120.386
3.5867701 -85.994003 120.213
3.8712299 -85.513802 119.167
4.0050802 -85.540199 119.488
4.5570002 -85.211403 119.584
4.3511701 -85.412102 119.704
4.2361498 -85.710899 120.307
4.2136002 -85.653999 120.127
4.2019501 -85.831703 120.595
4.2301002 -85.763603 120.437
4.7843199 -85.3992 120.388
4.5309401 -85.557602 120.347
4.6886201 -85.293999 119.976
5.10709 -85.105698 120.402
5.00002 -85.231003 120.439
4.8425202 -85.538399 120.962
4.8259101 -85.479599 120.712
5.5892601 -84.636497 121.018
5.3155999 -84.759003 120.185
5.4869099 -84.675697 120.595
5.8007102 -84.251701 121.162
5.67031 -84.491096 121.049
5.3984199 -84.973396 121.191
5.5001001 -84.790901 121.085
5.56738 -84.795601 121.778
5.2133799 -85.1828 121.966
5.4078898 -85.004303 121.852
5.5145202 -84.8563 121.536
5.8123798 -84.378799 121.724
5.6921101 -84.592796 121.716
5.6281199 -84.713203 122.182
5.6033702 -84.747299 121.991
6.3332 -83.036201 122.32
6.06284 -83.843102 122.185
6.1978102 -83.471603 122.221
6.2916002 -82.937103 121.609
6.3176198 -82.988403 121.948
6.5711899 -82.026497 122.653
6.4604301 -82.553802 122.466
6.32164 -83.123901 122.756
6.3263502 -83.102699 122.62
5.4342699 -84.513199 120.068
5.1954498 -84.972801 120.309
4.8692298 -84.826202 119.339
5.0806699 -84.823898 119.744
4.2758498 -85.169098 118.945
4.41675 -85.1717 119.241
4.7329998 -85.019402 119.459
4.09022 -85.336899 119.056
3.97154 -85.253197 118.42
4.1243601 -85.199501 118.669
4.5602198 -84.862999 118.716
4.4263601 -85.012299 118.826
3.60449 -85.551201 118.646
3.8074801 -85.396599 118.529
3.71314 -85.346802 117.997
3.82903 -85.310097 118.195
4.1047101 -85.099098 118.19
4.06496 -85.1548 118.309
2.70123 -86.207901 119.407
3.09076 -86.040001 119.518
3.1289699 -85.865799 118.897
3.2429399 -85.860397 119.114
3.6253099 -85.698601 119.279
3.7360599 -85.525902 118.882
2.43379 -86.211601 118.93
2.50615 -86.216301 119.067
2.8711801 -86.0327 119.051
2.9267399 -85.891602 118.585
3.0241201 -85.878197 118.729
3.37324 -85.707001 118.766
3.3728099 -85.599899 118.263
3.4848399 -85.578903 118.441
2.2172699 -86.369202 119.091
2.33252 -86.200203 118.709
2.37201 -86.205902 118.804
2.6858101 -86.044899 118.753
2.77563 -85.917 118.353
2.842 -85.904999 118.454
3.1531301 -85.740196 118.423
3.62731 -80.698997 113.692
4.1426301 -80.2435 114.172
3.8770299 -80.478798 113.926
3.9857199 -81.179497 113.672
3.8053801 -80.924202 113.673
3.1886001 -81.059601 113.29
3.3966 -80.895203 113.476
3.3213201 -80.341202 113.728
3.46346 -80.505898 113.712
2.83693 -81.301697 113.022
3.0032599 -81.191902 113.141
3.2751 -81.807999 112.975
3.06707 -81.540298 112.987
2.55969 -81.514198 112.804
2.6733999 -81.4002 112.916
2.4372001 -80.898201 113.057
2.6064701 -81.086601 113.04
4.4910102 -80.686699 114.198
4.2316098 -80.935402 113.931
4.2491899 -81.743896 113.811
4.15868 -81.460602 113.699
3.57584 -81.562202 113.245
3.75965 -81.394203 113.429
3.61133 -82.4207 113.13
3.46872 -82.115097 113.008
3.0794001 -81.9758 112.795
3.1519201 -81.910698 112.864
3.4189701 -81.697899 113.096
4.75035 -81.176697 114.335
4.5146198 -81.442299 114.067
4.3494 -82.216904 114.081
4.3143601 -81.985199 113.933
3.8698001 -82.176399 113.404
4.0290499 -82.012199 113.58
3.7761099 -82.893997 113.439
3.7207 -82.666702 113.28
3.3778 -82.691597 112.884
3.49525 -82.552696 112.999
3.7417099 -82.2994 113.268
6.21597 -82.7799 120.939
6.25314 -82.863899 121.283
6.0064001 -83.463997 120.588
6.1143999 -83.1586 120.764
6.1310101 -82.569199 120.198
6.1796498 -82.689598 120.578
6.4207201 -81.859802 121.298
6.3200402 -82.348099 121.116
5.9109302 -83.141296 119.767
6.0211201 -82.889099 119.982
6.3181901 -81.785698 120.598
6.2296901 -82.197403 120.406
5.7890601 -83.345596 119.557
4.7986498 -83.999802 117.474
4.9275398 -83.897102 117.702
5.33639 -82.932503 117.567
4.67067 -84.391998 117.839
4.7161598 -84.278 117.725
4.5769 -84.188301 117.098
4.6908302 -84.094803 117.284
4.9955101 -83.198196 116.833
4.8803902 -83.613197 117.153
5.80373 -84.335602 121.485
6.0493202 -83.8228 121.77
5.9320002 -84.118797 121.743
5.82166 -84.406403 122.169
5.8211298 -84.393402 121.916
5.80195 -84.109703 120.71
5.8882499 -83.707603 120.409
4.6861901 -84.691498 118.587
4.5732002 -84.610298 118.065
4.67869 -84.531197 118.198
4.6408401 -84.466202 117.92
4.4928799 -84.542999 117.611
4.5810099 -84.477097 117.737
2.1747501 -86.253502 118.443
2.21632 -86.234299 118.497
2.67013 -85.954697 118.172
2.46539 -86.082603 118.373
2.29404 -86.2052 118.626
2.39922 -83.229599 112.031
1.60814 -82.7416 111.911
1.8740799 -82.866898 111.913
2.4144399 -82.718597 112.145
2.29265 -82.871002 112.038
2.6658199 -82.423897 112.385
3.1309199 -82.979103 112.638
2.9341199 -82.688301 112.505
2.53825 -82.570396 112.256
2.0899301 -82.043602 112.319
2.3790901 -82.214996 112.34
2.9070699 -82.147499 112.64
2.79142 -82.2799 112.517
3.0116799 -82.039299 112.738
2.83181 -81.728798 112.791
2.06756 -81.253601 112.766
2.2990401 -81.3433 112.796
2.3279099 -81.752296 112.591
2.44576 -81.6278 112.704
1.38728 -81.780602 112.336
1.7084399 -81.862503 112.341
1.58986 -81.824097 112.351
1.3306201 -82.196899 112.081
1.37703 -81.978996 112.209
0.86608398 -81.647003 112.351
1.14367 -81.718102 112.343
1.46234 -81.4133 112.572
1.41821 -81.591301 112.454
0.84545201 -82.066597 112.105
0.85624099 -81.847702 112.225
0.891756 -81.285103 112.567
0.87979299 -81.457703 112.459
1.30265 -83.2267 111.666
0.92898703 -83.085098 111.66
1.12905 -83.118401 111.67
1.49307 -82.900597 111.825
0.99836802 -83.650101 111.493
1.1469001 -83.529404 111.544
0.90022397 -83.357201 111.567
0.744385 -83.627197 111.473
0.89689499 -82.5457 111.878
0.94855499 -82.804802 111.771
0.64119798 -83.064697 111.638
0.76832497 -83.076202 111.645
0.84711999 -82.300903 111.99
1.24455 -82.611603 111.892
1.10941 -82.581802 111.889
0.694552 -82.5103 111.877
1.38424 -82.649803 111.904
1.2796299 -82.408096 111.984
1.84032 -82.380203 112.097
1.72299 -82.565002 111.998
1.96074 -82.193802 112.202
1.8417 -81.9132 112.337
2.2103701 -81.893997 112.459
3.26126 -82.834396 112.767
3.32689 -83.466599 112.961
3.2628901 -83.243401 112.788
2.89656 -83.215103 112.419
3.0008099 -83.1091 112.512
5.0190401 -86.037201 126.79
4.4575601 -86.761703 127.035
4.7628298 -86.394798 126.925
4.9927402 -86.121201 126.342
5.0164199 -86.064499 126.577
5.3325901 -85.545601 126.533
5.2137499 -85.739197 126.65
5.0346298 -85.972 127.174
5.0226598 -86.008499 126.985
4.9503298 -86.238297 125.848
4.4283199 -86.871696 126.119
4.7174501 -86.549004 125.983
4.9127302 -86.4049 125.344
4.9372902 -86.304398 125.597
5.3769498 -85.513901 125.557
5.1318402 -85.959602 125.734
4.9663701 -86.18 126.09
3.8181901 -87.462097 126.316
3.16044 -87.940804 126.358
3.4954801 -87.709099 126.343
3.82674 -87.514999 125.776
3.81516 -87.477699 126.058
4.13062 -87.181198 126.248
3.82565 -87.447998 126.761
3.82006 -87.456902 126.555
3.2117 -87.913399 127.574
3.1945901 -87.9263 127.126
3.2019401 -87.9216 127.338
3.8281901 -87.3983 127.555
3.52213 -87.674301 127.57
3.2316599 -87.870697 128.092
3.22277 -87.897003 127.825
2.5387101 -88.3181 127.556
2.8858199 -88.127197 127.569
2.43256 -88.319504 126.326
2.7999899 -88.140198 126.337
3.13763 -87.948799 125.847
3.1464601 -87.9403 126.116
3.1759501 -87.931702 126.752
3.1662099 -87.933998 126.563
1.66947 -88.569504 126.28
2.05234 -88.454002 126.306
2.4126101 -88.299797 125.819
2.4150801 -88.310501 126.082
2.46542 -88.329102 126.736
2.4482501 -88.326401 126.545
5.26161 -85.722099 125.108
5.3225999 -85.613701 125.354
5.5868402 -85.0355 125.149
5.49404 -85.271599 125.385
5.4794402 -85.2976 125.928
5.4324098 -85.404701 125.75
5.57827 -85.068703 126.162
5.5300002 -85.177498 126.046
5.7988801 -84.4767 125.598
5.6948299 -84.797897 125.924
5.6793699 -84.814499 126.419
5.6268301 -84.9468 126.281
5.4613099 -85.309097 126.358
5.4061699 -85.370598 124.834
5.4935899 -85.210701 124.979
5.7059202 -84.626099 124.504
5.6528301 -84.8106 124.824
5.7221098 -84.701897 125.423
5.65733 -84.867699 125.29
5.7720499 -84.556297 125.533
5.8980198 -84.150398 125.811
5.83004 -84.380501 125.662
5.49189 -84.984497 124.266
5.5973401 -84.824799 124.372
5.7572298 -84.411598 123.874
5.7342801 -84.504402 124.167
5.8713298 -84.235298 124.704
5.7901902 -84.439003 124.609
6.0701699 -83.619301 125
5.9650898 -83.976303 124.827
6.1827798 -83.3386 124.174
6.1361299 -83.4524 124.572
6.2824502 -82.706299 125.464
6.1766901 -83.180603 125.219
5.9858098 -83.846001 125.423
5.5059099 -84.7892 123.705
5.6378798 -84.6091 123.803
5.7988501 -84.334297 123.497
5.78057 -84.356499 123.635
5.94837 -83.993401 123.985
5.85149 -84.212997 123.916
6.05477 -83.7118 124.065
6.2268701 -83.297302 123.767
6.2207999 -83.292297 123.882
6.4283299 -82.344299 124.567
6.32548 -82.858498 124.351
5.8129702 -84.333199 123.314
5.5089502 -84.7771 123.241
5.67837 -84.553001 123.272
5.8151598 -84.369102 122.976
5.8129301 -84.349899 123.166
6.0139298 -83.903503 123.427
5.91364 -84.128799 123.361
5.8081598 -84.329597 123.409
6.2413502 -83.282997 123.654
6.1184602 -83.638397 123.523
6.2968998 -83.1726 123.232
6.26227 -83.251503 123.556
6.23492 -83.289101 123.712
5.4279199 -85.353996 126.858
5.3828201 -85.442398 126.685
2.30427 -86.448196 120.965
2.31827 -86.491096 120.547
2.3192999 -86.473503 120.759
2.8480301 -86.315804 120.991
2.5796599 -86.378304 120.967
2.25299 -86.399002 121.342
2.27911 -86.419998 121.16
1.78411 -86.619499 121.009
2.0355899 -86.528702 120.978
2.93066 -86.290604 120.605
2.9082201 -86.303902 120.813
3.21152 -86.225502 121.07
3.08288 -86.259499 121.039
2.73543 -86.316399 121.337
2.78882 -86.319504 121.166
3.1303401 -86.2248 121.402
3.1787601 -86.230904 121.237
3.54931 -86.134697 121.161
3.34112 -86.191597 121.105
3.93731 -85.985703 121.356
4.2512102 -85.836304 121.585
4.0985298 -85.912804 121.469
3.77245 -86.002899 121.676
3.8552301 -85.9916 121.528
3.7544899 -86.062202 121.25
4.0743899 -85.949699 120.977
4.0115099 -85.973701 121.17
1.2607599 -87.069298 120.773
1.74728 -86.762802 120.591
1.47947 -86.912697 120.677
1.2155499 -86.902397 121.181
1.25104 -86.986298 120.968
0.93572301 -87.330002 120.948
1.07953 -87.204903 120.864
1.25436 -87.1996 120.434
1.25392 -87.134903 120.601
4.54006 -85.666199 121.808
4.3981299 -85.751404 121.702
4.0433202 -85.876999 121.89
4.1436601 -85.850601 121.751
4.4363198 -85.801102 121.188
4.3488002 -85.82 121.395
4.7162399 -85.551201 121.999
5.0258698 -85.375504 121.691
4.8685999 -85.475304 121.855
4.80198 -85.476097 122.177
4.75775 -85.519402 122.071
4.6535602 -85.593803 121.92
5.1333699 -85.275101 121.81
4.74546 -85.618301 121.411
4.9051199 -85.490601 121.548
5.2382002 -85.215897 121.422
5.1697898 -85.279297 121.527
4.9050202 -85.380203 122.395
4.85323 -85.4272 122.283
5.32866 -85.041298 122.26
5.1015 -85.229202 122.315
4.9998598 -85.299599 122.63
4.95435 -85.3358 122.512
4.58213 -85.574699 122.632
4.7350998 -85.489601 122.499
5.0727801 -85.237099 122.908
5.03895 -85.268204 122.759
5.4760599 -84.840103 122.915
5.2680998 -85.054001 122.895
5.1360698 -85.185204 123.212
5.10603 -85.208801 123.068
4.7371202 -85.491203 123.029
4.9018998 -85.373802 122.955
4.81318 -85.4757 123.254
4.97297 -85.344902 123.229
5.3194799 -84.991302 123.217
5.1820402 -85.162003 123.425
5.1624198 -85.169098 123.328
5.21136 -85.253197 123.825
4.9457598 -85.534302 123.67
5.0762601 -85.405998 123.747
5.2045698 -85.204803 123.691
5.20679 -85.228996 123.755
5.4865999 -84.883102 124.003
5.3561401 -85.067497 123.914
5.2185798 -85.341698 124.011
5.2161798 -85.289001 123.909
5.1803398 -85.671303 124.479
5.21281 -85.475304 124.236
5.1993799 -85.562302 124.354
5.2924099 -85.535599 124.651
5.1311598 -85.8965 124.681
5.15657 -85.794601 124.6
4.9524498 -85.871101 124.178
5.0672898 -85.787804 124.332
4.9987602 -85.342499 122.07
5.2729301 -85.108902 122.115
5.4939499 -84.8032 123.094
5.5207 -84.756203 123.448
5.5170298 -84.760696 123.353
5.4865599 -84.853203 123.912
5.4877701 -84.866501 123.955
5.4892302 -84.914398 124.084
5.4583402 -85.162201 124.555
5.4416699 -85.237396 124.657
5.3457799 -85.537102 124.988
5.1930299 -85.834297 124.86
5.0180998 -86.104401 124.677
5.1602898 -85.941002 125.188
5.0922098 -86.068703 124.899
5.0581799 -86.0924 124.79
4.7817402 -86.540901 124.717
4.9074302 -86.317398 124.7
4.84232 -86.155403 124.361
4.9393601 -86.130402 124.523
2.42241 -88.331299 125.339
3.14501 -88.010902 125.485
2.7827499 -88.185097 125.409
2.40835 -88.310699 125.551
1.73066 -88.577797 125.231
2.0671501 -88.465599 125.28
2.47089 -88.365303 125.005
2.44561 -88.3526 125.164
5.0612402 -86.149498 125.268
5.1164198 -86.037804 124.999
4.4393601 -86.984398 125.548
4.7109199 -86.688499 125.432
4.4256401 -86.9179 125.835
4.1402898 -87.263298 125.675
4.4501901 -87.048401 125.21
4.4483099 -87.034599 125.311
3.4902599 -87.741699 125.824
3.86889 -87.557503 125.418
3.8558099 -87.549103 125.527
2.77823 -88.1399 125.841
3.1313701 -87.986702 125.61
1.69284 -88.554901 125.753
2.0462799 -88.438202 125.79
0.937186 -87.677902 119.904
1.04977 -87.519798 119.891
1.38852 -87.126297 119.782
1.24221 -87.285202 120.114
1.22311 -87.310303 119.974
1.52505 -86.971703 119.574
1.6515 -86.902702 119.804
5.0147901 -84.612999 119.207
0.85854 -87.2565 118.032
0.88008499 -87.300903 118.047
0.93111002 -87.436897 118.083
0.83353901 -87.390297 118.086
0.87189001 -87.378899 118.072
0.94849497 -87.616096 118.114
0.86845797 -87.520897 118.123
0.90677202 -87.521103 118.106
2.0897801 -86.306801 118.334
2.4988799 -86.0662 117.92
2.29966 -86.181702 118.142
2.1315 -86.2799 118.391
1.8700401 -86.446602 118.499
2.02793 -86.357803 118.227
2.0564499 -86.334602 118.268
3.1962399 -88.033096 125.253
3.5386 -87.814697 125.372
3.9079299 -87.545601 125.215
3.8896501 -87.556 125.339
3.1702499 -88.020599 125.396
1.03608 -87.9524 123.684
1.10343 -87.666702 123.594
1.07017 -87.812897 123.636
1.3592499 -88.069298 123.895
1.18231 -88.0168 123.786
0.97549701 -88.191803 123.788
1.00459 -88.078499 123.735
0.79970801 -87.784599 123.465
0.91094798 -87.873398 123.579
6.4408698 -77.474998 120.781
6.5225801 -77.541801 120.978
6.47258 -77.517799 120.908
6.5219998 -77.871597 120.79
6.4770999 -77.656502 120.783
6.3538599 -77.289497 120.256
6.40206 -77.406097 120.572
6.3972402 -77.160599 120.848
6.4105301 -77.316803 120.803
6.4008002 -76.975502 120.894
6.5265398 -77.280899 121.026
6.4552102 -77.213203 120.949
6.26858 -77.004402 120.356
6.3424602 -77.105698 120.683
6.5822101 -77.879501 121.073
6.5455699 -77.906197 120.986
6.5872698 -78.404099 120.706
6.55721 -78.129303 120.771
6.4878602 -77.658302 120.143
6.4990602 -77.788902 120.488
6.0064902 -76.948799 117.741
5.85501 -76.667099 117.842
5.9272399 -76.817902 117.779
6.24821 -76.837097 118.94
6.1444602 -76.813797 118.273
6.1947999 -77.285599 117.671
6.0957999 -77.098297 117.705
5.7979202 -77.396103 116.801
5.9096999 -77.172699 117.229
6.40272 -77.864304 117.716
6.3013601 -77.535896 117.662
6.0278101 -77.670403 116.811
6.1125398 -77.466698 117.189
6.3997302 -77.208603 118.839
6.30407 -77.171501 118.197
6.5444698 -77.794601 118.825
6.48034 -77.489502 118.807
6.3216701 -76.986 118.889
6.5008101 -77.416702 119.549
6.6233501 -78.5448 118.859
6.5953302 -78.1604 118.839
6.4768901 -77.796402 118.226
6.5887699 -78.168602 119.957
6.6104202 -77.9338 119.392
5.4466701 -78.032799 116.061
4.9794698 -78.722198 115.358
5.22716 -78.381104 115.707
5.2671299 -77.874901 116.049
5.3280101 -77.937401 116.051
5.6284099 -77.693398 116.412
5.7391701 -78.308403 116.081
5.58394 -78.159302 116.063
4.4172101 -79.364799 114.729
4.70645 -79.054001 115.031
4.7817202 -78.486099 115.36
4.8699098 -78.599998 115.361
5.2837501 -79.032097 115.36
5.1178298 -78.864601 115.355
3.84864 -79.897301 114.199
4.12783 -79.645203 114.453
4.2112999 -79.090599 114.739
4.3071599 -79.225998 114.736
4.7171502 -79.703499 114.724
4.5534101 -79.521004 114.722
3.5805099 -80.128502 113.959
3.63836 -79.611198 114.226
3.73733 -79.753304 114.213
3.9828701 -80.056801 114.183
2.8345499 -80.686302 113.319
3.07128 -80.5299 113.511
3.0886199 -80.050598 113.749
3.19853 -80.193703 113.741
5.5489302 -77.101997 116.868
5.68185 -77.273598 116.829
5.91188 -77.515297 116.802
2.61939 -80.804604 113.166
2.18818 -81.0541 112.895
2.2476499 -80.986198 112.949
2.2716501 -80.7202 113.063
5.7186899 -76.865097 117.317
5.1197701 -77.6287 116.071
5.355 -77.353302 116.451
5.52074 -76.885498 116.867
6.28406 -78.134102 116.937
6.1511202 -77.8769 116.847
5.9088001 -77.962898 116.453
6.7041798 -80.103798 122.741
6.6344399 -80.899597 122.348
6.66819 -80.462898 122.549
6.64959 -79.904701 122.098
6.6785498 -80.009102 122.411
6.7837701 -79.521599 123.198
6.7430501 -79.800697 122.97
6.73631 -80.150703 123.108
5.2251301 -77.802498 116.057
4.6146498 -78.223297 115.317
4.89851 -77.941002 115.714
5.06253 -77.399696 116.024
4.7014799 -78.364899 115.351
4.01614 -78.797096 114.7
4.3302398 -78.508202 114.992
4.5061402 -78.071297 115.211
4.1171899 -78.948097 114.731
3.4435999 -79.2967 114.215
3.7214701 -79.055298 114.448
3.9038501 -78.643402 114.631
3.5427599 -79.460701 114.23
2.9865699 -79.8993 113.755
6.0853 -78.657204 116.203
5.9093099 -78.4758 116.125
5.5281701 -78.6716 115.713
5.6426902 -79.422401 115.429
5.4643798 -79.220497 115.382
5.0099702 -79.380699 115.03
5.06285 -80.128098 114.773
4.8941798 -79.907799 114.736
4.42349 -79.989304 114.435
4.3176799 -80.456299 114.173
6.4814 -78.723396 117.193
6.3976698 -78.430496 117.06
6.21034 -78.341904 116.622
6.3340802 -77.978203 117.262
6.3263102 -79.1754 116.468
6.2245102 -78.892502 116.315
5.8850098 -79.039703 115.794
5.9456 -79.866898 115.591
