# .PCD v.7 - Point Cloud Data file format
VERSION .7
FIELDS x y z
SIZE 4 4 4
TYPE F F F
COUNT 1 1 1
WIDTH 1798
HEIGHT 1
VIEWPOINT 0 0 0 1 0 0 0
POINTS 1798
DATA ascii
16.1677 -23.4564 145.183
16.1598 -23.113501 145.203
16.1464 -23.6423 145.177
16.177099 -23.6336 145.21001
16.071199 -22.784201 145.283
16.0795 -22.847099 145.255
16.1248 -22.8216 145.32201
16.212 -23.1019 145.291
16.2264 -23.454599 145.258
15.4268 -22.587 145.862
15.5188 -22.6409 145.937
15.1539 -22.629601 145.689
15.846 -23.797199 145.67599
15.9673 -23.777599 145.399
14.2143 -22.8486 146.677
14.1494 -22.880501 146.75301
14.7513 -24.2477 147.149
14.6258 -24.2644 147.364
14.6776 -23.133101 147.774
14.3226 -23.181299 148.01601
14.8463 -23.930799 147.44299
14.5127 -23.9835 147.761
14.782 -23.5282 147.73599
14.3902 -23.5811 147.991
14.3009 -22.736401 147.226
14.1037 -22.761499 147.41
14.0661 -23.258699 146.40199
14.0442 -23.273399 146.48599
14.1389 -23.784201 146.367
14.1161 -23.794001 146.463
14.3085 -24.182699 146.601
14.2839 -24.182301 146.71201
14.5704 -24.339001 146.877
14.4692 -24.368299 147.05099
14.1696 -22.775999 147.07899
14.5089 -22.8379 147.597
14.1997 -22.892799 147.784
15.7616 -22.9252 145.908
15.5832 -22.9419 146.189
15.661 -22.9394 146.069
15.6814 -22.6998 145.842
15.7177 -22.764 145.87199
15.9466 -22.9151 145.627
15.859 -22.917299 145.757
15.8193 -23.362301 145.927
15.7955 -23.138399 145.938
15.8046 -23.667101 145.869
15.8172 -23.544399 145.905
15.6333 -23.4146 146.222
15.7136 -23.3839 146.092
16.0077 -23.3304 145.633
15.9178 -23.3461 145.774
15.9774 -23.636101 145.591
15.8922 -23.6514 145.729
15.7534 -23.8097 145.82401
15.7754 -23.7654 145.84
15.7192 -23.678101 146.011
16.122601 -23.601 145.362
16.153601 -23.3027 145.40199
16.1478 -23.471001 145.384
16.194599 -23.5788 145.252
16.170401 -23.5867 145.289
16.0597 -23.731501 145.30701
16.0753 -23.7127 145.321
16.055401 -23.6189 145.466
16.087601 -22.922701 145.42599
16.131901 -23.1096 145.418
16.2218 -23.289499 145.29201
16.198799 -23.294001 145.33
16.087799 -23.315201 145.506
16.000299 -22.7209 145.396
15.8521 -22.6807 145.565
15.9303 -22.6952 145.472
15.965 -22.7351 145.35201
15.9736 -22.722401 145.366
16.0762 -22.767 145.31599
16.0494 -22.747601 145.343
16.0385 -22.7777 145.41901
15.9627 -22.7502 145.34399
15.9651 -22.741501 145.34801
16.056 -22.798901 145.28
16.018299 -22.7698 145.30701
15.8982 -22.7069 145.418
16.134199 -22.9513 145.215
16.0627 -22.8304 145.269
16.144899 -22.933599 145.17101
16.141199 -22.941799 145.201
16.202101 -23.292101 145.173
16.1826 -23.1052 145.19
16.126499 -22.961901 145.226
16.121099 -22.964899 145.222
16.2218 -23.284 145.116
16.2108 -23.2887 145.15401
16.1507 -23.567699 145.173
16.187901 -23.4533 145.172
16.183901 -23.292601 145.19099
16.176701 -23.2925 145.188
16.1509 -23.662001 145.209
16.177799 -23.626301 145.19099
16.1663 -23.6446 145.198
16.1318 -23.660299 145.187
16.1262 -23.6824 145.23
16.1623 -23.6485 145.22099
16.1877 -22.9557 145.21201
16.155701 -22.9592 145.211
16.1772 -22.959 145.202
16.245701 -23.285 145.174
16.230499 -23.105101 145.186
16.194 -22.948299 145.246
16.1978 -22.9512 145.22501
16.1203 -22.817801 145.269
16.1455 -22.856501 145.246
16.2062 -23.552601 145.17599
16.231001 -23.449301 145.172
16.256201 -23.2831 145.20599
16.256599 -23.2838 145.185
16.2185 -23.2883 145.175
16.236601 -23.285999 145.16701
15.5477 -22.7987 146.132
15.5181 -22.8002 146.13699
15.5319 -22.795799 146.127
15.6037 -22.743 146.00301
15.5644 -22.835699 146.14999
16.216999 -23.555599 145.198
16.2432 -23.4492 145.203
16.2139 -23.5543 145.18401
16.213301 -23.5662 145.224
16.218201 -23.558901 145.21201
16.238899 -23.1014 145.22
16.2425 -23.2859 145.255
16.251499 -23.284201 145.231
16.178699 -22.9394 145.293
16.188 -22.943399 145.27
16.1495 -22.847099 145.274
15.5054 -22.7778 146.159
15.5148 -22.794001 146.146
15.5698 -22.741199 145.994
15.4932 -22.9531 146.298
15.4981 -22.8678 146.23399
15.5799 -23.709999 146.21001
15.5802 -23.7325 146.267
15.5702 -23.718 146.23399
15.5404 -23.444099 146.354
15.5557 -23.6077 146.29601
15.6089 -23.693001 146.18201
15.6204 -23.7656 146.089
15.5605 -23.448999 146.42
15.5403 -23.4494 146.37
15.509 -23.1436 146.367
15.5244 -23.2731 146.37601
15.5704 -23.434299 146.313
15.5211 -23.128 146.423
15.5074 -23.138 146.382
15.4976 -23.0448 146.33701
15.6052 -23.1399 146.246
15.5437 -23.142799 146.328
16.0338 -23.743601 145.27499
16.040001 -23.7325 145.28999
15.9181 -23.7934 145.532
15.9865 -23.7724 145.409
16.1577 -23.5779 145.13901
16.1518 -23.569901 145.162
16.1675 -23.5583 145.175
16.148001 -23.566799 145.175
15.8641 -23.9252 145.47701
15.7249 -23.996099 145.37199
15.7976 -23.967699 145.425
15.7785 -23.964001 145.647
15.8995 -23.830299 145.517
15.8976 -23.865999 145.508
15.9862 -23.828699 145.23
15.9333 -23.8834 145.35001
15.0761 -22.5912 146.12801
15.1847 -22.5835 145.98199
15.4042 -22.594299 145.61501
15.3076 -22.5879 145.782
15.5449 -22.627199 145.35001
15.2825 -22.812599 145.17
15.4128 -22.7034 145.25999
15.6795 -22.719999 145.114
15.6109 -22.6651 145.231
15.7508 -22.620399 145.478
15.6639 -22.6126 145.42999
15.4791 -22.608801 145.48
16.1217 -22.9363 145.09399
16.138399 -22.9305 145.134
16.0054 -22.983101 144.968
16.0849 -22.9482 145.045
16.174 -23.2703 145.01199
16.1602 -23.095699 145.039
16.0037 -23.280399 144.89101
16.006901 -23.1703 144.91299
15.8835 -22.684099 145.258
15.9607 -22.787701 145.11301
15.777 -23.049999 144.879
15.903 -23.0173 144.90601
15.4479 -23.8857 146.46899
15.5455 -23.8347 146.315
15.5714 -23.7808 146.293
16.134501 -23.532 145.028
16.0952 -23.585899 145.03101
16.0201 -23.639601 145.011
16.031099 -23.743299 145.10001
16.1619 -23.4545 145.021
16.215401 -23.2759 145.07401
16.1071 -23.2665 144.95
15.2217 -22.727699 146.50101
15.3028 -22.708099 146.35201
15.2332 -22.6168 146.201
15.3746 -22.6842 146.21899
15.4908 -22.756001 146.16901
15.4482 -22.6574 146.069
15.9657 -23.51 144.903
15.9852 -23.382601 144.899
15.0726 -24.205299 146.55701
14.841 -24.281 146.32401
14.964 -24.2652 146.44299
14.914 -24.222799 146.836
14.9834 -24.216101 146.7
15.2433 -23.8913 146.80701
15.1542 -24.081301 146.679
15.2669 -24.1553 146.229
15.1687 -24.182699 146.39799
15.6389 -24.0042 145.313
15.4641 -23.9583 145.23
15.5736 -23.989799 145.27901
15.7994 -23.8745 145.10699
15.7211 -23.9454 145.205
15.2292 -23.049299 146.97099
15.3274 -23.447399 146.967
15.2908 -23.239401 146.989
15.0195 -23.0854 147.25999
15.1259 -23.067101 147.12
14.9839 -22.762699 146.858
15.1289 -22.885799 146.925
15.4506 -23.073099 146.638
15.3377 -23.043301 146.814
15.541 -23.2614 146.437
15.5205 -23.1129 146.479
15.4941 -22.931999 146.34399
15.5016 -23.025999 146.384
16.021 -23.7708 145.261
15.9664 -23.7908 145.397
16.096201 -23.688499 145.183
15.562 -23.6357 146.355
15.6167 -23.798599 146.101
15.0587 -23.9058 147.07001
15.1448 -23.8951 146.944
15.3136 -23.6651 146.908
15.3469 -23.887699 146.646
15.5229 -23.4391 146.653
15.5665 -23.4468 146.48399
15.1221 -23.4823 147.23399
15.2282 -23.464199 147.103
15.4249 -23.437201 146.82201
14.5801 -24.1185 146.063
14.7083 -24.2377 146.19501
14.7029 -24.309999 146.58501
14.7617 -24.301701 146.457
15.0275 -24.2334 146.004
14.9345 -24.2554 146.172
15.2628 -24.121901 145.593
15.381 -24.033701 145.382
15.0063 -23.9653 145.42999
15.1343 -24.0688 145.509
15.1345 -24.198999 145.82201
15.4975 -24.0965 145.74899
15.392 -24.1392 145.687
15.2413 -23.786501 145.118
15.3446 -23.890301 145.17599
15.5913 -23.8262 145.035
15.5304 -23.8943 145.125
15.7165 -23.5352 144.867
15.4258 -23.475901 144.90401
15.5825 -23.5056 144.87801
15.65 -23.719601 144.95
15.8544 -23.5536 144.879
15.7646 -23.296101 144.83501
15.4542 -23.101 144.903
15.6276 -23.0732 144.879
15.7431 -22.8358 144.98599
15.8194 -22.648399 145.367
15.8138 -22.6696 145.50301
15.5825 -22.598801 145.743
15.6742 -22.601 145.599
15.4774 -22.604799 145.89
14.4637 -22.7145 146.978
14.6684 -22.664101 146.688
14.5537 -22.691799 146.841
14.7705 -22.800301 147.173
14.6126 -22.729099 147.08701
14.3836 -22.7272 147.101
14.3293 -22.7526 146.843
14.4338 -24.1509 146.313
14.4972 -24.1357 146.189
14.2249 -23.7491 146.13699
14.3143 -23.9778 146.203
14.3731 -24.161501 146.45
14.5651 -24.2698 146.459
14.3808 -23.708599 145.884
14.4638 -23.9377 145.961
14.7708 -24.0802 145.782
14.6741 -24.102699 145.92799
15.1381 -23.870701 145.244
14.8442 -23.5952 145.313
14.9063 -23.8067 145.36099
14.8807 -24.037001 145.62199
15.1344 -23.489901 145.02901
15.1628 -23.649099 145.063
15.3342 -23.731001 145.033
15.4575 -23.2913 144.87801
15.2665 -23.4622 144.94901
15.3852 -23.627501 144.955
15.1363 -23.126699 145.039
15.2793 -23.122499 144.95799
15.436 -22.9389 144.966
15.1803 -22.950399 145.09399
15.3889 -22.840401 145.065
15.0783 -22.7568 145.453
15.1846 -22.7824 145.30099
14.7688 -22.725 145.88499
14.8863 -22.716499 145.743
14.9753 -22.728399 145.617
14.5616 -22.7362 146.172
14.3732 -22.782801 146.44
14.464 -22.7554 146.313
14.3678 -23.1518 145.929
14.4403 -22.9016 146.04601
14.6631 -22.729 146.02699
14.892 -22.6154 146.383
14.7157 -22.6483 146.28799
14.1986 -23.198601 146.17799
14.2673 -22.948999 146.3
14.5096 -22.695499 146.57401
14.29 -22.818501 146.55901
14.2784 -23.1724 146.063
14.3535 -23.4384 145.867
14.5773 -23.1178 145.65199
14.4674 -23.1334 145.789
14.1834 -23.4851 146.117
14.1286 -23.2302 146.289
14.1626 -23.7717 146.25101
14.2923 -23.7286 146.01801
14.8573 -23.1141 145.33701
15.0044 -23.119101 145.17
15.1319 -23.3148 145.02
15.0024 -23.5418 145.155
14.8328 -23.351999 145.304
14.59 -23.664499 145.619
14.7033 -23.6371 145.476
14.708 -23.1087 145.506
14.9306 -22.9098 145.395
15.9356 -23.6196 144.94901
15.3685 -24.132601 146.017
15.5903 -24.042601 145.80099
15.6208 -24.053101 145.52901
14.4869 -23.686701 145.752
15.6683 -23.983299 145.84599
15.4912 -22.846701 146.278
15.5546 -22.724501 146.011
16.1605 -23.572001 145.09599
16.2027 -23.457399 145.114
16.1978 -23.0914 145.14
16.037701 -22.7967 145.259
15.9413 -22.7101 145.315
14.1228 -23.015301 146.51801
14.0814 -23.5275 146.338
14.2184 -24.0096 146.46201
14.4426 -24.2988 146.746
14.7843 -22.6373 146.53
14.8301 -22.6854 146.77901
15.1042 -22.7435 146.685
14.8712 -22.783001 147.02299
15.8296 -23.819401 145.664
15.7487 -23.8473 145.83501
15.7496 -23.8276 145.828
15.6744 -23.7897 145.98
15.8295 -23.852699 145.668
15.7182 -23.903999 145.847
15.6655 -23.8202 145.991
15.6383 -22.6812 145.812
15.6369 -22.7003 145.83299
15.655 -22.6961 145.82201
15.7677 -22.6803 145.687
15.6448 -23.579399 146.17599
15.6139 -23.2353 146.24899
15.5967 -23.0651 146.228
16.0807 -22.8183 145.263
16.0716 -22.811199 145.269
16.058201 -22.773701 145.29201
16.096901 -22.7904 145.293
16.0872 -22.7789 145.30299
16.1556 -22.933901 145.332
16.1117 -22.811399 145.33701
16.0235 -22.917 145.51601
16.132601 -22.9293 145.364
16.184 -23.5516 145.16701
16.1924 -23.5483 145.162
16.1912 -23.596399 145.183
16.2087 -23.452499 145.17
16.1777 -23.554199 145.17
16.201799 -23.107401 145.188
16.207199 -23.289801 145.17999
16.0947 -22.8241 145.255
16.113501 -22.859301 145.23801
16.1437 -22.9603 145.217
16.1066 -22.819401 145.257
16.0881 -22.8232 145.258
16.106899 -22.802 145.283
16.1877 -23.6171 145.202
16.2045 -23.574301 145.237
16.234699 -23.4534 145.242
16.2318 -23.2876 145.27499
16.2227 -23.1007 145.27
16.1689 -22.936899 145.311
16.1357 -22.8312 145.306
15.8803 -23.871799 145.159
15.8042 -23.942801 145.26199
14.8055 -24.114799 147.285
14.8446 -24.233101 146.979
14.6768 -24.3223 147.009
14.732 -23.321301 147.77699
14.5978 -22.9697 147.726
14.8977 -23.104099 147.467
14.6804 -22.813999 147.321
14.4219 -22.755199 147.403
14.8309 -23.735901 147.623
14.9714 -23.9156 147.217
14.9997 -23.500799 147.39999
14.6425 -24.318001 146.72099
14.8205 -24.290001 146.71201
14.9111 -22.923599 147.233
15.0844 -23.273899 147.26401
15.1179 -23.6968 147.172
14.9905 -24.0956 146.959
15.4051 -22.923599 146.56599
15.4959 -23.2428 146.66499
15.5103 -23.6679 146.588
15.359 -24.0431 146.34399
15.1553 -24.2201 146.116
14.897 -24.1908 145.894
14.6631 -23.8999 145.685
14.5575 -23.3923 145.60001
14.6482 -22.8929 145.752
14.9192 -22.6236 146.01601
14.9899 -22.603901 146.248
15.0653 -22.641199 146.453
15.3407 -22.8239 146.533
15.899 -23.8134 145.519
15.9022 -23.8046 145.521
15.946 -23.741501 145.558
16.000999 -23.503401 145.616
15.9894 -23.122999 145.63901
15.8941 -22.748301 145.599
15.8259 -22.679899 145.53
15.8286 -22.6908 145.496
15.7928 -22.689899 145.19099
15.9231 -23.857201 145.185
15.8741 -23.7668 145.01601
15.7073 -23.8547 145.063
15.465 -23.780399 145.01801
15.5519 -22.7771 145.05499
15.4813 -22.9179 146.38
15.488 -22.9471 146.31
15.5261 -22.9485 146.263
15.6414 -23.735701 146.095
15.6175 -23.780899 146.08
15.5765 -23.8741 146.127
16.1609 -23.623501 145.172
16.177099 -23.4578 145.185
16.165701 -23.111601 145.20599
16.092199 -22.859699 145.245
16.079 -22.791401 145.278
16.216999 -23.4559 145.274
16.198999 -23.1036 145.313
15.2496 -22.6539 145.526
15.5222 -22.5809 145.69299
15.6205 -22.6213 145.778
15.6619 -23.6684 146.112
15.5845 -23.9977 145.965
15.4532 -24.112499 145.83501
15.5374 -24.038799 145.931
15.7908 -22.638599 145.496
15.7098 -22.6196 145.623
15.7264 -22.6569 145.636
15.7398 -22.677 145.657
15.8665 -23.752501 145.69501
9.06633 -27.6917 143.185
10.754 -25.818501 144.438
10.1614 -25.8717 144.623
10.6777 -27.6087 143.62601
11.031 -26.957701 143.655
11.1304 -26.094801 144.017
8.3971596 -27.0291 143.28999
8.3884897 -26.538799 143.411
8.6276102 -26.9508 143.564
9.1073198 -26.038799 144.196
9.5867996 -26.090599 144.541
9.1730804 -26.4704 144.11501
10.898 -25.9256 144.811
10.2022 -26.1021 144.953
11.3075 -26.1742 144.433
8.6736403 -26.497801 143.698
9.8935604 -27.790899 143.549
8.6420298 -27.474001 143.2
10.1626 -27.6954 143.909
9.9151001 -26.608999 144.99899
9.5220203 -26.5534 144.502
10.3765 -27.473101 145.16499
10.6724 -27.4949 145.63901
11.1044 -27.659599 145.40401
10.7524 -27.6665 144.869
11.5937 -27.544701 145.33299
11.2263 -27.5564 144.711
11.7166 -27.0126 145.257
11.6202 -26.989201 144.83099
11.6509 -26.348 145.38699
11.5718 -26.2873 145.11099
11.4054 -26.080601 145.75999
11.1973 -26.0413 145.451
10.9165 -26.217899 145.938
10.6959 -26.1922 145.62
10.5441 -26.644699 146.12399
10.2908 -26.6152 145.646
10.4636 -27.1464 146.024
10.1802 -27.0972 145.46201
9.4031496 -27.4655 143.881
8.8680801 -27.440599 143.46899
10.0405 -27.4314 144.646
9.8526297 -27.053301 144.89
9.5282497 -26.995501 144.44299
9.7329502 -27.412001 144.246
9.1741304 -27.002199 144.045
11.2713 -26.9188 144.10699
10.8875 -27.5434 144.07899
11.7768 -27.009001 145.379
11.72 -26.384501 145.49699
10.4326 -27.667999 144.315
8.6235704 -26.116501 143.81599
9.98664 -26.027599 144.745
9.8623104 -25.965599 144.63499
10.4915 -25.9042 144.707
10.1735 -25.9716 144.742
9.7805901 -26.331301 144.743
9.8646803 -26.1189 144.737
8.8870497 -26.7437 143.85699
8.66576 -26.7166 143.653
8.4431295 -26.8472 143.408
8.5253401 -26.5154 143.55
9.4408998 -26.3242 144.39
9.3390903 -26.755301 144.271
9.3635302 -26.5252 144.306
9.3147697 -26.176001 144.28999
9.3590202 -26.2759 144.31
9.56847 -26.328699 144.53101
9.6772699 -26.809401 144.707
9.7124004 -26.5819 144.731
10.2684 -26.370001 145.336
10.0249 -26.3556 145.00999
9.8004704 -27.6131 143.89999
10.044 -27.735399 143.733
10.5247 -27.687201 143.951
10.4082 -27.7227 143.76401
8.6007004 -27.239799 143.379
8.4969997 -27.2612 143.248
8.8264599 -27.556 143.278
8.8018303 -27.6005 143.164
9.2938805 -27.627399 143.52299
9.50144 -27.751801 143.38901
8.89046 -26.267799 143.936
8.8661203 -26.0758 144.004
11.0506 -25.929001 144.405
10.9964 -25.882099 144.261
11.211 -26.504801 143.98399
11.1977 -26.129999 144.18201
11.3049 -26.0466 144.968
11.1466 -25.984501 144.636
10.8055 -25.865999 144.597
10.4883 -25.830601 144.58299
10.7609 -26.0306 145.246
10.5872 -25.973101 144.924
9.11129 -26.238199 144.108
9.3424702 -26.075399 144.366
8.3588104 -26.810801 143.32001
8.4973898 -27.013 143.409
11.1241 -26.501301 143.80099
10.9694 -27.3071 143.806
10.8893 -27.319401 143.62601
8.89814 -26.4939 143.88901
8.6796799 -26.301399 143.765
8.4905396 -26.3013 143.617
11.2424 -26.1084 145.981
11.6377 -26.2166 145.7
11.7898 -26.684999 145.44701
10.9802 -27.608 145.664
11.4877 -27.6607 145.537
11.2242 -27.6633 145.58299
10.7177 -27.6021 145.265
10.8713 -27.6054 145.493
10.6337 -27.365 146.05499
10.7622 -27.5093 145.836
10.383 -27.5893 144.739
10.8061 -27.661501 144.45399
10.5858 -27.667299 144.58299
10.0703 -27.5741 144.26801
10.221 -27.580999 144.48199
10.0819 -27.280001 145.04601
10.2095 -27.4543 144.901
10.5489 -27.599199 145.011
10.2905 -27.675301 144.097
9.9302998 -27.5828 144.07899
9.7536201 -27.228001 144.563
9.8805904 -27.415899 144.43401
10.7571 -27.5746 143.84599
10.6577 -27.6653 144.17599
11.2799 -27.2915 144.37601
11.1062 -27.2784 144.054
11.1266 -26.935499 143.845
10.5848 -26.9198 146.306
10.3331 -26.8818 145.873
10.4673 -26.9014 146.11301
10.7971 -26.4195 146.224
10.6579 -26.658001 146.30099
10.5814 -27.1667 146.22501
10.0372 -26.8512 145.258
9.8577299 -26.840099 144.961
10.1207 -26.6134 145.319
10.1933 -26.861601 145.584
10.0232 -27.075899 145.166
9.5039301 -26.775499 144.48199
9.6861095 -27.0222 144.65601
9.1424999 -26.7514 144.075
9.4520798 -27.220301 144.181
9.3713198 -26.990601 144.244
9.6130199 -27.642599 143.716
9.5909405 -27.4331 144.065
11.7142 -27.333799 145.392
11.6381 -27.562099 145.481
11.1814 -27.655399 145.082
11.3608 -27.648399 145.355
10.3985 -27.3256 145.589
10.5288 -27.346701 145.855
10.9934 -26.2234 146.08701
10.5964 -26.3951 145.87801
10.6932 -26.4098 146.058
10.4744 -26.3799 145.642
10.4857 -26.1619 145.311
11.036 -27.5453 144.375
10.9751 -27.6621 144.765
8.7216702 -27.4422 143.328
8.9862804 -27.2425 143.76199
8.74825 -27.2276 143.53999
8.9868803 -27.587099 143.362
9.2569799 -27.248699 143.987
9.1241703 -27.466101 143.67101
8.9087095 -26.993999 143.814
11.5737 -26.178101 145.651
11.4391 -26.089399 145.864
11.0599 -26.096701 145.743
11.1514 -26.1064 145.86099
11.0459 -25.989 145.13499
10.9397 -26.0753 145.56
11.7435 -26.3985 145.53
11.62 -26.1991 145.674
11.7412 -26.6705 145.36
11.6847 -26.367001 145.46201
11.5013 -26.139 145.48199
11.537 -26.1607 145.58
11.5332 -26.559601 144.601
11.4881 -26.2281 144.78
11.4599 -26.1007 145.3
11.7589 -27.3197 145.459
11.7952 -27.0047 145.41299
11.7715 -26.677099 145.403
11.7491 -27.013 145.339
11.6721 -26.6451 145.166
11.709 -26.6595 145.286
11.6215 -26.6157 144.94901
11.3426 -26.5196 144.245
11.4698 -26.9466 144.461
11.7478 -27.315001 145.42799
11.6205 -27.3232 145.06599
11.6731 -27.3239 145.286
11.4824 -27.3165 144.741
9.6013699 -27.211901 144.364
9.9156303 -27.253599 144.785
10.2492 -27.302099 145.311
10.54 -27.485001 145.409
10.3236 -27.123199 145.76199
10.4214 -26.629601 145.916
10.8269 -26.209299 145.81
11.3119 -26.0676 145.64101
11.6167 -26.3237 145.291
11.6744 -27.0103 145.09599
11.4325 -27.5509 145.05099
10.9335 -27.663 145.153
8.57236 -26.7404 143.554
9.7000103 -26.0998 144.61501
13.2866 -26.167801 145.87199
13.3551 -25.9573 146.189
13.2829 -26.127701 146.59801
13.1797 -26.474501 146.88
12.8888 -26.190001 145.701
12.8718 -25.9786 146.097
12.7455 -26.155001 146.55701
12.6201 -26.603701 146.935
13.146 -26.681499 146.914
13.1468 -27.0233 146.77499
12.553 -27.0902 146.86301
13.1814 -27.3358 146.39101
12.5822 -27.4258 146.439
13.2455 -27.432301 145.993
12.6352 -27.540899 146.00999
13.3401 -27.2826 145.71001
12.7623 -27.370399 145.642
13.2833 -26.8272 145.65401
12.8587 -26.8237 145.502
12.0642 -25.980301 146.005
11.6621 -26.030701 145.966
11.9112 -26.339701 145.569
12.1268 -26.273399 145.532
11.9626 -26.9722 145.44901
12.1803 -26.8983 145.403
11.9535 -26.1406 146.565
11.4713 -26.1805 146.52499
11.7839 -26.3916 145.543
11.8327 -27.006001 145.42599
11.4843 -26.0893 145.942
12.0688 -27.5156 145.562
11.0852 -26.221399 146.255
11.9552 -26.638901 146.966
11.5394 -26.658501 146.952
11.4352 -27.199301 146.924
11.9573 -27.149099 146.925
12.0091 -27.4951 146.545
11.5568 -27.541401 146.567
12.0748 -27.640499 146.011
11.8181 -27.690201 146.011
11.5332 -27.7227 146.004
11.1538 -27.552999 146.39
11.8239 -27.5734 145.61099
11.0349 -27.2103 146.756
11.1288 -26.6731 146.793
11.6809 -27.5762 145.569
11.3248 -27.679899 145.722
10.8514 -27.5249 146.011
10.6949 -27.185101 146.407
10.7837 -26.668501 146.47501
12.3122 -26.3531 146.79601
12.4161 -26.0065 146.308
12.3692 -26.1371 146.543
12.9826 -26.327299 146.76199
12.6769 -26.3515 146.772
12.2464 -26.8792 146.967
12.267 -26.6164 146.942
11.8281 -26.369301 146.8
11.98 -26.3591 146.80299
12.8662 -26.849899 146.91901
12.5633 -26.8591 146.95
12.2609 -27.3137 146.72099
12.2508 -27.115801 146.886
11.6852 -26.931801 147.01199
11.9447 -26.908001 146.998
12.8807 -27.2386 146.632
12.5601 -27.283199 146.68401
12.2996 -27.549801 146.233
12.281 -27.462099 146.49001
11.7075 -27.379999 146.8
11.9765 -27.3489 146.771
12.919 -27.465799 146.201
12.5997 -27.514999 146.217
12.3528 -27.5518 145.795
12.3125 -27.5877 146.013
11.8765 -27.6178 146.29601
12.0549 -27.5889 146.263
13.0363 -27.4417 145.812
12.695 -27.500999 145.81
12.4453 -27.1684 145.48
12.397 -27.420401 145.604
11.982 -27.637501 145.785
12.0849 -27.615601 145.786
13.4706 -27.3601 145.83701
13.4071 -27.380501 146.185
13.4371 -27.3979 145.992
13.3937 -27.0821 145.66299
13.4458 -27.263201 145.73399
13.3154 -27.387899 145.81599
11.7832 -27.680401 145.767
11.8979 -27.660999 145.77901
11.9221 -27.674601 146.02499
13.4439 -26.8293 146.854
13.4617 -26.560699 146.91299
13.4559 -26.6828 146.905
13.3896 -27.160999 146.57899
13.4275 -26.991199 146.754
13.1391 -26.840401 146.869
11.6826 -27.18 146.94901
11.2525 -26.954901 146.923
11.4609 -26.945601 146.98801
11.733 -26.6497 146.972
11.5145 -27.6542 146.28799
11.7096 -27.639 146.312
11.7724 -27.523001 146.577
11.252 -27.408501 146.70799
11.4645 -27.399 146.77499
11.5011 -26.380301 146.767
11.7055 -26.368299 146.795
13.3923 -27.3018 146.384
13.1672 -27.1938 146.586
13.2044 -27.4163 146.19
11.7845 -26.0226 146.257
12.0324 -26.002701 146.28
12.4818 -26.049601 145.79601
12.4607 -25.974199 146.049
13.1158 -26.0163 146.366
12.8133 -26.0261 146.33501
11.4279 -26.083799 146.21201
11.3246 -26.104 146.117
11.7114 -26.165501 145.75
11.5544 -26.063299 145.979
11.6052 -26.048401 146.237
11.0708 -26.413401 146.55299
11.2454 -26.209499 146.42999
11.8929 -26.1087 145.72501
12.0933 -26.0767 145.739
12.4892 -26.5208 145.47
12.4899 -26.2279 145.59
13.1666 -26.012501 145.968
12.9023 -26.024599 145.869
13.1236 -26.4823 145.686
13.1301 -27.108101 145.597
13.1216 -26.8251 145.60699
13.3333 -26.4737 145.743
13.2751 -26.4807 145.737
13.1391 -26.178499 145.815
12.8705 -26.4862 145.577
12.0411 -26.601 145.463
12.1695 -26.5651 145.436
12.4793 -26.8571 145.42799
12.8201 -27.1315 145.53
12.0134 -27.2836 145.467
12.1448 -27.2316 145.435
13.3479 -26.818701 145.658
13.3812 -26.0026 146.036
13.3447 -26.165199 145.87801
13.3122 -27.0961 145.653
11.6688 -26.199499 145.71201
11.8905 -26.658899 145.472
11.8369 -26.3689 145.564
11.7948 -26.137699 145.74699
11.8351 -26.677799 145.453
11.8429 -27.3403 145.48801
11.8881 -26.9977 145.448
11.9607 -26.6318 145.474
12.9241 -26.5896 146.92599
13.1545 -26.577299 146.911
13.4767 -26.271999 146.8
13.4742 -26.439899 146.886
11.8251 -26.005301 145.978
11.6879 -26.1569 146.55499
12.0503 -26.9382 145.43201
11.99 -26.309299 145.558
13.1105 -27.316999 145.661
12.9644 -27.487 145.99899
12.8963 -27.380699 146.405
12.8645 -27.058201 146.82201
12.9009 -26.671301 146.938
12.9376 -26.5124 146.89999
13.0489 -26.142599 146.58099
13.2269 -26.2981 146.767
13.1725 -25.962799 146.14
13.4726 -25.997 146.399
13.334 -26.0047 146.38699
13.3165 -26.005199 146.026
13.4575 -26.114599 146.61501
13.4368 -25.9578 146.21001
11.1659 -27.6395 146.006
11.6199 -27.707399 145.765
11.4298 -27.704399 145.862
11.0668 -27.618601 145.823
10.8827 -27.3993 146.433
10.9831 -27.5422 146.215
11.3136 -27.6574 146.181
10.8686 -26.9513 146.67101
10.8495 -27.2006 146.599
10.7071 -26.9359 146.48399
10.9373 -26.676201 146.646
11.0564 -26.958 146.821
11.5736 -27.6856 145.668
10.7371 -27.3822 146.23399
10.9122 -26.419399 146.382
11.2776 -26.3979 146.688
11.0639 -27.409901 146.59801
11.7928 -27.320101 145.463
11.7463 -27.5865 145.61099
11.9202 -27.315201 145.489
11.6855 -27.7041 145.797
11.34 -26.661699 146.89301
11.2253 -27.208099 146.85699
11.3467 -27.552 146.507
11.6853 -27.704399 146.01199
11.9204 -27.5457 145.58501
13.7247 -26.3967 146.84599
13.559 -27.286699 146.38
13.5022 -27.249201 145.735
13.375 -26.1579 145.86501
13.6381 -26.096001 146.612
13.484 -25.954201 146.21001
13.7221 -26.6633 146.842
13.6834 -26.9576 146.73199
13.5724 -27.3738 145.991
13.3811 -26.796 145.64301
13.9174 -26.011299 146.39799
14.042 -26.300501 146.67799
13.6022 -25.9191 146.09599
13.4811 -26.1057 145.76601
14.5327 -26.036501 146.024
14.4619 -25.865801 145.95799
15.0892 -25.875 145.33099
15.1658 -25.9298 145.274
15.1848 -26.0942 145.27699
15.1128 -26.098801 145.35699
15.1638 -26.373699 145.214
15.0835 -26.373899 145.313
15.1073 -26.5709 145.157
15.0412 -26.576799 145.239
15.057 -26.652399 145.10201
14.9482 -26.741301 145.13499
15.2104 -26.0867 145.229
15.1354 -25.9224 145.244
15.1865 -26.078501 145.20399
15.1515 -26.079 145.21001
15.1255 -26.3708 145.13699
15.1614 -26.370399 145.12601
15.0398 -26.6134 145.076
15.0988 -26.540501 145.08701
15.1228 -26.5567 145.112
14.0501 -26.5851 146.67799
14.0322 -26.866899 146.565
13.9571 -27.1586 146.314
13.7243 -27.3384 145.953
13.6079 -27.2117 145.67799
13.4871 -26.7062 145.53
14.4888 -26.391399 146.108
14.5713 -26.052099 145.94701
14.5089 -26.372 146.015
14.9411 -26.7083 145.043
14.9425 -26.705799 145.076
15.1507 -26.3629 145.064
15.1306 -26.3764 145.12399
15.1696 -26.075199 145.19501
15.1858 -26.0513 145.144
15.0708 -25.842501 145.27299
15.0586 -25.806 145.244
13.9693 -26.5256 145.02499
13.86 -27.1141 145.408
14.8234 -26.580099 144.77499
14.3631 -26.889 144.994
14.572 -26.927099 145.362
14.9681 -26.2446 144.76801
14.7689 -25.879299 144.806
14.9861 -25.9352 144.85699
14.8953 -25.725401 144.98199
14.7876 -25.8095 145.606
14.658 -25.686701 145.17
14.3842 -26.377501 144.785
14.7308 -26.241899 144.707
14.4689 -25.8701 144.89301
14.0378 -27.204599 145.657
14.0792 -25.925501 145.15199
14.3093 -25.7171 145.444
14.4332 -26.907801 145.80499
14.4861 -26.6782 146.02901
14.4966 -26.6399 145.942
14.475 -26.8284 145.746
14.5927 -26.8722 145.38901
14.7931 -25.847401 145.614
14.7656 -26.6008 145.58299
14.7984 -26.376499 145.65601
14.5955 -26.065599 145.914
14.5391 -26.3743 145.96201
14.8218 -26.117599 145.674
14.5013 -26.803499 145.71899
14.6309 -26.8566 145.41901
14.5201 -26.6236 145.883
14.8147 -25.9025 145.629
15.1883 -26.3717 145.15601
14.6998 -26.7752 145.49001
14.2201 -27.042999 146.05099
14.3328 -26.7663 146.257
14.3299 -26.4746 146.37199
14.3186 -26.1612 146.349
14.2012 -25.947901 146.20599
13.9351 -25.815599 145.77901
13.7243 -26.019899 145.47301
13.6552 -26.628401 145.28101
14.6539 -25.8992 145.821
14.6621 -25.9279 145.798
14.677 -25.964001 145.79401
14.6626 -26.1115 145.84801
14.6597 -26.375099 145.823
14.6322 -26.613199 145.746
14.6248 -25.824301 145.76601
14.5729 -26.7981 145.631
14.5339 -26.861099 145.55099
14.5026 -26.885 145.562
14.4822 -26.9261 145.57201
14.2871 -27.0889 145.41
14.1241 -26.996599 145.17799
14.9231 -26.7057 144.933
14.5014 -26.995899 145.228
15.1287 -26.3116 144.918
15.1468 -25.9862 145.006
15.0205 -25.7418 145.16499
14.7346 -25.676399 145.457
14.533 -25.708099 145.631
14.3781 -25.7516 145.75301
14.1011 -25.8596 146.037
14.7438 -26.8472 145.187
14.7545 -26.827101 145.216
14.7911 -26.820601 145.252
14.8447 -26.7547 145.311
14.9202 -26.5865 145.392
14.6963 -26.886499 145.063
14.9587 -26.374901 145.463
14.9883 -26.106501 145.493
14.5921 -26.7624 144.86301
14.971 -25.877701 145.461
14.9452 -25.807501 145.42799
14.9269 -25.7707 145.416
14.8567 -25.6761 145.33299
15.1256 -25.886 145.29601
15.0977 -25.874001 145.259
15.1218 -26.085699 145.215
15.0952 -26.371099 145.146
14.9958 -26.653601 145.071
15.007 -26.698799 145.104
15.0799 -26.575399 145.19099
15.1272 -26.374701 145.25999
15.1525 -26.094999 145.314
14.5032 -26.154499 146.105
14.5299 -26.1632 146.00999
14.5588 -26.1686 145.966
14.2515 -27.0933 145.731
14.1136 -27.1632 145.88499
13.888 -27.2584 146.14101
14.411 -27.012699 145.541
13.6098 -27.3354 145.854
13.5513 -27.347401 145.856
13.8988 -26.7677 146.73199
13.7105 -26.8055 146.804
13.8295 -27.0819 146.54201
13.6312 -27.1273 146.589
13.6855 -27.341299 146.15199
13.5581 -27.357401 146.175
13.4087 -26.424 145.687
13.3621 -26.459 145.72501
13.4819 -27.0319 145.625
13.4363 -27.062201 145.65401
13.9035 -26.4879 146.787
13.7263 -26.528799 146.85899
13.8613 -26.1978 146.705
13.6978 -26.236601 146.774
13.6501 -25.9727 146.349
13.5728 -25.9918 146.409
13.4627 -25.986401 146.002
13.4167 -25.9998 146.02699
15.0928 -25.839199 145.282
15.1012 -25.958 145.235
15.084 -25.8603 145.26401
15.1196 -25.866199 145.26601
15.1054 -25.849899 145.27299
15.1322 -25.970501 145.327
15.1135 -25.8804 145.30701
15.0243 -25.818501 145.358
15.0691 -25.8267 145.30499
15.0584 -25.971901 145.405
15.0514 -26.2418 145.401
15.0625 -26.1019 145.412
14.9026 -25.9853 145.571
14.9856 -25.9771 145.483
15.0421 -25.8729 145.383
15.1072 -25.9704 145.353
14.8535 -26.794399 145.14799
14.6824 -26.8536 145.313
14.7687 -26.828199 145.228
14.874 -26.785 145.183
14.9697 -26.7222 145.08
14.926 -26.7507 145.09599
14.8411 -26.7892 145.116
14.8512 -26.7773 145.125
14.582 -26.4993 145.873
14.7152 -26.496401 145.71001
14.648 -26.497999 145.793
14.5521 -26.720501 145.755
14.5687 -26.618099 145.823
14.5057 -26.501699 145.97301
14.53 -26.5 145.935
14.6005 -26.2558 145.914
14.5929 -26.375401 145.901
14.5392 -26.8255 145.63499
14.537 -26.794701 145.686
14.4857 -26.739599 145.83299
14.5083 -26.729 145.806
14.671 -26.705099 145.614
14.6074 -26.7148 145.688
14.4885 -26.855101 145.644
14.5087 -26.843201 145.638
14.6029 -26.8342 145.52299
14.5577 -26.8363 145.584
14.9525 -26.6698 145.261
14.901 -26.7547 145.209
14.7365 -26.816999 145.367
14.8171 -26.7955 145.283
15.1457 -25.929501 145.215
15.1354 -25.9398 145.231
15.1195 -26.219601 145.175
15.117 -26.083 145.207
15.1214 -25.9597 145.241
15.1066 -25.9601 145.243
15.1799 -26.214899 145.14101
15.1672 -26.220501 145.16
15.0326 -26.5401 145.09801
15.0916 -26.3687 145.13901
15.1374 -26.221201 145.179
15.1246 -26.221701 145.183
15.0514 -26.5418 145.10001
15.0342 -26.5424 145.105
15.0632 -26.5453 145.078
15.0557 -26.5469 145.088
14.9762 -26.670799 145.071
15.0306 -26.652901 145.16299
14.9881 -26.7129 145.11301
15.0079 -26.6852 145.07401
14.9894 -26.7043 145.076
15.0105 -25.786301 145.33501
15.013 -25.804899 145.342
14.8786 -25.836901 145.52499
14.9553 -25.823099 145.439
15.2065 -26.223301 145.17
15.1681 -26.2201 145.17101
15.1873 -26.2195 145.166
15.1466 -26.4804 145.105
15.1822 -26.3687 145.131
15.1997 -26.2332 145.222
15.2101 -26.2295 145.194
15.1792 -25.962799 145.23801
15.2059 -26.080299 145.20799
15.0776 -26.603901 145.08
15.1162 -26.5457 145.091
15.1513 -26.4844 145.157
15.156 -26.4813 145.13
15.0835 -26.541 145.091
15.1131 -26.5096 145.093
14.6488 -26.0555 145.856
14.6261 -26.0912 145.888
14.6136 -25.996099 145.87199
14.6288 -26.0142 145.864
14.7492 -26.0065 145.73399
14.683 -26.0271 145.811
15.0144 -26.486601 145.34
15.0327 -26.3741 145.37399
14.8928 -26.247101 145.582
14.9769 -26.244301 145.48599
15.129 -26.239 145.311
15.102 -26.240101 145.342
14.9916 -26.580799 145.302
15.0017 -26.6614 145.19501
14.8101 -26.6861 145.44701
14.887 -26.676399 145.35001
15.1212 -26.4879 145.20599
15.138 -26.4867 145.183
15.1804 -26.372801 145.186
15.0834 -26.6243 145.117
15.1185 -26.565201 145.136
15.1616 -26.2365 145.274
15.1815 -26.2351 145.24899
15.185 -25.980301 145.271
15.201 -26.0919 145.252
15.1577 -25.974001 145.302
15.1749 -25.9814 145.286
15.1888 -25.9743 145.256
15.0855 -26.6164 145.10001
15.0576 -26.641899 145.14101
15.0748 -26.6308 145.13
14.5499 -26.1059 145.97099
14.5756 -26.0539 145.931
14.6112 -25.981001 145.90199
14.612 -25.990601 145.884
14.732 -25.886299 145.696
14.6646 -25.937401 145.79201
14.4982 -26.6311 145.92101
14.5019 -26.514299 146.021
14.5036 -26.505699 145.992
14.5203 -26.256701 146.004
14.512 -26.371901 145.996
14.4803 -26.814899 145.73599
14.4794 -26.769699 145.873
14.482 -26.7519 145.849
14.4766 -26.883699 145.664
14.4822 -26.867399 145.651
14.5549 -26.8694 145.479
14.5099 -26.871901 145.558
14.5485 -26.26 145.97099
14.6017 -26.1462 145.91901
14.7392 -26.249701 145.756
14.6667 -26.247999 145.839
14.5102 -26.253401 146.05299
14.5154 -26.254101 146.02299
14.5337 -26.167101 145.993
15.0913 -26.486 145.245
15.0648 -26.4855 145.278
14.8598 -26.491699 145.53
14.9413 -26.4888 145.42999
14.9759 -25.7339 145.29601
14.998 -25.766001 145.323
15.0653 -25.8256 145.26401
14.8709 -25.8104 145.51601
14.9416 -25.793301 145.42799
14.541 -26.096901 146.01601
14.5657 -26.049601 145.974
14.5776 -25.9086 145.911
14.5983 -25.9587 145.909
14.7266 -25.864901 145.703
14.6568 -25.916901 145.812
15.0626 -26.1026 144.85899
15.1883 -26.1775 145.033
15.1488 -26.143101 144.957
15.0293 -25.8202 144.963
15.0619 -25.9559 144.90401
14.8756 -26.0513 144.765
14.9885 -26.077 144.80701
14.9789 -26.4736 144.81
15.042 -26.271799 144.819
14.8725 -25.833 144.855
14.885 -25.910801 144.82001
14.5816 -26.0637 144.75
14.7393 -26.0408 144.737
14.8375 -26.351801 144.72
14.865 -26.2174 144.72301
14.856 -25.681999 145.153
14.9548 -25.716499 145.05299
14.9639 -25.815599 144.908
15.1417 -25.8871 145.136
15.1114 -25.848101 145.069
14.6285 -26.519699 144.748
14.7605 -26.438999 144.724
14.9157 -26.429701 144.75999
14.4346 -26.645399 144.83299
14.5102 -26.606001 144.79601
14.7609 -26.7705 144.88699
14.7077 -26.684401 144.808
14.5712 -26.301201 144.72701
13.7852 -27.266001 145.69099
13.6697 -27.3162 145.817
13.9417 -27.254499 145.92
13.8725 -27.278799 145.819
14.094 -27.1294 145.411
13.9595 -27.1989 145.541
13.6179 -26.9597 145.45799
13.689 -27.174999 145.562
14.3992 -26.984699 145.66299
14.4536 -26.920401 145.674
14.4682 -26.848101 145.767
14.5302 -26.902 145.47301
14.4938 -26.903799 145.569
14.4981 -26.6532 145.97099
14.4304 -26.5741 146.194
14.4876 -26.5341 146.084
14.5065 -26.3762 146.043
14.3975 -26.8622 146.032
14.4312 -26.7211 146.132
14.2017 -26.676201 146.505
14.3357 -26.6224 146.334
14.4289 -26.2759 146.22701
14.427 -26.428499 146.22301
14.8295 -26.803801 145.064
14.8373 -26.792999 145.10001
14.6643 -26.8699 145.293
14.7521 -26.833799 145.20799
14.9395 -26.705299 145.05901
14.1214 -27.170799 145.746
14.2561 -27.1075 145.60699
14.1723 -27.149401 145.7
14.0741 -27.1954 145.799
14.2651 -27.066099 145.86301
14.1908 -27.121901 145.80701
14.4628 -26.805 145.929
14.3376 -26.979099 145.929
14.1484 -26.9701 146.30099
14.2856 -26.9191 146.157
14.3853 -25.9907 146.14999
14.499 -25.9473 146.013
14.5088 -25.778099 145.78101
14.5511 -25.8431 145.85899
14.6426 -25.8687 145.813
14.4619 -26.9981 145.41701
14.3651 -27.049299 145.508
14.171 -27.143999 145.52
14.3278 -27.0539 145.63699
14.3906 -25.707001 145.573
14.1933 -25.7663 145.75
14.3316 -25.7229 145.623
14.5639 -25.6745 145.42599
14.4463 -25.6929 145.52499
14.4562 -25.7251 145.686
13.8748 -25.886999 146.099
14.0255 -25.8241 145.92
14.0077 -25.8186 145.455
14.1185 -25.762199 145.60899
14.2938 -25.8447 145.98599
14.2475 -25.802799 145.875
14.3843 -25.752501 145.145
14.2062 -26.152201 144.91901
14.2852 -25.8902 145.008
14.7034 -25.7637 144.948
14.5571 -25.747999 145.02699
14.4879 -25.697201 145.298
14.1925 -25.7768 145.293
13.8183 -26.253599 145.19901
13.8951 -25.9701 145.30901
13.6425 -25.921801 145.791
13.8253 -25.8701 145.62199
13.5419 -26.3435 145.498
13.6578 -26.302999 145.34801
13.8831 -26.8591 145.186
13.8042 -26.580099 145.14799
13.9954 -26.2045 145.058
14.1918 -26.737801 144.957
14.1696 -26.461201 144.899
14.4052 -26.105101 144.811
14.3257 -27.010401 145.19701
14.2106 -27.0641 145.302
14.0004 -27.0541 145.285
14.7848 -25.6989 145.061
14.6291 -25.866301 144.83099
14.8143 -25.784201 144.88901
14.9392 -25.699499 145.255
14.7322 -25.665001 145.28101
14.7765 -25.665501 145.239
14.8746 -26.660601 144.838
15.0731 -26.532301 144.98399
15.0551 -26.515499 144.90401
14.8024 -26.8137 144.98599
14.5439 -26.911301 145.02
14.6496 -26.844 144.94701
13.4284 -26.754801 145.604
13.4688 -26.382 145.61501
13.4213 -26.1371 145.83501
14.2537 -26.937201 145.07201
14.2774 -26.714399 144.91
14.0251 -26.802999 145.071
15.1798 -26.066601 145.177
15.146 -25.9181 145.188
15.1472 -25.9056 145.166
15.1844 -26.201099 145.103
15.143 -26.375299 145.108
15.069 -26.5436 145.064
15.0723 -26.538601 145.03999
14.493 -26.2582 146.11501
14.5236 -26.158199 146.03799
14.1974 -26.377001 146.552
14.3246 -26.312 146.36301
14.4324 -26.1113 146.19901
14.4375 -26.1607 146.214
13.5497 -27.233 145.72099
13.5404 -26.9963 145.567
13.6642 -27.3624 146.002
13.7761 -27.2652 146.34
13.7459 -27.3001 146.284
13.8131 -27.3081 146.058
13.7988 -27.2162 146.409
13.8757 -26.9161 146.668
13.9942 -27.027201 146.44701
13.906 -26.629801 146.769
14.0459 -26.7241 146.63699
13.8983 -26.352301 146.776
14.0486 -26.440701 146.69701
15.0717 -26.579399 145.08
15.0367 -26.6525 145.075
15.1438 -26.3706 145.131
15.0675 -26.541401 145.095
15.1501 -25.9587 145.237
15.1679 -26.0788 145.207
15.1526 -26.220699 145.175
15.1633 -25.9582 145.235
15.1349 -25.9592 145.239
15.1449 -25.901199 145.255
15.0254 -26.682501 145.101
15.0445 -26.6481 145.14999
15.0925 -26.5748 145.175
15.1062 -26.487301 145.22501
15.1445 -26.3745 145.24001
15.1448 -26.237801 145.293
15.1669 -26.094 145.298
15.1384 -26.096901 145.32899
15.145 -25.9711 145.314
14.3374 -25.9034 146.077
14.416 -26.0495 146.177
14.1425 -26.0905 146.424
14.2656 -26.0389 146.29201
13.529 -25.944401 146.181
13.7461 -25.940599 146.252
13.788 -26.0644 146.537
13.5205 -25.963499 145.93201
14.0034 -26.152 146.592
14.0437 -27.170601 146.08299
13.9975 -27.2113 146.006
14.091 -27.097401 146.16701
14.1951 -26.818399 146.427
14.1972 -26.5329 146.54401
14.1926 -26.231501 146.522
14.0325 -25.9499 146.26601
14.0693 -25.986799 146.31799
13.9833 -25.923401 146.205
13.7566 -25.871401 145.94901
13.5569 -26.070101 145.63901
13.5598 -26.667801 145.42
13.7396 -26.9119 145.311
14.6817 -25.6663 145.327
14.6784 -25.744301 145.627
14.6331 -25.6863 145.547
14.7026 -25.8104 145.67999
14.7198 -25.853201 145.714
14.8021 -25.831499 145.608
14.7287 -25.876699 145.698
14.8072 -25.8619 145.612
14.7516 -25.9133 145.694
14.8219 -25.9953 145.65601
14.7446 -26.1196 145.757
14.8128 -26.249399 145.673
14.7282 -26.376301 145.741
14.7837 -26.494301 145.62399
14.6981 -26.6071 145.666
14.7372 -26.6959 145.536
14.6352 -26.7845 145.564
14.663 -26.8286 145.45
14.5736 -26.860701 145.493
14.6071 -26.866899 145.399
14.5405 -26.875401 145.474
14.5851 -26.8892 145.382
14.5042 -26.9501 145.474
14.5171 -26.9282 145.478
14.4334 -26.9566 145.10201
14.4017 -27.0401 145.315
14.4837 -26.9744 145.45399
14.6434 -26.909901 145.241
14.5525 -26.954201 145.33
14.7367 -26.862301 145.153
14.9413 -26.707701 145.004
15.1593 -26.3421 145
15.1859 -26.0205 145.08
15.0512 -25.7845 145.22
14.841 -25.730301 145.451
14.8995 -25.725901 145.383
14.7655 -25.735399 145.537
14.589 -25.761299 145.70799
14.4231 -25.8053 145.862
14.1603 -25.8923 146.118
14.4872 -26.8328 144.91701
14.5991 -26.944401 145.144
14.6529 -26.8937 145.27299
14.6688 -26.856899 145.30099
14.7061 -26.8442 145.336
14.7717 -26.7651 145.40401
14.8401 -26.5937 145.491
14.876 -26.3759 145.562
14.9039 -26.1122 145.58501
14.891 -25.8883 145.547
14.8716 -25.821899 145.515
14.8626 -25.785299 145.5
14.8027 -25.6733 145.386
15.0153 -26.636299 145.073
15.112 -26.370899 145.14101
15.1359 -26.079201 145.213
15.1127 -25.890699 145.254
15.1398 -25.8978 145.287
15.0671 -26.5751 145.207
15.1108 -26.374201 145.28
14.5184 -26.0959 146.065
14.5458 -26.1017 145.987
14.5716 -26.1178 145.94901
13.9325 -27.2216 146.215
14.1691 -27.118099 145.96201
14.3434 -27.0191 145.765
14.448 -26.9695 145.56799
14.5378 -26.888599 145.472
14.2827 -26.0762 146.314
31.6583 8.9866304 97.310402
22.191401 19.116899 99.309601
23.3512 19.016001 99.587997
22.162399 19.1369 98.8825
20.5012 19.3367 98.298203
21.526699 19.4939 97.6063
19.928499 19.695601 96.928299
18.7728 19.6938 93.822601
20.7258 19.5784 94.509003
19.162201 19.2705 92.257599
17.6099 18.985001 91.314697
15.7792 18.9746 91.565102
16.572001 19.5462 93.513
14.0773 18.836 91.793098
14.6872 19.191099 93.369499
13.2431 18.684299 91.978401
13.3404 18.797899 93.334503
12.2993 18.4307 93.497803
11.3254 17.885201 94.074799
12.7293 18.5446 95.907799
13.5101 18.9007 94.8405
12.7414 18.615101 94.775002
12.1812 18.251101 94.604301
12.1177 18.1497 95.898697
11.2822 17.6406 95.669998
12.7468 18.576401 93.953003
13.4235 18.8472 93.959198
11.6505 18.4224 91.055801
13.3936 18.840599 90.810097
17.8815 19.721201 96.142502
17.267099 19.716299 94.908997
15.0452 19.3151 94.3069
15.3475 19.3692 95.388298
12.336 18.0515 97.142197
12.8605 18.5259 96.8255
31.329201 18.2824 102.21
30.8822 18.2297 100.282
30.989799 17.961599 99.126198
32.683498 6.6388102 100.065
32.0331 6.6784201 99.704201
31.780001 7.1166401 99.217499
32.4916 7.13802 99.438103
32.166901 5.7216802 101.056
31.5686 5.52706 100.691
31.6619 6.0619302 100.045
32.1451 6.1468701 100.398
30.634899 4.91889 101.152
31.314899 5.12361 101.835
30.5667 4.94207 101.925
30.940399 5.3088398 100.213
33.316101 6.1099401 101.425
32.8055 5.7814002 101.814
32.807098 6.18186 100.875
33.298 6.61485 100.393
31.387199 8.2337799 98.0028
31.486601 8.0690699 98.689003
30.342199 8.04354 98.428902
30.3589 8.2004499 97.739197
29.0084 7.9941602 97.540703
30.506399 5.6153898 98.964104
29.9977 5.2597499 98.199898
29.969999 6.0992098 97.812103
30.5679 6.3534498 98.589302
29.6565 6.8270202 97.676399
30.617599 6.9649701 98.599503
29.3552 7.3506498 97.628304
30.4375 7.74581 98.488297
28.4478 8.8936996 96.883904
29.4046 8.9023504 96.959099
28.135201 9.4137497 96.335999
29.0783 9.7025299 96.571999
27.8339 10.1745 95.594002
28.818001 10.4207 95.9916
31.196699 10.0667 96.690002
30.8571 11.276 95.737999
30.567499 13.4354 94.7379
27.142099 1.17882 94.162498
25.799601 -0.227942 94.687202
25.261499 -0.92265397 93.127296
26.187799 0.045434002 92.5439
30.251801 13.4458 94.798302
30.4004 14.4632 94.764099
31.9261 8.2449503 98.055702
31.055 8.9970198 97.2873
30.6572 10.1014 96.703697
30.4037 11.4076 95.692299
29.2171 14.4704 94.6586
29.552999 14.4454 94.777199
29.621799 13.4373 94.779999
29.259899 13.4435 94.666603
29.720699 11.5997 95.434601
29.3514 11.6618 95.313499
29.8542 10.4162 96.340103
29.4807 10.3939 96.262199
30.042 9.8819399 96.737701
29.6819 9.79037 96.6978
30.492201 8.90133 97.216499
30.058599 8.8415499 97.124001
29.500601 15.5131 95.212502
29.823601 14.4583 94.790398
31.5945 7.7449899 98.867996
32.2687 7.6753502 99.033203
32.108002 8.0169401 98.725098
28.491899 14.558 94.249199
28.5674 13.4965 94.375702
30.296801 9.8782501 96.780602
30.1828 10.346 96.464203
30.007 11.5432 95.529404
29.903 13.4379 94.806702
28.6796 11.7747 95.031403
32.104198 5.4265399 101.915
27.6919 6.0862002 105.56
26.8985 6.0985398 105.402
27.2113 5.4933 104.655
27.8549 5.4704499 104.737
27.4881 5.05547 103.988
28.1394 5.0872302 104.1
27.7738 4.6131701 103.157
28.528099 4.7504702 103.187
27.9793 4.2476802 102.159
28.7726 4.4986501 102.115
24.7679 12.9103 89.243896
23.759701 10.3009 89.598198
23.0317 10.1046 88.190498
23.908899 12.5806 87.836304
28.7656 6.1720099 105.632
28.7316 5.4760799 104.822
29.501699 5.5595999 104.842
26.462799 6.0636201 105.337
26.8769 5.4974399 104.595
19.273701 18.7635 91.081902
21.1798 18.464001 91.367798
23.2402 8.2286596 89.139999
22.908199 9.0947399 88.453499
23.955 8.8746405 90.383202
25.5093 11.6152 91.845299
25.283701 10.3023 92.5364
26.7075 12.1043 93.5121
26.420099 11.0884 93.955399
27.6462 11.5749 94.611397
26.1833 13.2019 91.5121
27.088301 13.3585 92.967499
27.7892 13.4922 93.809998
23.9317 14.4023 87.774399
24.9191 14.5829 89.142403
26.358101 14.6458 91.3144
27.235701 14.6388 92.6884
27.815001 14.6425 93.557503
22.4617 16.284599 87.970703
23.8806 16.1649 89.420898
25.874201 15.8393 91.285698
26.986099 15.7054 92.726402
27.6649 15.6584 93.685799
20.8507 17.4851 89.031799
22.2509 17.526699 90.089104
24.9303 16.7826 91.555099
26.5172 16.4956 93.082802
27.434099 16.466999 94.204201
23.8255 17.7146 92.314598
26.0469 17.175501 93.712898
27.2386 16.9765 94.861702
23.4491 19.002899 95.401299
25.668301 18.4238 96.198898
26.9174 17.719801 96.133202
28.1875 17.456699 97.147499
28.228201 16.647699 95.503304
29.6404 17.4128 97.874802
29.538401 16.630301 96.2883
30.9524 17.507601 97.873802
30.707001 16.7481 96.443398
23.3927 19.2341 98.266098
25.2635 18.819099 98.851997
26.6297 18.3589 98.559502
28.0187 17.996201 98.954102
29.4737 17.9342 99.505699
29.2661 14.1227 106.753
30.380501 14.8541 106.471
29.2055 14.607 106.568
28.09 15.0371 106.132
28.332199 13.7829 106.836
27.0753 15.1422 106.043
27.2757 13.7042 106.915
25.893299 15.4023 106.086
24.034401 15.8748 106.399
24.416901 15.0137 106.928
29.853701 18.1332 100.241
30.1145 18.097799 102.901
27.5103 17.8696 102.566
28.725201 17.823999 103.379
29.0382 18.1313 100.429
27.6087 18.153099 100.693
27.880899 18.157 99.846497
26.6339 18.3876 99.725998
26.6257 18.306999 100.361
25.1947 18.767099 99.567596
25.308599 18.6789 100.149
23.7563 18.929501 100.033
23.292601 19.0469 99.213501
22.348101 19.066099 99.8601
23.764099 18.776699 100.857
22.555799 18.9177 100.723
23.1752 18.4037 102.426
25.4461 18.130301 101.981
25.356899 18.503799 100.939
26.607 17.958599 101.609
26.6122 18.1721 100.954
26.6646 17.6003 102.663
25.5844 17.745501 102.857
23.281401 18.055 103.334
23.3878 17.6651 104.288
25.689301 17.3778 103.714
26.732 17.260201 103.617
27.518101 17.5142 103.595
30.244301 17.5867 103.943
31.5058 17.8468 103.349
23.500601 17.228201 105.114
25.750299 16.9016 104.608
26.867399 16.7087 104.642
27.7575 16.3909 105.168
28.924601 16.5144 105.274
30.357201 16.765499 105.033
31.663 17.0296 104.597
23.7356 16.563299 105.905
25.8512 16.0462 105.494
26.993 15.7243 105.554
27.950001 15.569 105.79
29.0154 15.7106 105.891
30.3531 15.9391 105.855
31.367399 16.1054 105.656
31.394199 14.9368 106.281
32.006401 16.2962 105.42
32.262299 15.0959 105.963
31.4585 14.3318 106.424
32.485699 13.5726 106.243
31.629601 12.9406 106.605
32.719799 12.0574 106.449
33.005199 9.4710598 106.273
31.757799 11.4938 106.73
31.9356 8.9368896 106.428
30.702999 11.2082 107.028
30.7806 8.7265301 106.713
29.4939 10.9075 107.31
29.492201 8.5240402 106.939
28.6264 10.5888 107.379
28.508301 8.3335505 107.059
27.5744 10.3068 107.548
27.5446 8.3903799 107.245
30.6373 12.5929 106.897
29.429899 12.119 107.168
28.598 11.7273 107.247
27.560801 11.4181 107.473
30.5509 13.9171 106.707
29.348301 13.3268 106.965
28.5215 12.9563 107.029
27.4543 12.688 107.257
30.4655 15.7555 95.288696
28.459299 15.6108 94.559998
26.236099 3.6045699 102.366
26.2742 2.8585601 101.306
27.2673 3.41644 101.149
27.153601 3.96999 102.218
28.168501 3.90097 101.091
28.9541 4.3220701 101.195
29.884701 4.6902399 101.301
29.746799 4.7578402 102.051
26.444799 2.1967299 100.09
27.486799 2.93677 99.867104
28.696899 3.7741499 99.734398
29.259701 4.27144 100.213
30.0273 4.7195301 100.677
28.932501 6.8116298 96.998703
29.370899 5.7908001 97.008904
29.541 4.7929802 97.412201
29.623699 4.4700198 99.051903
29.2153 3.8401699 98.1548
30.2875 5.00178 99.6847
31.6737 6.6789999 99.482399
33.376801 6.0019398 102.903
33.286201 6.3165002 104.062
32.486301 5.9348798 104.019
32.664101 5.70962 102.898
33.268299 6.66677 104.663
32.414398 6.2585602 104.673
31.403999 5.8843098 104.691
31.560499 5.5341902 103.938
31.8487 5.4194698 102.83
28.2586 2.4918799 95.898598
28.763 3.62848 95.486702
28.552099 4.72223 95.232597
28.0324 5.6099601 95.098801
27.369301 6.4273901 94.823898
28.2789 7.57687 96.6464
26.733 7.0917201 94.484497
27.7029 8.4304199 96.115196
26.166401 7.8847799 94.162804
27.184299 8.9565401 95.541901
25.7931 8.3500605 93.750397
25.4601 9.0515299 93.161797
26.689501 9.7374401 94.841797
27.719999 2.39645 93.6604
27.577499 3.4110401 93.324997
27.2031 4.2744002 93.074997
26.7073 5.0760899 92.727303
26.206301 5.6928401 92.334396
25.6425 6.38345 92.013496
25.025299 7.2056499 91.681602
24.4559 7.9782 91.121498
26.6511 1.1277601 91.925003
26.617399 2.1124201 91.462196
26.3263 2.94574 91.132202
