# .PCD v.7 - Point Cloud Data file format
VERSION .7
FIELDS x y z
SIZE 4 4 4
TYPE F F F
COUNT 1 1 1
WIDTH 1689
HEIGHT 1
VIEWPOINT 0 0 0 1 0 0 0
POINTS 1689
DATA ascii
9.4470901 -17.8475 87
9.61127 -17.8883 87.246101
9.6636496 -18.0263 87.400703
9.4653797 -17.952801 87.110001
9.4961596 -18.105801 87.235298
9.7821503 -18.2384 87.589401
9.9247999 -18.459 87.763199
9.5686903 -18.334 87.395599
9.6707697 -18.573 87.566597
9.1608105 -17.5044 86.528801
9.1270199 -17.5741 86.465599
9.2567902 -17.563 86.527298
9.3540201 -17.6682 86.541397
9.2265997 -17.6294 86.474899
9.31429 -17.718901 86.488503
9.37782 -17.7094 86.554802
9.3799896 -17.73 86.575203
9.3337603 -17.7563 86.504997
9.3318996 -17.775999 86.523804
9.3775301 -17.758801 86.629997
9.3691502 -17.784401 86.697098
9.3236103 -17.8015 86.567497
9.3092098 -17.823999 86.624001
9.35291 -17.811001 86.765198
9.3300304 -17.827299 86.827499
9.28759 -17.8515 86.678902
9.2619495 -17.879101 86.730003
9.3359404 -17.889299 86.886398
9.2505503 -17.9454 86.778801
9.3388395 -18.002199 86.982399
9.3475704 -18.166599 87.077797
9.2333002 -18.058399 86.850098
9.22293 -18.2183 86.916199
9.3748398 -18.407101 87.195999
9.4427004 -18.654699 87.334198
9.2327604 -18.466999 86.985603
9.2750196 -18.7188 87.068703
9.1017303 -17.636801 86.410797
9.0948801 -17.678301 86.370796
9.2028904 -17.684299 86.426201
9.2822704 -17.7619 86.438797
9.19067 -17.723499 86.388901
9.2609701 -17.7883 86.401398
9.3024302 -17.799 86.453598
9.3001804 -17.8204 86.470001
9.2820501 -17.8311 86.411201
9.2798595 -17.8514 86.418999
9.2924604 -17.844999 86.498802
9.2769804 -17.868299 86.537498
9.2540503 -17.898199 86.578102
9.2213697 -17.9475 86.619301
9.2411203 -17.956301 86.466003
9.2154598 -18.016899 86.490601
9.1908798 -18.0196 86.656303
9.1885996 -18.0931 86.511497
9.1619501 -18.1271 86.694
9.1502304 -18.2698 86.722702
9.1599302 -18.1863 86.522797
9.14081 -18.3027 86.527702
9.14715 -18.503799 86.751404
9.1826401 -18.7609 86.795502
9.1261301 -18.509001 86.5261
9.1471701 -18.772499 86.522202
9.0962696 -17.695 86.3545
9.0910196 -17.6915 86.351501
9.1881905 -17.7379 86.371399
9.2558699 -17.8009 86.379601
9.1822996 -17.732401 86.363899
9.2526503 -17.7948 86.370499
9.2769299 -17.842699 86.385201
9.2769604 -17.860201 86.387299
9.2777996 -17.832899 86.370399
9.28232 -17.849501 86.364998
9.2792101 -17.887699 86.347298
9.2030296 -18.1119 86.3927
9.1801996 -18.193701 86.391602
9.1564398 -18.2906 86.382896
9.2142897 -18.129499 86.2976
9.1875601 -18.209299 86.277802
9.1393995 -18.469601 86.345596
9.1755199 -18.7351 86.2659
9.1697998 -18.366899 86.207703
9.23771 -18.6434 86.024399
9.0904303 -17.6583 86.339996
9.1253004 -17.5755 86.324898
9.1811199 -17.7022 86.354797
9.2580099 -17.7754 86.358002
9.2025404 -17.634199 86.350998
9.2898502 -17.717501 86.349098
9.2818804 -17.8006 86.351501
9.2915001 -17.817499 86.339203
9.3124304 -17.748899 86.342003
9.32763 -17.766701 86.322899
9.2955599 -17.847799 86.3106
9.2871103 -17.8939 86.265701
9.3414097 -17.789499 86.273499
9.3508902 -17.82 86.2099
9.2785501 -17.964701 86.230103
9.3625803 -17.8613 86.153603
9.2714901 -18.016899 86.205299
9.25807 -18.074301 86.173203
9.3700705 -17.894501 86.110901
9.3687 -17.931801 86.062401
9.23139 -18.186701 86.085999
9.36166 -18.016399 85.944397
9.2878599 -17.433599 86.338799
9.3689098 -17.501699 86.355003
9.4435596 -17.576401 86.339302
9.4748001 -17.614599 86.321404
9.4890003 -17.643499 86.296997
9.5070801 -17.6805 86.232803
9.5305796 -17.7122 86.120598
9.5487404 -17.7328 86.028801
9.5623999 -17.750099 85.963303
9.5691299 -17.7764 85.894699
9.5727901 -17.8424 85.774696
9.5825701 -17.3167 86.256104
9.6446505 -17.371099 86.263496
9.7011604 -17.4352 86.2342
9.7298002 -17.477501 86.212799
9.7432899 -17.505699 86.185699
9.7621498 -17.541401 86.119797
9.7838602 -17.563801 85.981003
9.8023396 -17.565701 85.862396
9.8224897 -17.5704 85.7836
9.8371601 -17.582001 85.709503
9.8575602 -17.6243 85.584396
9.9386101 -17.1985 86.171303
9.9930401 -17.2521 86.167
10.0398 -17.307699 86.136002
10.0602 -17.338699 86.111
10.073 -17.362301 86.074799
10.0864 -17.3766 85.996399
10.0885 -17.362801 85.843498
10.0961 -17.341801 85.717499
10.1117 -17.3332 85.641899
10.1288 -17.332399 85.575996
10.1563 -17.3437 85.460602
10.25 -17.0166 86.124702
10.2977 -17.0648 86.112701
10.3383 -17.1136 86.085297
10.3599 -17.1413 86.056999
10.3715 -17.153299 86.0131
10.3846 -17.1544 85.924004
10.3815 -17.1203 85.775803
10.3783 -17.0847 85.6558
10.3852 -17.065599 85.586403
10.3967 -17.052299 85.528
10.4242 -17.0385 85.414001
10.4879 -16.806 86.129303
10.5337 -16.853701 86.119698
10.5733 -16.8995 86.091202
10.5967 -16.9202 86.055603
10.6042 -16.919001 86.013199
10.6171 -16.9048 85.930298
10.6124 -16.861401 85.786797
10.6073 -16.8221 85.6726
10.6113 -16.798901 85.606201
10.6144 -16.775801 85.550201
10.6283 -16.741199 85.433197
10.6405 -16.585899 86.1782
10.6852 -16.635599 86.166199
10.7244 -16.6765 86.142303
10.7528 -16.6959 86.106499
10.7668 -16.693501 86.066803
10.7788 -16.665899 85.994202
10.7847 -16.6084 85.857399
10.7801 -16.560801 85.750099
10.7795 -16.5329 85.687798
10.7753 -16.504801 85.626099
10.7751 -16.460199 85.496101
10.7429 -16.320801 86.249496
10.793 -16.3764 86.242203
10.8384 -16.4319 86.212997
10.8735 -16.4503 86.185097
10.8909 -16.4431 86.149597
10.9038 -16.407301 86.089104
10.9067 -16.3414 85.968903
10.9025 -16.2934 85.876503
10.9027 -16.2672 85.817596
10.8997 -16.241699 85.754501
10.8948 -16.1919 85.617203
9.2213001 -20.361601 80.0634
9.2930498 -20.2617 80.074402
9.5146704 -19.9438 80.061798
9.7186003 -19.525 79.987701
9.7706499 -19.2983 79.948097
9.8363895 -18.956301 79.879997
9.9537296 -18.292601 79.762604
9.9683704 -18.1127 79.749901
9.9970703 -17.9161 79.7313
9.9823999 -17.804199 79.751404
10.0208 -17.970699 79.7276
9.9294701 -18.481001 79.820396
9.7932301 -18.9242 79.911301
9.1979704 -19.9405 80.131897
9.07512 -20.091 80.148499
8.9418097 -20.2332 80.158401
9.8177004 -17.6936 79.7771
9.8316202 -17.7033 79.812798
9.1287498 -20.0746 80.152298
9.0556498 -20.169001 80.141602
9.2346697 -19.956499 80.146797
9.3806295 -19.7959 80.132004
9.5041704 -19.631399 80.1007
9.5873699 -19.3923 80.061302
9.6375599 -19.168501 80.029701
9.6999397 -18.8703 79.984398
9.7919598 -18.450001 79.908699
9.8171101 -18.2279 79.879799
9.8171101 -18.053499 79.858597
9.8094397 -17.9027 79.850998
9.81073 -17.7698 79.8489
9.8413696 -17.7631 79.747902
9.8444405 -17.8463 79.734596
9.8579502 -17.9835 79.734001
9.8682499 -18.1089 79.757202
9.8112297 -18.433701 79.825401
9.7067099 -18.868999 79.907997
9.5994797 -19.106701 79.958702
9.47756 -19.327 80.016502
9.3291597 -19.5618 80.070503
9.1169596 -19.854799 80.1241
8.9970398 -19.9986 80.142403
8.8623199 -20.138201 80.153801
8.95051 -20.2866 80.144402
10.6214 -20.6038 82.951103
10.5656 -20.255199 82.855103
10.5177 -20.322901 82.712502
10.269 -20.1248 82.497002
10.1923 -20.174601 82.496803
10.0764 -20.0783 82.428802
10.0487 -19.797001 82.3368
9.9151297 -19.6348 82.250603
9.9099903 -19.589701 82.204697
9.9682999 -19.483101 82.043404
9.8630896 -20.1015 81.8592
9.8143101 -20.375 81.664101
9.7767801 -20.454 81.904198
9.6734304 -20.673599 81.955399
9.5771704 -20.759399 81.900803
-1.67924 -3.3257301 88.7799
3.3457999 -8.4745798 96.782204
5.2736902 -10.967 97.099197
6.1715498 -12.1748 97.047302
6.7364101 -12.9678 96.917503
9.2527504 -16.3148 95.2136
10.0331 -17.5532 93.445999
10.476 -16.738199 93.3647
10.8429 -17.7029 91.035797
10.8487 -17.944799 90.213501
11.0054 -18.193199 89.2864
11.071 -18.236601 88.959396
10.5482 -18.636499 88.319397
10.1883 -18.889 88.092102
9.5509005 -19.0994 87.517502
9.3642597 -19.149 87.2332
9.3083601 -19.384701 86.557999
9.39363 -19.444099 86.171097
9.5561104 -19.5007 85.706299
9.7104702 -18.9326 85.1772
9.8744497 -19.171801 84.852997
10.002 -19.357 84.539497
10.0816 -19.5977 84.057503
10.0904 -19.690001 83.868103
10.2126 -19.8176 83.603798
10.434 -19.9547 83.321999
10.5259 -20.038799 83.135696
10.4567 -20.500299 83.609398
10.3236 -20.3396 83.733101
10.2834 -20.336901 83.8386
10.6454 -20.8965 82.872101
10.605 -20.676701 82.834503
10.6623 -20.8258 82.987297
10.6718 -20.7771 83.143799
10.6447 -20.7348 83.314301
10.5308 -20.486401 83.438698
10.6046 -20.7528 83.492401
10.7146 -20.987101 83.341003
10.7223 -20.9984 83.1614
10.6608 -21.9573 83.653801
10.6308 -21.910999 83.798401
10.7542 -21.7952 83.650299
10.7233 -21.747499 83.793098
10.808 -21.5874 83.569199
10.7627 -21.5168 83.7425
10.4389 -20.704901 83.868202
10.4628 -20.6894 83.772301
10.6986 -21.206699 83.707802
10.7741 -21.309999 83.545799
10.769 -21.2623 83.158302
10.7879 -21.2682 83.349899
10.6939 -21.0247 83.524399
10.5908 -21.046101 83.859596
10.5637 -20.8071 83.654503
10.682 -21.9869 83.507896
10.7722 -21.822599 83.5242
10.8206 -21.573099 83.3461
10.7915 -21.560699 83.132202
10.7768 -21.8319 83.328499
10.7591 -21.8064 83.104301
10.6905 -22.004499 83.309898
10.671 -21.9869 83.074402
10.274 -19.0165 88.244598
10.3822 -19.1122 88.488297
10.6872 -18.7481 88.579201
9.9867401 -19.234699 88.092102
10.1258 -19.3417 88.422501
10.4315 -19.1583 88.813103
10.2917 -19.263599 88.620399
10.7318 -18.7939 88.892403
10.3399 -21.3461 82.525398
10.3645 -21.438299 82.520699
10.2132 -21.383801 82.436501
10.2137 -21.3039 82.455803
10.07 -21.2931 82.344803
10.0942 -21.192699 82.395897
10.4687 -21.3241 82.6147
10.5099 -21.452 82.617203
9.1076498 -20.0357 87.501297
9.1286297 -19.984699 87.711403
9.1556396 -19.995501 87.950203
9.2033701 -20.025101 88.258102
9.26793 -20.0413 88.695297
9.3074703 -20.0224 89.202301
9.3027897 -19.948999 89.7677
9.2862501 -19.842699 90.4459
9.2721596 -19.7554 90.896599
9.2577 -19.6738 91.262802
9.2423 -19.5879 91.629601
9.1903296 -19.457899 92.077599
9.0904799 -19.2873 92.6017
8.97118 -19.1136 93.0923
8.8400002 -18.929199 93.5755
8.6055298 -18.637899 94.256104
8.3162003 -18.310301 94.834702
9.4002199 -18.995701 92.5681
9.28228 -18.818001 93.059998
9.15135 -18.629299 93.548203
8.9326601 -18.3169 94.223999
8.7063503 -17.9415 94.788902
8.5211601 -17.2547 95.386398
10.1049 -20.3853 82.711998
10.0191 -20.208 82.669502
9.9200497 -20.1192 82.622398
9.8121099 -20.082899 82.573502
9.7202997 -20.117001 82.540901
9.5914297 -20.3055 82.5653
9.8014297 -20.299299 82.185699
9.8229704 -20.158001 82.303398
9.7910604 -20.318501 82.2696
9.7846699 -20.1276 82.487801
9.82335 -20.114401 82.501404
9.8216801 -20.1304 82.422401
9.8513002 -20.1099 82.443604
9.8430405 -20.0965 82.350601
9.8779898 -20.083799 82.388603
10.6396 -21.357901 82.758904
10.6749 -21.4958 82.812302
10.5888 -21.5438 82.686203
10.2191 -20.2939 84.251099
10.387 -20.8323 84.361801
10.4068 -20.739201 84.074799
10.2315 -20.306 84.024803
10.6881 -21.4459 83.938797
10.6889 -21.2885 82.858101
10.6376 -21.173901 82.783897
10.5759 -21.3256 82.691002
10.5604 -21.0765 82.710098
10.7295 -21.2708 82.983704
10.7305 -21.527399 82.944603
10.6772 -21.093901 82.877502
10.702 -21.037001 82.994698
10.6205 -20.991699 82.786003
10.258 -21.436899 84.808403
10.1269 -21.273899 85.111603
10.3142 -21.249599 84.786797
10.1801 -21.083799 85.099503
10.327 -21.052099 84.737396
10.1768 -20.8745 85.060799
10.2707 -20.7185 84.653
10.1361 -20.5646 84.982002
10.1722 -20.2551 84.525597
10.0671 -20.135 84.845497
9.9890404 -21.089399 85.425598
9.8189898 -20.852301 85.786797
10.0312 -20.8915 85.413902
9.8585701 -20.654699 85.769402
10.0202 -20.6735 85.392097
9.82022 -20.407 85.755096
9.9531202 -20.3307 85.3452
9.7220001 -20.044701 85.739304
9.8639202 -20.111799 82.515297
9.8982 -20.1033 82.461899
9.9261999 -20.083 82.421204
9.88554 -20.013399 82.330101
9.9070597 -19.9048 82.2911
10.4937 -21.719601 84.249397
10.3864 -21.5872 84.509598
10.5707 -21.5562 84.224602
10.4538 -21.4111 84.483704
10.597 -21.3547 84.172798
10.4704 -21.2136 84.429604
10.5295 -21.034401 84.107498
9.8339996 -19.8587 82.1856
9.8217201 -20.0105 82.2062
9.8179798 -20.2239 82.066803
9.8580704 -20.8999 82.6688
9.7659197 -20.7638 82.673203
9.9739799 -20.9002 82.531303
9.8818598 -20.748301 82.525597
9.9902601 -20.954399 82.427002
9.9047203 -20.793699 82.405403
9.9904499 -21.030399 82.345596
9.8970604 -20.881701 82.298103
9.9460897 -21.146 82.282204
9.84305 -21.006201 82.2295
9.8094597 -20.712999 82.251701
9.8394098 -20.641701 82.380096
9.8005505 -20.6017 82.511703
9.6797104 -20.636499 82.656403
10.3385 -18.1516 91.9422
10.2717 -17.966 92.454002
9.835 -18.790501 92.011497
9.4863596 -19.1633 92.050102
9.7555199 -18.6161 92.523201
10.3985 -18.383101 91.1399
10.4093 -18.473301 90.776901
9.9744501 -18.922199 91.200203
9.98034 -19.0096 90.851997
9.7610102 -19.171801 91.226402
9.73631 -19.2808 90.874298
9.5204201 -19.4277 91.247002
9.5051298 -19.529499 90.885597
9.5292997 -19.306601 91.607597
9.8566303 -18.940901 91.577301
10.3756 -18.284401 91.506203
9.5146503 -18.242399 93.511597
9.0232897 -17.5765 94.740898
9.2848196 -17.9277 94.1847
9.6465502 -18.4363 93.019798
10.1615 -17.7672 92.956398
9.8841 -19.4165 88.159798
9.6459503 -19.5765 88.035202
9.5362396 -19.4634 87.720703
9.5650301 -19.2836 87.611702
9.4617395 -19.6112 87.786598
9.2589998 -19.8347 87.679199
9.3055096 -19.7521 87.500702
9.2188396 -19.904499 87.473503
9.4601402 -19.708799 87.971497
9.29702 -19.862101 87.942398
9.3542805 -19.9009 88.241997
9.5337896 -19.757601 88.262703
9.7432699 -19.601601 88.288696
9.43186 -19.908501 88.672997
9.4913797 -19.8708 89.193199
9.4979401 -19.770599 89.761597
9.4955902 -19.6402 90.437798
9.6816101 -20.7658 82.075104
9.5433102 -20.8451 82.000198
10.6617 -18.778 89.280502
-1.60092 -4.99754 93.026802
-2.37872 -4.2539902 91.004997
-2.8257999 -3.9505701 88.925697
5.2869 -12.9763 97.366203
4.2192898 -11.7525 97.455803
2.14224 -9.2980204 97.144997
1.0095201 -7.8336701 96.4841
-0.186772 -6.4131198 95.324699
-0.93404901 -5.6374698 94.2761
7.8048601 -16.2647 96.252899
6.9439998 -15.1271 96.806198
5.9203601 -13.7538 97.2491
10.5582 -18.6394 89.743599
10.4071 -18.6248 90.292
10.2854 -18.990601 89.753304
10.3262 -19.175699 89.229301
9.9755497 -19.129299 90.3993
9.7254896 -19.405001 90.429497
9.7224998 -19.569401 89.764
9.9773397 -19.317699 89.771103
9.8541899 -19.6061 88.690697
9.6950302 -19.7005 89.182198
9.9640903 -19.483999 89.194199
9.6156902 -19.768 88.666397
9.3830204 -19.3444 87.320702
9.7634602 -20.592199 82.193199
9.7461796 -20.875401 82.161499
10.1911 -21.230301 82.490799
10.2835 -21.2707 82.5354
10.3866 -21.2297 82.599701
10.4849 -21.0641 82.668404
10.4943 -20.7747 82.681099
9.8651199 -19.8811 85.236504
9.7624502 -20.5254 82.058296
9.7786398 -20.317101 82.377998
9.8003998 -20.1803 82.397499
10.0284 -20.117901 82.4673
10.0005 -20.132299 82.497704
10.1132 -20.197001 82.5373
10.3614 -21.584499 82.526802
10.1911 -21.454 82.421997
10.4466 -21.694099 82.611603
10.5209 -21.802099 82.719101
10.5988 -21.902 82.860703
10.573 -21.8262 84.0037
9.5908203 -20.547001 86.238602
9.3651304 -20.2474 86.7211
9.2392302 -20.030199 87.157501
10.6325 -21.655199 82.765602
10.3792 -20.999901 82.657997
10.3032 -21.1432 82.616302
10.2262 -21.1947 82.565498
10.5612 -20.739599 82.747498
10.3382 -20.3997 82.596199
9.5439501 -20.464001 82.609497
9.99265 -21.0476 82.634598
10.0839 -21.093901 82.627098
10.1355 -21.0952 82.666901
10.1937 -21.049 82.701401
10.2441 -20.913799 82.723999
10.2049 -20.6805 82.753899
10.0574 -20.214701 82.591698
10.1674 -20.3888 82.632004
9.9708004 -20.148701 82.550598
9.7666903 -20.172899 82.4683
9.7117701 -20.3381 82.477501
9.7236996 -20.4914 82.497101
10.0614 -21.0676 82.535698
10.1532 -21.1616 82.540901
10.2909 -20.7106 82.667503
9.8463097 -19.8764 82.246399
10.2529 -20.3951 82.609703
10.3855 -20.7391 82.6595
9.7881002 -20.5193 82.347504
10.0889 -21.119499 82.461403
9.6254196 -20.3473 86.217102
9.4182997 -20.0737 86.692497
9.3073196 -19.8668 87.126801
9.5127296 -19.815201 86.179901
9.59863 -20.121401 86.196503
9.3839397 -19.657499 86.604301
9.4214897 -19.8899 86.655403
9.3149796 -19.471201 86.985199
9.3255596 -19.679899 87.070198
9.3775501 -19.5637 87.444298
9.8340502 -20.008101 82.286102
9.8181696 -20.080601 82.236504
10.6975 -21.7342 82.901299
10.661 -21.6682 83.986702
-1.8314 -6.1257501 80.913498
-0.89197803 -5.6321502 80.739998
6.42908 -8.2953901 79.583
6.5172501 -8.7087402 78.684898
10.8696 -13.2069 92.4823
10.8028 -12.4109 91.796799
11.2037 -13.8144 91.574699
11.1187 -12.9913 90.969704
10.8174 -14.1148 93.0802
11.1909 -14.7465 92.136101
10.8494 -12.1664 90.120499
10.4335 -11.4041 90.639801
11.3683 -14.2476 90.778503
11.2959 -13.491 90.2407
11.1815 -12.9395 89.671997
10.9933 -12.4797 88.960098
11.4348 -14.4064 90.413696
11.3699 -13.7055 89.916397
11.2868 -13.2525 89.433197
11.1652 -12.8765 88.814003
11.0571 -13.5698 82.699097
10.795 -13.5801 81.863701
11.3028 -13.3002 85.197403
11.3267 -13.4851 84.343697
11.2543 -13.5353 83.625298
11.5783 -14.7648 89.5961
11.5207 -14.1099 89.141998
11.3671 -13.4332 88.504601
11.2228 -13.1094 87.786102
11.1494 -13.0061 87.009201
11.1459 -13.0203 86.417397
11.1705 -13.0446 86.187401
11.2014 -13.0884 85.967598
10.5619 -13.4747 81.204002
10.3139 -13.127 80.474602
11.3794 -13.7459 85.678802
11.2655 -13.2132 85.5448
11.0475 -12.6028 85.422997
10.5885 -20.297001 83.044899
9.6256704 -19.2141 85.436501
9.4200697 -18.896 85.733902
10.5494 -20.246099 83.198898
10.2077 -20.037201 83.725899
10.1783 -20.0294 83.791901
10.2495 -20.068899 83.673203
10.4716 -20.205099 83.385498
10.1434 -19.980101 83.959297
10.1287 -19.9279 84.162102
9.8445301 -19.5119 85.065399
10.0186 -19.7421 84.703003
10.0982 -19.8671 84.403
10.3604 -20.145 83.557404
9.0352402 -9.4865398 84.8153
8.9736204 -9.5941601 84.240799
8.7996998 -10.4656 79.154198
8.9691296 -10.8285 78.728996
8.7547398 -10.016 80.852303
8.7201405 -10.1425 79.991699
9.4012403 -9.68225 90.133598
9.24543 -9.4473696 88.825798
9.1326199 -9.3191099 87.723503
9.1512699 -9.35886 86.825699
9.1157198 -9.4115105 85.714203
8.8573399 -9.65341 83.579498
8.7905998 -9.7772102 82.872498
8.7947197 -9.9377003 81.797699
11.485 -14.2587 85.090202
11.4625 -13.8841 84.877098
11.3375 -13.4317 84.708
7.46732 -6.7971902 90.338501
7.47925 -6.96071 91.545601
7.0490398 -7.40488 93.667397
6.6598201 -7.7568598 94.780197
5.8762002 -8.4875603 95.831703
5.1333899 -9.1330299 96.519897
4.3308301 -9.7257795 97.010201
3.21172 -10.5074 97.360703
6.7958899 -7.8821702 81.755501
7.0300498 -8.3547201 81.675598
6.5462098 -7.3246298 81.727798
7.2744699 -8.6028204 81.660896
7.5657802 -8.7938404 81.637802
7.9369202 -9.0826502 81.633102
6.0830302 -6.5801301 81.570602
5.71522 -6.1803598 81.437798
4.0520501 -5.06879 81.114502
4.8368702 -5.5032601 81.189102
2.6876099 -4.5986099 81.270103
1.82902 -4.4049501 81.359802
0.88897997 -4.45187 81.4459
-0.503295 -4.8058 81.667397
-1.56409 -5.1752601 81.827599
-2.4352901 -5.6308198 81.960098
8.3737898 -9.4777498 81.624603
11.3618 -15.1394 91.251198
11.1043 -15.5529 92.513802
10.9047 -16.3874 81.129601
10.882 -16.506701 81.131302
8.5992098 -8.4231501 89.168404
8.5510397 -8.3467503 90.463097
8.3627996 -9.0871696 93.862396
7.9827399 -9.47579 94.947304
7.1808901 -10.2926 96.038902
6.4601402 -10.9264 96.677597
5.7393899 -11.5917 97.102203
8.6632204 -8.5631704 91.715599
4.7427902 -12.3488 97.445099
7.8657799 -7.3862 88.402901
7.8443398 -7.2961302 89.280998
7.8530898 -7.3275399 90.432098
7.8714299 -7.4696999 91.644501
7.47404 -7.9594998 93.798103
7.0854902 -8.3284502 94.8675
6.2794399 -9.06458 95.933296
5.5761299 -9.7413998 96.613701
4.8045402 -10.3477 97.084396
3.7460401 -11.1661 97.440598
7.3770199 -6.7378998 87.747398
7.28478 -6.5783601 88.361298
7.1981001 -6.4154301 89.143997
7.1162601 -6.3517499 90.202698
7.1015401 -6.49122 91.425301
6.6516199 -6.9179702 93.559097
6.2615499 -7.2226801 94.659103
5.43999 -7.89468 95.730904
4.6527901 -8.5002403 96.414902
3.8201101 -9.0825796 96.911003
2.6545899 -9.9042702 97.284203
6.3738198 -5.4934402 88.826797
6.3326302 -5.4661899 89.817802
6.2933302 -5.5770898 91.118698
5.7671499 -5.8405199 93.2267
5.3143301 -6.0920401 94.327301
4.4403 -6.6304002 95.3908
3.6120901 -7.1763501 96.024101
2.7369399 -7.74473 96.533798
1.52853 -8.5661097 96.859703
5.5948801 -4.6898298 88.6381
5.5040102 -4.6317401 89.433601
5.4552102 -4.6977201 90.605598
4.8742399 -4.7765002 92.5439
4.2829099 -4.9572201 93.636002
3.30356 -5.3661399 94.694099
2.4141901 -5.79248 95.244202
1.52249 -6.3460202 95.712898
0.46705601 -7.1780901 96.032097
9.2073498 -10.1643 93.701401
9.3161602 -9.5087099 91.594398
9.1869202 -9.3199701 90.270897
9.0619698 -9.1591196 88.897003
7.8706498 -13.0545 96.432198
7.30024 -13.6777 96.709702
8.14291 -12.7312 96.214996
8.5987701 -12.0715 95.7789
8.8029404 -11.6845 95.4086
9.1750898 -10.9331 94.560402
6.49196 -14.4904 97.051102
8.6901302 -14.1888 95.969101
8.1780701 -14.7917 96.249702
9.0531797 -13.6848 95.670403
9.4259901 -13.1009 95.233398
9.6676502 -12.5562 94.706902
9.9082298 -11.8506 93.879997
9.9969196 -11.246 92.9823
9.6661196 -10.1263 89.920403
9.8820496 -10.4596 91.170502
9.5664301 -9.9527502 88.640602
7.3463602 -15.6915 96.575302
10.0088 -13.8628 94.641602
9.73001 -14.4521 95.090897
9.3705902 -15.0994 95.384201
8.9140396 -15.7644 95.6409
8.1390896 -16.7407 95.874199
8.9707298 -9.2808399 92.718102
9.3305101 -9.7656803 92.624802
9.71556 -10.3207 92.348099
10.0079 -10.7709 92.040298
10.2763 -11.2244 91.708702
10.4126 -11.449 91.477402
10.6041 -11.7599 91.102699
10.7925 -12.0975 90.744102
4.5750899 -3.9909999 90.607002
4.8295698 -4.2411699 91.0532
3.5631199 -5.0455198 80.611099
3.25264 -4.7734599 81.170898
3.10499 -4.45783 81.873299
3.1112001 -3.9670401 83.174301
3.08215 -3.48402 84.676498
3.25863 -3.2383699 86.200302
3.5102 -3.1852601 87.556801
3.90467 -3.37602 89.034798
5.2803302 -4.7217898 91.449898
5.7027998 -5.1670899 91.7603
6.1402502 -5.67698 92.007202
6.59482 -6.2188601 92.230797
6.9736199 -6.6743598 92.3853
8.1658697 -8.1979704 92.777802
8.5978804 -8.77913 92.775299
10.9588 -12.4291 90.439598
7.34763 -7.1553798 92.550102
7.7568002 -7.67556 92.661903
5.0932002 -4.2542901 89.360802
4.7314 -3.9366701 89.499802
0.28258601 -3.4275601 91.380402
-0.94654202 -3.8669801 91.668602
1.35921 -3.1797299 91.124397
2.53355 -3.19982 90.633598
3.41278 -3.33992 90.209503
4.1683102 -3.6412301 89.827301
-2.1208799 -4.5232601 91.924599
5.1264501 -4.2232199 87.871101
4.3077598 -3.55071 88.049103
3.6881399 -3.24773 88.302597
2.9079001 -2.94209 88.622803
1.9858201 -2.80076 88.976097
0.851372 -2.8337901 89.325996
-0.26391199 -3.0353701 89.545303
-1.46999 -3.41833 89.8153
5.7844701 -4.89711 87.841202
-2.6131499 -4.0815401 90.035698
9.0365105 -20.289101 76.0681
8.88416 -20.403601 76.038902
8.9593801 -20.3477 76.053001
8.9275503 -20.155899 75.748802
8.9857397 -20.229 75.911102
9.2361097 -20.068399 76.023697
9.1197395 -20.212099 76.060501
9.0876198 -20.3682 76.264503
9.07026 -20.340799 76.192902
9.5690899 -19.770901 76.181
9.6977797 -19.861099 76.8283
9.6512299 -19.8269 76.476097
9.3452301 -20.1471 76.316002
9.4618597 -19.952801 76.235497
9.3726397 -19.6266 75.699303
9.4695902 -19.7033 75.914497
9.76828 -19.3218 76.106499
9.6717501 -19.575701 76.139702
9.8655796 -18.587999 76.096001
9.8356199 -18.993999 76.080704
9.5794201 -18.471201 75.618103
9.7252502 -18.522301 75.831398
9.7971201 -17.712601 76.1119
9.8382998 -18.129299 76.092796
10.0755 -18.7726 76.719704
9.9911699 -18.674299 76.403603
9.1394701 -19.942801 75.752701
9.0189695 -20.067699 75.749702
8.7877398 -20.2948 75.757301
8.8549204 -20.225401 75.7481
8.7985802 -19.9888 75.449097
8.8657198 -20.076099 75.593201
8.9885998 -19.7806 75.435204
9.06388 -19.8605 75.580399
9.2688799 -19.788401 75.726601
9.1993198 -20.0243 75.916496
9.1534004 -19.460501 75.381104
9.2688398 -19.5417 75.523804
9.5295296 -19.190201 75.638603
9.4557199 -19.433001 75.666496
9.5757303 -18.875299 75.615097
9.2582903 -18.377199 75.345901
9.4277 -18.4289 75.452797
9.4347696 -17.700399 75.631401
9.5286503 -18.046101 75.619202
8.4932804 -19.6465 75.187302
8.0721302 -19.208099 75.106499
8.2828598 -19.4142 75.1325
8.6205702 -19.486099 75.18
8.5726604 -19.560801 75.183403
8.6885099 -19.8636 75.307503
8.3441401 -19.812 75.194702
8.4146099 -19.7274 75.189301
8.6769505 -19.2425 75.165604
8.65522 -19.392799 75.1772
8.8468704 -19.6649 75.296799
8.2852802 -19.136 75.107399
8.4267101 -19.1686 75.119301
8.6739397 -18.866301 75.150101
8.6806898 -19.0658 75.154503
8.9681196 -19.3678 75.258904
8.6418695 -18.389 75.251602
8.6642904 -18.6448 75.190697
8.0421696 -18.4177 75.251602
8.3275204 -18.4027 75.247902
8.6029797 -17.8915 75.363998
8.62222 -18.136999 75.307602
9.0022202 -18.370701 75.2836
10.0391 -17.8508 76.674698
10.0884 -18.3354 76.709
10.0425 -18.8379 77.377403
10.0843 -18.827801 77.051498
9.9063301 -19.411501 76.741501
10.0005 -19.119801 76.710297
8.8717899 -20.288099 78.385002
8.9744902 -20.4352 77.893997
8.8869696 -20.322599 78.180099
9.0659304 -20.1164 78.333504
8.9493599 -20.2176 78.370102
8.9197998 -20.323099 78.671799
8.8924103 -20.294399 78.544601
9.1349802 -20.296301 77.854401
9.0648403 -20.172199 78.124397
9.3301296 -19.8484 78.2463
9.2006502 -19.993299 78.283203
9.1211796 -20.125999 78.6157
9.0941296 -20.1063 78.488403
9.38729 -20.059401 77.764198
9.33918 -19.9312 78.030296
9.5434799 -19.5644 78.150597
9.4500399 -19.714701 78.197601
9.3646698 -19.8382 78.536102
9.3475199 -19.825199 78.407303
9.6522999 -19.7708 77.622101
9.5745897 -19.648199 77.927498
9.7433004 -19.218399 78.025299
9.6408501 -19.407101 78.098198
9.5524998 -19.5501 78.462402
9.5447397 -19.5331 78.327301
9.8633299 -19.394199 77.474098
9.7807398 -19.305099 77.782204
9.9369698 -18.735399 77.8853
9.8452396 -18.9956 77.952301
9.7460403 -19.1966 78.372398
9.7416897 -19.176399 78.227203
9.9789801 -18.799101 77.646004
10.0717 -18.041201 77.739403
10.0133 -18.4165 77.802002
9.9378796 -18.6668 78.146797
9.9370003 -18.672701 78.062302
9.0407104 -20.374399 77.882103
9.2259502 -20.460699 77.280602
9.20263 -20.4137 77.535301
9.2503099 -20.1959 77.8144
9.4294901 -20.2332 77.2668
9.4269104 -20.1971 77.454399
9.5432301 -19.9277 77.6875
9.6976604 -19.847601 77.233299
9.7546501 -19.6003 77.554497
9.9105196 -19.428301 77.105797
9.9601097 -19.141199 77.405602
10.1222 -18.0313 77.255096
10.1136 -18.476601 77.3349
9.4412899 -20.225401 76.830498
9.5837402 -20.0453 76.851196
9.79877 -19.6581 76.779701
9.0933704 -20.591801 77.305
9.0588799 -20.5422 77.573997
9.1600904 -20.531099 77.293999
9.0814695 -20.600201 76.951698
9.0908604 -20.600901 77.069801
8.95294 -20.4802 76.264999
8.9289303 -20.4508 76.178497
8.8413696 -20.357 75.905197
8.6561499 -20.140499 75.467201
8.7250996 -20.2215 75.6063
8.5414104 -20.021601 75.315697
7.9011502 -19.378799 75.113403
8.10884 -19.5797 75.133698
8.7262802 -20.064199 75.453697
8.8807497 -19.898199 75.440697
9.0775404 -19.621 75.408401
9.2604198 -19.0469 75.330803
9.2112103 -19.271799 75.354897
9.28232 -18.7563 75.315102
9.1188803 -17.7544 75.474403
9.2067299 -18.0305 75.411003
8.9596996 -20.5755 76.473503
8.96698 -20.527 76.378304
8.9637604 -20.551399 76.424797
9.0048599 -20.5618 76.527496
8.9850101 -20.565201 76.497704
9.0007296 -20.614599 76.666603
9.02178 -20.5783 76.6082
9.0160704 -20.594999 76.643997
9.0513096 -20.606701 76.788696
9.0277596 -20.6119 76.731903
9.3130598 -20.3703 77.262901
9.2151899 -20.478399 76.958298
9.2191496 -20.4814 77.054604
8.9671202 -20.502199 76.328201
9.0652504 -20.4932 76.483704
9.0236902 -20.500401 76.4198
9.0989103 -20.5254 76.653702
9.0866804 -20.5604 76.735298
9.0723 -20.600201 76.8619
9.0348597 -20.5284 76.505997
9.0162601 -20.566799 76.564903
9.0601397 -20.552401 76.630699
9.27209 -20.105101 76.130302
9.4327602 -20.2423 77.095497
8.1682701 -18.8307 75.1408
8.3903399 -18.826401 75.1418
9.0250902 -18.947001 75.212898
9.4043999 -19.1194 75.469398
9.6514301 -19.2565 75.8452
9.8556404 -19.372601 76.403297
9.0243797 -20.4279 76.276299
9.1580896 -20.3897 76.427597
9.1143799 -20.375 76.321198
9.1454897 -20.5403 76.942497
9.2084503 -20.436899 76.726097
9.2122097 -20.4667 76.874199
9.1029596 -20.4485 76.457001
9.09095 -20.502701 76.564301
9.1451197 -20.489 76.684799
9.2298698 -20.2981 76.374901
9.1912098 -20.409401 76.564201
9.3012695 -20.362301 76.7799
9.4085999 -20.1938 76.552101
10.5001 -20.1066 82.679199
10.3433 -19.871799 82.517998
10.4287 -19.9618 82.593002
10.5271 -19.9986 82.820602
10.517 -20.0571 82.742104
10.5907 -20.4879 82.847298
10.548 -20.2901 82.772697
10.4007 -20.1954 82.584801
10.4614 -20.1486 82.628998
10.1504 -19.773399 82.3918
10.2387 -19.8092 82.447403
10.3785 -19.728701 82.634499
10.3652 -19.803101 82.564697
10.2506 -19.9923 82.462799
10.3048 -19.9282 82.486504
10.0175 -19.7113 82.3181
10.0693 -19.7346 82.346199
10.1929 -19.626699 82.466301
10.1694 -19.706301 82.418404
10.0927 -19.905399 82.369301
10.1246 -19.8332 82.373497
9.9409704 -19.6604 82.270897
9.9805498 -19.688801 82.295303
9.8933296 -19.7913 82.254501
9.9269304 -19.699301 82.264
9.9786396 -19.5371 82.322899
9.9542904 -19.6287 82.280899
10.1078 -19.582899 83.621399
10.1622 -19.9013 83.724098
10.1315 -19.7577 83.685898
10.1484 -19.6089 83.569099
10.1254 -19.5933 83.597397
10.0459 -19.190399 83.375603
10.0842 -19.3909 83.525597
10.0831 -19.5425 83.711502
10.0956 -19.569401 83.6502
10.0704 -19.238701 83.317398
10.0565 -19.2138 83.352402
9.9937401 -19.034901 83.119102
10.0399 -19.1598 83.403397
10.0416 -19.1735 83.389999
9.9883499 -19.0266 82.895401
9.9780598 -19.1551 82.553596
9.9759398 -19.061501 82.683899
10.0007 -19.227699 82.579803
9.9822798 -19.1954 82.566498
9.97894 -19.319099 82.378098
9.9809704 -19.258699 82.428497
10.0009 -19.0352 82.468903
9.9795198 -19.1147 82.532402
9.9481001 -19.48 82.274696
9.9704399 -19.3859 82.332703
9.95432 -19.5109 82.296402
9.8579397 -19.749399 82.214104
9.9069595 -19.6138 82.232101
9.96912 -19.3859 82.210503
9.95257 -19.447599 82.252502
10.196 -19.923401 83.679703
10.1739 -19.7855 83.638397
10.2262 -19.661301 83.488197
10.186 -19.637199 83.529602
10.1145 -19.42 83.466599
10.1253 -19.302601 83.221802
10.0935 -19.2705 83.272697
10.0193 -19.100201 83.078499
10.0044 -19.091299 82.878197
10.4518 -19.807699 83.136398
10.5015 -20.1245 83.269699
10.4863 -19.999399 83.226501
10.5172 -19.896299 82.9739
10.493 -19.853399 83.048401
10.2953 -19.4769 82.912102
10.3853 -19.6166 83.027702
10.3393 -19.725201 83.331902
10.4003 -19.764099 83.234596
10.3513 -19.573799 82.770103
10.3275 -19.5236 82.8368
10.1565 -19.333 82.711098
10.2184 -19.3843 82.798203
10.2076 -19.3769 83.080704
10.2557 -19.429501 82.993301
10.197 -19.464899 82.588203
10.1798 -19.401899 82.6418
10.0663 -19.276199 82.614601
10.1067 -19.301001 82.650803
10.1304 -19.260799 82.850098
10.1343 -19.278 82.785004
10.6026 -20.447399 82.993301
10.649 -20.695999 83.048103
10.6249 -20.5798 83.024399
10.5968 -20.4583 82.915802
10.5771 -20.2346 82.943703
10.5845 -20.3062 82.959602
10.5891 -20.4049 83.1521
10.6037 -20.433399 83.074402
10.5651 -20.160299 82.9095
10.4644 -19.837799 82.721901
10.5266 -19.9408 82.9021
10.2761 -19.66 82.536598
10.3675 -19.6406 82.706398
10.0636 -19.5746 82.379097
10.1146 -19.593901 82.412697
10.1978 -19.5319 82.529404
10.5404 -20.5502 82.742897
10.4691 -20.357 82.6623
10.2963 -20.253 82.537697
10.3399 -20.2325 82.553101
10.3288 -20.0732 82.517197
10.1616 -20.092501 82.452003
10.1985 -20.052401 82.4506
10.1693 -19.941299 82.412804
10.0352 -20.0177 82.381302
10.0578 -19.9702 82.371201
9.9703197 -19.8442 82.302002
10.023 -19.872299 82.332802
10.0091 -19.379999 82.421501
9.9953403 -19.447399 82.375504
10.0164 -19.5555 82.353203
10.0081 -19.3176 82.476601
9.9960098 -19.131599 82.706802
10.0284 -19.249701 82.593697
10.2486 -18.190701 82.415001
10.1712 -18.3834 82.638397
10.0363 -18.803301 82.691002
9.99125 -19.2096 82.318604
9.9945202 -19.158701 82.358704
10.176 -18.7395 82.0821
10.0892 -18.8846 82.284698
9.98419 -19.264 82.282204
9.87148 -19.709499 82.128502
9.9257898 -19.5478 82.149696
10.114 -19.1241 81.925903
10.0236 -19.2784 82.108803
10.0768 -19.442499 83.873398
10.1067 -19.808599 84.019203
10.0867 -19.6423 83.961197
10.0802 -19.498501 83.787598
10.0812 -19.011 83.6007
10.0798 -19.225901 83.755096
10.0705 -19.333099 84.057198
10.0754 -19.386999 83.959099
10.0089 -18.9685 83.182404
10.0514 -19.111601 83.482101
10.0415 -19.140301 83.431297
9.9816399 -18.918699 82.9235
10.2689 -18.2286 83.425797
10.2525 -18.2883 83.3246
10.1205 -18.848 83.7416
10.1649 -18.5879 83.505302
10.4426 -17.7943 83.0159
10.3504 -18.029699 83.229797
10.3077 -18.071199 83.726402
10.2985 -18.1401 83.578796
10.5558 -17.5369 83.4048
10.4284 -17.8078 83.587502
10.3247 -17.938499 84.063797
10.3245 -17.985001 83.924004
10.1272 -18.658701 84.014198
10.2066 -18.3536 83.8489
10.6311 -17.3634 83.744499
10.6111 -17.408899 83.6157
10.9025 -16.781799 83.574402
10.7761 -17.0683 83.663696
10.6315 -17.336201 83.973297
10.6348 -17.3496 83.843201
10.7714 -16.999599 83.010696
10.845 -16.868799 83.302101
11.1212 -16.2078 83.276299
11.029 -16.482901 83.449097
10.9613 -16.717199 83.9842
10.9489 -16.73 83.807198
10.9454 -16.4785 82.648201
11.0332 -16.325399 82.949203
11.2233 -15.7065 82.897499
11.189 -15.9517 83.087097
11.2421 -16.0804 83.7556
11.2048 -16.1022 83.569702
11.2688 -16.112801 84.066399
11.26 -16.087601 83.894501
11.4419 -15.4798 83.694702
11.3593 -15.7686 83.722801
11.3396 -15.5761 83.281601
11.4908 -15.0572 83.597397
11.489 -15.2063 83.676903
11.5234 -15.39 84.274902
11.4957 -15.4247 84.021698
11.4883 -14.247 84.0168
11.4406 -14.7319 83.277298
11.4764 -14.4529 83.632004
11.3817 -13.7977 84.033401
11.451 -14.0825 84.000801
11.5494 -14.5654 84.290298
11.5162 -14.3972 84.130898
11.5053 -14.1743 84.790001
11.4755 -14.6309 85.108498
11.5153 -14.4071 84.932404
11.5279 -14.3157 84.578796
11.4214 -13.7325 84.6045
11.4719 -13.9651 84.665001
11.4594 -13.9698 85.150597
11.4809 -14.0606 84.977898
10.8781 -12.2817 84.775101
11.2159 -13.0671 84.882202
11.0706 -12.7054 84.807297
10.8482 -12.4256 84.071098
10.8697 -12.3558 84.407204
10.365 -11.3212 84.8088
10.6443 -11.8173 84.777603
10.8863 -12.2368 85.217697
10.8886 -12.2545 85.080902
11.3796 -14.5105 83.089203
11.4788 -14.9295 83.464996
11.2282 -15.2934 82.530098
11.3477 -15.0472 82.895897
11.044 -16.0278 82.303497
11.1239 -15.8599 82.573402
11.2413 -15.4881 82.709198
11.0042 -16.2391 82.4729
10.9196 -16.4245 81.852898
10.9759 -16.2209 82.0625
11.0784 -15.6851 81.974297
11.0654 -15.8496 82.1325
10.8182 -16.816299 82.185501
10.8801 -16.604601 82.012199
10.8263 -16.771 81.498001
10.8708 -16.6171 81.666801
10.94 -16.288601 81.577904
10.9356 -16.3228 81.710999
10.4994 -17.672001 83.181999
10.6714 -17.269199 83.204399
10.6439 -17.284 82.558601
10.7057 -17.148701 82.753197
10.8713 -16.7407 82.830002
10.8784 -16.6504 82.391701
10.3454 -17.974501 82.7537
10.3901 -17.8946 82.878899
10.5454 -17.5303 82.776703
10.538 -17.516399 82.286903
10.5889 -17.4055 82.411499
10.7354 -17.0462 82.365898
10.7118 -17.1028 81.855103
10.7655 -16.967899 82.009102
10.2712 -18.185499 82.971603
10.2826 -18.090799 82.548599
10.3071 -18.0441 82.637199
10.4419 -17.7383 82.513496
10.4627 -17.693899 82.087303
10.4954 -17.6157 82.1735
10.6238 -17.3036 82.068901
8.0851297 -14.8073 76.2854
8.1462202 -14.0113 76.560402
8.1154499 -14.4201 76.419601
8.6825705 -14.8742 76.325302
8.3727503 -14.839 76.2976
8.0109396 -15.4718 76.054901
8.0511398 -15.1619 76.161797
7.6106501 -14.7638 76.271797
7.8300099 -14.783 76.278198
7.9159598 -15.9507 75.904297
7.9643502 -15.7308 75.970802
8.5998602 -16.001101 75.922203
8.2557096 -15.9694 75.9039
7.85466 -16.3454 75.785004
7.8613901 -16.156099 75.845497
7.3322401 -15.9377 75.891899
7.5917501 -15.954 75.897102
8.6996803 -14.0503 76.629997
8.6885996 -14.4664 76.475601
9.2598495 -14.9622 76.491798
9.0019999 -14.9157 76.376198
8.65061 -15.5478 76.077301
8.6680803 -15.2518 76.183197
9.2877197 -16.040899 76.088898
8.9633598 -16.0313 75.975403
8.5712004 -16.3036 75.820297
8.5798702 -16.1889 75.858803
8.6295795 -15.7926 75.991699
9.2130203 -14.1073 76.793999
9.2349997 -14.5173 76.6306
9.6194 -15.1617 76.862999
9.4552698 -15.059 76.664497
9.2961102 -15.6243 76.252502
9.2916899 -15.3572 76.362999
9.69209 -16.186001 76.481903
9.5165501 -16.102501 76.276497
9.3127203 -16.4508 75.947998
9.2993097 -16.245701 76.013496
9.2931099 -15.8317 76.170799
10.7508 -12.5394 83.395203
10.8017 -12.4844 83.742996
11.074 -13.2548 83.256798
10.9387 -12.9208 83.336197
10.6181 -12.6402 82.637901
10.698 -12.5939 83.029198
10.2689 -11.6574 83.4813
10.5299 -12.1182 83.442497
10.8675 -13.3038 82.395401
10.765 -12.9959 82.525497
10.2086 -11.8558 82.800499
10.4295 -12.2569 82.7314
10.9292 -13.5837 82.259598
10.8079 -15.2431 80.532898
10.8162 -15.0259 80.711899
10.5043 -14.1092 80.290001
10.9346 -15.5091 80.998703
10.9047 -15.4284 80.855103
10.7998 -15.6205 80.244797
10.8068 -15.4308 80.3871
10.4906 -14.7135 79.690002
10.646 -14.9993 80.116898
11.4089 -13.7704 84.364601
11.231 -13.1705 84.480598
11.3392 -13.4646 84.543404
11.405 -13.629 85.037903
11.4196 -13.6865 84.792198
11.3318 -13.8149 83.5625
11.1614 -13.5521 83.1605
11.0726 -15.5149 81.792702
10.9833 -15.6684 81.282402
10.9983 -15.5084 81.378197
10.9532 -15.5599 81.098999
10.9212 -15.7925 80.837402
10.9325 -15.655 80.931999
10.2238 -18.3016 82.323601
10.2374 -18.246599 82.366501
10.4252 -17.8374 81.933701
10.3365 -18.009001 82.181602
10.2647 -18.141199 82.4748
8.9533195 -17.7901 75.431
7.9893398 -18.0646 75.331398
8.28195 -17.976299 75.338898
8.59023 -17.452299 75.469704
8.6055698 -17.6647 75.414597
8.57376 -17.0131 75.596497
9.3373699 -16.8811 75.808502
8.9726105 -16.9237 75.695396
8.5795403 -17.2388 75.527298
7.8648901 -17.1768 75.531197
8.20644 -17.0921 75.5532
8.5625601 -16.5816 75.735001
8.5680504 -16.7883 75.668297
8.5651503 -16.4081 75.7892
8.2105799 -16.314699 75.794899
7.29773 -16.5051 75.743599
7.5370402 -16.405199 75.767097
7.8446298 -16.727301 75.672096
7.84758 -16.528601 75.731697
7.1438799 -17.4296 75.534401
7.4471402 -17.2847 75.536903
7.3298898 -17.326799 75.541
7.3905602 -17.8363 75.416901
7.2740598 -17.6166 75.476097
6.6503501 -17.656401 75.558899
6.9131999 -17.5341 75.540901
6.9457502 -17.0502 75.645103
7.0357099 -17.2404 75.589699
6.9283099 -18.0417 75.455399
6.7835398 -17.846701 75.511002
6.41682 -17.318001 75.651001
6.52844 -17.482401 75.607101
8.1023598 -18.638901 75.194702
7.70999 -18.7829 75.165802
7.88906 -18.681499 75.191498
8.0144701 -18.265301 75.286499
8.1855602 -19.1383 75.105904
8.20432 -18.9538 75.107399
7.8885002 -18.995001 75.1129
7.9777799 -19.2917 75.108398
7.3028798 -18.3969 75.319298
7.5254898 -18.5637 75.249397
7.4732699 -18.950001 75.135597
7.5775199 -18.8755 75.1306
7.0932698 -18.232201 75.389397
7.6170101 -18.218399 75.3209
7.4920902 -18.283501 75.319603
7.1228499 -18.502001 75.334801
7.7518601 -18.1502 75.3256
7.5001898 -18.0357 75.368698
7.9102502 -17.6299 75.423103
7.9513698 -17.853399 75.375504
7.8709002 -17.399599 75.473198
7.5843701 -17.2379 75.535896
7.8533201 -16.9466 75.603104
9.3294802 -16.658199 75.882301
9.7742395 -17.011999 76.218002
9.59622 -16.940599 76.000999
9.3323202 -17.264799 75.680901
9.3341303 -17.0952 75.735001
11.4403 -14.0954 89.982002
11.4704 -14.9123 90.4636
11.4696 -14.4813 90.230797
11.5172 -14.2903 89.575996
11.476 -14.1727 89.784302
11.3778 -13.6092 89.574501
11.4045 -13.7936 89.749397
11.3736 -13.9378 90.332199
11.4061 -14.0215 90.160797
11.608 -14.5312 89.136101
11.6056 -15.2507 89.614998
11.6241 -14.8685 89.370499
11.7356 -14.8067 88.699501
11.6649 -14.6528 88.9133
11.4811 -13.8145 88.625
11.5724 -14.2446 88.935699
11.5594 -14.4157 89.351501
11.5158 -16.0163 90.021896
11.3317 -16.774799 90.254997
11.4328 -16.395201 90.146103
11.6071 -16.190599 89.515701
11.5478 -16.097401 89.778198
11.5728 -15.6308 89.8508
11.4708 -15.8844 90.444801
11.4916 -15.9486 90.249802
11.2391 -16.401699 91.410797
11.2764 -16.540001 90.985603
11.2591 -16.476101 91.186996
11.3664 -15.6385 91.193802
11.3159 -16.030199 91.3125
11.178 -16.2222 91.894501
11.2133 -16.3167 91.646599
11.0006 -17.1332 91.569397
11.135 -16.767599 91.495697
11.0363 -17.527201 90.399597
11.1937 -17.1572 90.324699
11.3673 -16.9298 89.768997
11.3433 -16.847099 90.024597
11.3007 -16.654499 90.629402
11.3125 -16.7122 90.449699
10.6316 -18.2148 90.500999
10.8409 -17.876101 90.455299
11.0556 -17.659599 89.909897
11.04 -17.596399 90.164703
11.029 -17.404499 90.792702
11.0322 -17.4641 90.610397
11.5726 -14.1561 88.259003
11.5245 -13.9744 88.461304
11.3635 -13.4451 88.086601
11.4264 -13.6114 88.384003
11.3819 -13.4964 88.913803
11.4333 -13.6501 88.775398
11.2846 -13.2077 89.068802
11.3303 -13.347 88.990898
11.1151 -12.7914 88.351303
11.217 -13.0019 88.758003
11.1701 -12.8933 89.239899
11.2302 -13.058 89.146797
11.3359 -13.4033 89.331497
11.4765 -13.8841 87.889702
11.424 -13.6752 87.9786
11.2448 -13.2462 87.3489
11.296 -13.3277 87.709503
11.2211 -13.0476 88.249496
11.2934 -13.2427 88.1717
11.1531 -12.8825 88.312599
10.9562 -12.4388 88.460899
11.0696 -12.6858 88.384804
11.3409 -13.703 87.236397
11.3057 -13.4929 87.285202
11.2015 -13.226 86.683601
11.2178 -13.2298 86.991402
11.0947 -12.808 87.4226
11.1759 -13.0305 87.393204
10.8131 -12.1624 87.5271
10.984 -12.5301 87.4646
10.7907 -12.1068 86.649399
10.7932 -12.1135 87.065498
10.3318 -11.253 87.714302
10.5856 -11.7235 87.612701
10.8589 -12.2673 88.000801
11.2758 -13.7028 86.645401
11.2478 -13.4629 86.679001
11.2172 -13.243 86.297501
11.2052 -13.2346 86.436996
11.061 -12.7748 86.662102
11.1384 -13.0123 86.662598
10.9491 -12.4842 86.654999
10.8346 -12.1558 86.2435
10.8161 -12.1259 86.353401
10.2877 -11.1365 86.744499
10.5672 -11.626 86.680397
11.2441 -13.2811 86.120003
11.3133 -13.8143 86.196701
11.2909 -13.5363 86.150803
11.3007 -13.3943 85.804001
11.2688 -13.3321 85.981697
11.1032 -12.815 86.096199
11.1815 -13.0579 86.101402
11.2294 -13.257 86.210098
10.8467 -12.166 86.129402
10.9992 -12.5332 86.108597
10.8553 -12.1623 85.689697
10.8508 -12.1556 86.025398
10.8404 -12.1591 86.187698
11.2937 -13.3253 89.827202
11.3338 -13.463 89.688797
10.2138 -17.691601 84.782799
10.2913 -17.823099 84.390297
10.2609 -17.754101 84.5895
10.5328 -17.236099 84.715202
10.3746 -17.461901 84.736603
10.1082 -17.591101 85.136703
10.1584 -17.6367 84.965202
9.93155 -18.141199 84.924103
10.0637 -17.9207 84.844498
10.6143 -17.2659 84.329201
10.5868 -17.2351 84.535103
10.7391 -16.9139 84.729202
10.6677 -17.030001 84.722504
10.4166 -17.218901 85.0597
10.4745 -17.231199 84.890999
10.6469 -16.879 85.056602
10.7026 -16.895201 84.8946
10.9248 -16.605101 84.757301
10.8109 -16.796 84.740601
11.1003 -16.194799 84.864799
11.2167 -15.8235 85.012604
11.163 -16.007999 84.9375
10.958 -16.230301 85.194397
11.0265 -16.207199 85.0401
11.023 -16.3962 84.802399
11.2148 -16.179501 84.476997
11.1654 -16.1868 84.675201
9.8551598 -18.864401 84.8694
10.0366 -18.377001 84.564003
9.9256897 -18.6357 84.713501
9.67414 -18.6681 85.222198
9.7754202 -18.7605 85.036102
9.7655802 -19.2157 85.139297
9.7994099 -19.055 85.011101
9.9671602 -19.050501 84.577797
9.9089403 -18.9608 84.721703
11.3014 -15.4554 85.152603
11.2604 -15.6364 85.088203
11.0589 -15.9076 85.338997
11.1299 -15.8601 85.187599
11.3694 -15.782 84.6036
11.2969 -15.7982 84.816101
11.3405 -15.2083 85.288101
11.4865 -14.9625 84.914101
11.4186 -15.093 85.113701
11.3392 -15.0523 85.430298
11.3442 -15.1399 85.343903
11.3287 -15.3003 85.229897
11.4905 -14.7899 84.990402
11.4611 -15.3919 84.737297
11.4846 -15.1609 84.818703
11.5664 -14.7815 84.591599
11.5468 -14.8435 84.7164
11.3335 -14.8595 85.603798
11.3358 -14.9562 85.513802
11.4421 -14.3777 85.342102
11.3895 -14.645 85.467499
11.33 -14.6785 85.798698
11.3306 -14.765 85.699799
11.1964 -15.146 85.915901
11.2679 -15.0207 85.750298
11.318 -14.5135 86.041298
11.3269 -14.5969 85.910103
11.3602 -13.9664 85.903099
11.346 -14.2593 85.961098
11.3032 -14.3551 86.313904
11.3096 -14.4295 86.184502
11.2212 -14.8813 86.258598
11.2749 -14.7097 86.140099
11.2471 -14.7612 86.463501
11.2838 -14.5707 86.388298
11.3136 -14.0965 86.248901
11.3027 -14.2526 86.5075
11.3017 -14.296 86.418098
11.3472 -14.1931 86.912003
11.3463 -14.6069 86.863998
11.3531 -14.4104 86.890404
11.323 -14.1986 86.770798
11.3345 -14.1973 86.838699
11.2951 -13.7038 86.957603
11.3261 -13.9433 86.933899
11.3933 -14.2023 87.112602
11.3666 -14.1934 87.000702
11.5367 -14.3383 87.651398
11.4555 -14.242 87.363197
11.4914 -14.2815 87.500397
11.5161 -14.1237 87.768898
11.6285 -14.4775 87.907799
11.5884 -14.4098 87.801201
11.5245 -14.7082 87.438103
11.5419 -14.5337 87.551804
11.4094 -14.8571 85.272202
11.4581 -14.5005 85.225601
11.3328 -13.8813 86.063599
11.2892 -13.7373 86.388802
11.2982 -13.7678 86.299103
11.284 -13.7066 86.862297
11.2895 -13.7037 86.907501
11.31 -13.7029 87.043297
11.4052 -13.7752 87.562798
11.4324 -13.8128 87.681602
11.5258 -14.0011 88.087502
11.6176 -14.3457 88.057404
11.6801 -14.6999 87.9701
11.6323 -14.3564 88.4039
11.6916 -14.5677 88.166603
11.6917 -14.6354 88.071602
11.7847 -15.154 88.145897
11.7343 -14.9175 88.058701
11.6109 -14.9339 87.6987
11.6524 -14.8104 87.8368
11.1282 -17.801901 89.456299
11.4471 -17.064301 89.436996
11.2964 -17.444599 89.446999
11.0844 -17.740601 89.655998
10.7805 -18.4569 89.489098
10.9549 -18.1446 89.472
11.2179 -17.882401 89.139
11.1757 -17.847799 89.291496
11.6871 -14.5485 88.544197
11.6803 -14.5037 88.251404
11.7407 -15.4737 89.0952
11.7616 -15.1168 88.878502
11.6602 -15.3598 89.355103
11.687 -15.8336 89.320801
11.8222 -15.6012 88.785301
11.8023 -15.5659 88.879601
11.4985 -16.558599 89.6558
11.6999 -16.2876 89.1782
11.6743 -16.2612 89.282997
11.2232 -17.3016 89.8508
11.4095 -17.023199 89.551598
10.6885 -18.3279 89.988701
10.8739 -18.004499 89.956902
10.0915 -19.7369 84.2258
10.0737 -19.554399 84.160698
10.0805 -19.082399 83.918404
10.0438 -19.2033 84.294296
10.059 -19.2707 84.167702
10.1011 -18.9382 83.6642
10.1295 -18.7463 83.853699
11.2102 -15.0816 82.332901
9.9307299 -19.981199 82.328201
9.9746199 -19.9949 82.351402
10.0985 -20.0488 82.415604
9.9945002 -20.0784 82.417198
10.0171 -20.049 82.3964
10.226 -20.1567 82.489601
10.1027 -20.1387 82.483002
10.1332 -20.118401 82.462402
10.205 -18.4235 82.242302
10.393 -18.094601 81.739197
10.2986 -18.2484 82.002899
10.2134 -18.362301 82.285202
10.1163 -18.622801 82.460197
10.2019 -18.528299 82.159103
10.2044 -18.482401 82.189598
11.5217 -17.107599 89.214699
11.6245 -16.6978 89.235901
11.7402 -16.306999 88.976196
11.7217 -16.293501 89.100403
11.4807 -17.078199 89.351196
9.9938202 -18.872601 87.916496
9.8657503 -18.6493 87.748802
9.93258 -18.7638 87.830803
10.2932 -18.6894 88.114502
10.1363 -18.796301 88.014801
10.0954 -19.055 88.084
10.048 -18.9694 88.001099
9.7269602 -18.965099 87.687897
9.8580399 -18.9258 87.807999
7.4625702 -8.6642303 81.850098
7.5492401 -8.6064796 82.047997
7.5026002 -8.6406202 81.9795
7.7821698 -8.8908005 81.9524
7.6083002 -8.7689505 81.895203
7.3247399 -8.7274103 81.307098
7.4077501 -8.6955004 81.635902
7.2178202 -8.4516001 81.837898
7.3341799 -8.5657196 81.833801
7.0950699 -8.3056097 81.834
7.3769999 -8.4058199 82.026398
7.2863698 -8.4245701 81.942497
7.0648499 -8.55408 81.3386
7.1561399 -8.4917402 81.671204
7.80621 -8.7826796 82.219803
7.8042302 -8.8483105 82.147499
8.1874399 -9.2487202 82.002502
7.9790001 -9.0559597 81.997101
7.6771402 -8.9317904 81.279602
7.7388601 -8.9263802 81.6437
7.10534 -9.4119501 78.828796
6.8007002 -9.2830496 78.869202
6.95824 -9.3606501 78.839699
7.07166 -8.8209 79.938599
7.0406599 -9.04778 79.302299
7.46592 -9.5407305 78.831398
7.2709699 -9.4680595 78.824303
7.3682799 -10.2026 78.050697
7.2546802 -9.8188801 78.391899
7.97364 -9.7721701 79.0121
7.6989198 -9.6363096 78.8806
7.7100301 -10.2362 78.1008
7.5953498 -9.9023199 78.409698
7.4379401 -9.0128202 79.920799
7.4015198 -9.2176199 79.305603
7.9313402 -9.3384895 80.043404
7.6851902 -9.1681604 79.9543
7.2289801 -8.8922596 79.919998
7.58393 -8.9078598 80.645699
8.4783297 -9.8111897 80.261497
8.2075901 -9.5615702 80.145897
7.93751 -9.5415001 79.4758
8.1041203 -9.2775602 81.222099
8.0191298 -9.2450304 80.617203
7.5744901 -11.1122 77.601898
7.71315 -12.0995 77.195099
7.65695 -11.6009 77.396698
7.34092 -11.1218 77.5756
7.4254899 -11.1245 77.584602
7.4680099 -10.651 77.807899
7.9663801 -11.1066 77.648598
7.7577801 -11.1115 77.617996
7.7443099 -13.082 76.839302
7.7423 -12.5968 77.0093
7.4156699 -12.069 77.168198
7.55305 -12.0865 77.182999
8.13941 -12.1137 77.232399
7.9082599 -12.1086 77.209503
7.6934199 -13.9712 76.539597
7.7249098 -13.542 76.683601
7.4123702 -13.0392 76.812698
7.5714102 -13.0624 76.827499
