# .PCD v.7 - Point Cloud Data file format
VERSION .7
FIELDS x y z
SIZE 4 4 4
TYPE F F F
COUNT 1 1 1
WIDTH 1595
HEIGHT 1
VIEWPOINT 0 0 0 1 0 0 0
POINTS 1595
DATA ascii
-22.7449 -2.57126 81.966797
-22.7244 -2.3680401 82.357201
-22.916201 -2.3670399 82.375099
-21.9062 -3.46275 82.1884
-21.881701 -3.2305701 82.1045
-22.985201 -2.69857 81.692596
-22.9545 -2.6756101 81.781197
-22.899099 -2.6603401 81.793602
-22.7551 -2.66926 81.767403
-22.447901 -2.74737 81.797798
-22.1849 -2.8682101 81.898499
-21.926701 -3.12184 82.396301
-22.064899 -2.8652899 82.851402
-22.227699 -2.6721799 82.966003
-23.259399 -2.8651299 82.515099
-23.253401 -2.6684699 82.368103
-23.0858 -2.52737 82.243103
-23.0245 -2.5007801 82.229202
-22.9499 -2.4621301 82.198799
-22.7374 -2.4637201 82.173203
-22.446501 -2.5385001 82.218597
-22.192301 -2.6615901 82.340401
-22.592899 -3.29989 82.844002
-22.167601 -3.2543199 82.778603
-22.0235 -3.1377599 82.702698
-21.972099 -2.9946301 82.633202
-21.995701 -2.8850701 82.551399
-22.0133 -2.8624001 82.527298
-22.047899 -2.7880299 82.460899
-23.0914 -3.1280799 82.710503
-22.852501 -2.28421 82.565697
-22.8153 -2.2623999 82.544601
-22.7549 -2.2804699 82.624603
-22.469601 -2.3407099 82.728104
-22.2099 -2.53192 82.763702
-22.1257 -2.5996301 82.757202
-22.699699 -2.26651 82.551399
-22.444599 -2.3411801 82.617203
-22.211201 -2.4807601 82.680702
-22.129101 -2.5610399 82.724403
-22.0284 -4.3587999 81.0522
-22.0415 -4.38972 80.985298
-23.3522 -3.92116 80.8964
-23.332199 -3.9390099 80.835503
-22.413099 -4.3527098 81.136497
-22.405701 -4.3551898 81.076202
-22.9146 -4.1876502 81.087196
-22.911699 -4.1889901 81.025002
-23.0348 -3.2018399 80.269501
-23.0277 -3.32358 80.0084
-22.565001 -3.2474401 79.976303
-22.6022 -3.4765301 79.742401
-21.789301 -3.6976099 80.400803
-21.801701 -3.86973 80.146004
-21.7861 -4.0799799 80.782204
-21.7889 -4.15382 80.6576
-23.4841 -3.6345 80.661697
-23.485399 -3.6920199 80.522697
-23.3375 -3.3850701 80.454002
-23.338301 -3.44486 80.311897
-22.0893 -3.4107499 80.044502
-22.1243 -3.62238 79.828697
-21.986099 -3.01 82.134697
-22.007601 -2.89675 82.407097
-22.0061 -2.9616799 82.321297
-22.0093 -2.9868901 82.151604
-22.3342 -2.4165101 82.783897
-22.1175 -2.66501 82.749199
-22.214899 -2.5330801 82.7742
-22.3489 -2.4322 82.848396
-22.337601 -2.41254 82.810699
-22.6082 -2.3079 82.701302
-22.4722 -2.34939 82.741096
-22.328699 -2.45259 82.755699
-22.328501 -2.4615099 82.755096
-22.624599 -2.3163199 82.7714
-22.610001 -2.2974601 82.731102
-22.8571 -2.3222799 82.556099
-22.739799 -2.2943499 82.635002
-22.619699 -2.32198 82.670502
-22.6084 -2.3326399 82.676102
-23.000299 -2.4325199 82.319702
-23.047899 -2.46383 82.345901
-23.0238 -2.4577501 82.339996
-23.0208 -2.5334001 82.119102
-23.012199 -2.48177 82.220001
-22.844999 -2.4034901 82.276802
-22.936701 -2.41113 82.293999
-22.938101 -2.34148 82.465797
-22.976999 -2.38624 82.405098
-22.310499 -2.3896999 82.760399
-22.6091 -2.2565501 82.681702
-22.4534 -2.3046501 82.7285
-22.3123 -2.3942101 82.692101
-22.3109 -2.38748 82.727501
-22.146799 -2.5520799 82.756599
-22.1998 -2.4876699 82.7658
-22.323299 -2.4161999 82.771301
-22.3144 -2.3989 82.772003
-22.807199 -2.2562399 82.587799
-22.737101 -2.24278 82.629303
-22.585199 -2.2730401 82.619698
-22.5937 -2.26127 82.653297
-22.6248 -2.2828701 82.6856
-22.6217 -2.2650199 82.688004
-22.946301 -2.3513801 82.500504
-22.815599 -2.3245201 82.421799
-22.8895 -2.32918 82.436096
-22.878 -2.29475 82.529999
-22.9058 -2.3136599 82.503403
-22.0739 -2.68718 82.702797
-22.1325 -2.5975599 82.615303
-22.089001 -2.6487899 82.660004
-22.0341 -2.7823801 82.6007
-22.057501 -2.7300899 82.671501
-22.087 -2.6923599 82.7332
-22.1033 -2.6217201 82.734703
-22.087999 -2.65382 82.721001
-22.004601 -2.9174099 82.430298
-22.016001 -2.8399 82.507698
-22.0972 -2.7823501 82.303497
-22.0389 -2.84461 82.361198
-22.0741 -2.89832 82.094704
-22.1378 -2.8478501 82.040398
-22.0375 -2.9398301 82.124496
-22.087299 -2.8413301 82.194702
-22.602501 -2.65132 81.870399
-22.8557 -2.61076 81.8797
-22.7465 -2.6218901 81.866096
-22.601601 -2.7420499 81.690102
-22.604601 -2.7004299 81.773102
-22.3069 -2.75331 81.947899
-22.447901 -2.6971099 81.8983
-22.5994 -2.54619 82.077301
-22.600901 -2.59975 81.972
-22.594801 -2.44016 82.285896
-22.308201 -2.54773 82.375603
-22.446199 -2.48733 82.321701
-22.5902 -2.3608401 82.442902
-22.592501 -2.39555 82.374199
-22.7311 -2.41225 82.272003
-22.5973 -2.4918499 82.1838
-22.717699 -2.3334601 82.423302
-22.785801 -2.27701 82.506798
-22.800501 -2.2978699 82.469299
-22.8312 -2.3594699 82.358902
-22.195499 -2.8122301 82.000397
-22.1441 -2.9125299 81.882698
-22.1257 -2.8984201 81.955498
-22.309999 -2.47458 82.524498
-22.2034 -2.5411501 82.571503
-22.116301 -2.6733799 82.494003
-22.1252 -2.62995 82.5662
-22.146099 -2.5501201 82.677299
-22.139 -2.57249 82.649696
-22.445499 -2.4094999 82.478798
-22.5863 -2.3119299 82.539398
-22.588301 -2.33392 82.4963
-22.863199 -2.50863 82.080498
-22.856001 -2.45473 82.181
-22.804899 -2.67979 81.736198
-22.8393 -2.6532099 81.789902
-22.8638 -2.56162 81.979401
-22.988001 -2.6319301 81.905403
-22.934299 -2.61708 81.8937
-22.309299 -2.50613 82.460602
-22.311001 -2.43016 82.6138
-22.3104 -2.45032 82.573196
-22.196699 -2.6119399 82.436302
-22.3055 -2.65083 82.167099
-22.3069 -2.59762 82.274902
-22.304399 -2.84375 81.754601
-22.305 -2.8043599 81.845398
-22.303801 -2.7056401 82.055
-22.186701 -2.7172201 82.233002
-22.1068 -2.7256601 82.4039
-22.0895 -2.99878 81.859703
-22.0364 -3.00354 82.008301
-22.6124 -2.7971001 81.574699
-22.876699 -2.71573 81.692001
-22.7729 -2.75475 81.616302
-22.6042 -2.77897 81.5149
-22.6127 -2.7920699 81.548897
-22.289801 -2.90432 81.634804
-22.437599 -2.8487 81.581299
-22.604 -2.77387 81.624901
-22.2612 -2.8919599 81.588402
-22.2792 -2.90451 81.614197
-22.174601 -2.9614501 81.725304
-22.299 -2.8764601 81.685204
-22.1124 -2.95679 81.875099
-22.058001 -3.00209 81.819099
-22.0744 -3.00615 81.8452
-23.0144 -2.6378601 81.885597
-23.005301 -2.6329501 81.900497
-22.9417 -2.6753399 81.792099
-23.0194 -2.5815599 82.024597
-22.1085 -2.6731501 82.761299
-22.137501 -2.6107299 82.761002
-22.122999 -2.6393399 82.757599
-22.8871 -2.3159201 82.567596
-22.834499 -2.30164 82.569801
-22.841299 -2.31622 82.563797
-23.0662 -2.54598 82.760597
-23.250799 -2.6877699 82.535301
-23.181101 -2.61572 82.642601
-22.999201 -2.4131 82.669701
-23.0473 -2.49844 82.726501
-23.062 -2.6317101 82.829201
-23.070101 -2.58287 82.789398
-23.179199 -2.8936701 82.693001
-23.1371 -2.777 82.773697
-22.765301 -2.7581201 83.013702
-22.9846 -2.70485 82.915901
-22.3146 -2.96222 83.012604
-22.432301 -2.80585 83.0354
-22.389099 -2.91171 83.0317
-22.170099 -2.8533399 82.9599
-22.2309 -2.9330001 82.988899
-22.3239 -3.19841 82.926804
-22.312901 -3.0713201 82.986397
-21.8524 -3.4060099 81.949303
-21.8741 -3.33672 82.146004
-21.8901 -3.1934299 81.848701
-21.8634 -3.2753401 81.889999
-21.793501 -3.6629 81.430496
-21.828899 -3.5086901 81.6987
-21.883301 -3.55948 82.006798
-21.956301 -3.1285501 82.549004
-21.9284 -3.19065 82.4347
-22.0497 -3.2783699 82.625
-21.9944 -3.2069199 82.586197
-22.0331 -3.0030899 82.790497
-21.983601 -3.0620401 82.672501
-21.958799 -2.9908099 82.4739
-21.9506 -3.0573201 82.513496
-22.3388 -2.6519301 83.010201
-22.2547 -2.73786 82.990303
-22.120501 -2.71685 82.8722
-22.1346 -2.77969 82.924103
-22.095501 -2.94155 82.895798
-22.1448 -2.95521 81.681099
-21.972401 -3.06078 81.617699
-22.0303 -3.0127599 81.752602
-22.008699 -3.0166199 81.9795
-22.182699 -2.8734701 81.359001
-22.2309 -2.8750999 81.516998
-22.4156 -2.8302801 81.526497
-22.8923 -2.71491 81.6455
-22.7824 -2.7423899 81.561096
-22.590799 -2.7509799 81.287102
-22.5944 -2.7602899 81.436996
-23.0916 -2.72823 81.653603
-23.0387 -2.65907 81.829498
-22.9613 -2.67769 81.760101
-23.0553 -2.5523901 82.120598
-23.0499 -2.59514 82.007202
-23.229 -2.78104 82.603401
-23.309999 -2.8299 82.343399
-23.282801 -2.75875 82.441299
-23.1506 -2.5323999 82.4077
-23.2213 -2.60603 82.471497
-22.0173 -3.51334 82.344498
-22.028299 -3.3859301 82.495399
-22.363899 -3.41152 82.732597
-22.1672 -3.3561201 82.679497
-22.118401 -3.12327 82.832199
-22.0744 -3.2006199 82.724998
-22.4056 -3.7384 82.349098
-22.384501 -3.54599 82.585701
-22.880899 -3.3417599 82.695099
-22.613701 -3.4085801 82.744797
-22.3424 -3.30937 82.8358
-23.379601 -3.02179 82.003601
-23.4571 -3.2962601 81.421402
-23.4233 -3.1502299 81.731796
-23.249701 -2.81459 81.791801
-23.34 -2.9135799 81.900398
-23.3423 -2.9128101 82.212502
-23.2938 -3.3296199 82.173599
-23.366199 -3.15558 82.095398
-23.098801 -2.46928 82.532097
-22.8797 -2.3195701 82.629402
-22.939199 -2.35535 82.624298
-22.676001 -2.3866701 82.884697
-22.8489 -2.37656 82.802498
-22.644199 -2.3422501 82.818298
-22.360201 -2.5034399 82.926804
-22.5098 -2.4356501 82.913803
-22.714701 -2.4988501 82.965103
-21.9223 -3.0981901 82.207703
-21.9645 -3.0356801 82.155701
-23.206699 -3.2788401 80.356697
-22.8111 -3.19012 80.096802
-23.0359 -3.0752101 80.546997
-23.0343 -3.1347499 80.406601
-23.1507 -2.74067 81.714302
-22.960199 -2.75738 81.444
-23.047701 -2.7483001 81.558403
-23.027599 -2.9130499 80.979698
-23.007299 -2.8315599 81.247902
-23.314501 -3.06634 81.195702
-23.187099 -2.97346 81.077599
-23.0341 -2.9999299 80.723602
-22.5816 -2.86796 80.827202
-22.8263 -2.8775799 80.895699
-23.0753 -2.4793601 82.359596
-23.1896 -2.64376 82.189201
-23.1716 -2.5869801 82.296898
-23.229401 -3.08583 82.518402
-23.106701 -3.2304001 82.6129
-23.252399 -3.19122 82.385597
-23.285101 -2.94912 82.426697
-23.2106 -2.9933901 82.607597
-22.355499 -2.58603 82.9832
-22.3929 -2.6830201 83.021202
-22.9359 -3.6480701 82.306801
-22.9032 -3.4647701 82.541702
-22.823099 -3.1071999 82.890297
-22.857599 -3.23633 82.8004
-22.808001 -2.75054 81.350304
-22.584999 -2.78848 81.076599
-22.3598 -2.79687 81.289803
-22.135099 -3.0141201 80.9011
-22.3424 -2.9159601 80.830101
-22.5819 -3.0329199 80.435402
-22.583099 -2.9582901 80.600403
-22.315001 -3.32006 79.960701
-22.5711 -3.10355 80.256897
-22.1089 -3.1891301 80.496201
-22.118999 -3.1113999 80.667297
-21.8596 -3.3176999 81.150703
-21.968399 -3.15308 81.0112
-22.1527 -2.9277301 81.146202
-21.9081 -3.5460899 80.189796
-22.091499 -3.2688501 80.291603
-22.0473 -2.9739299 81.474297
-21.913601 -3.1742001 81.410004
-21.924999 -3.12924 81.765099
-21.8064 -3.5536699 80.722504
-21.824499 -3.4589601 80.902802
-21.8011 -3.48175 81.293701
-21.7488 -3.8815801 80.613899
-21.801901 -3.61865 80.593697
-21.910801 -3.1359601 82.042801
-21.766701 -3.92834 81.036301
-21.767599 -3.82549 81.197403
-21.9963 -3.99371 81.655701
-21.855 -3.8405001 81.555199
-21.775801 -4.0041199 80.909798
-21.882299 -4.2487202 80.948303
-21.9881 -3.7239001 82.045898
-21.981701 -3.79826 81.935799
-22.0116 -4.2439699 81.252701
-22.0042 -4.15205 81.403297
-22.4377 -4.1584601 81.728203
-22.1973 -4.1034498 81.7173
-22.202101 -4.3827801 81.113297
-22.019199 -4.3010302 81.1539
-22.4235 -3.9565499 82.054703
-22.6747 -3.7330799 82.347702
-22.1728 -3.6693699 82.3311
-22.435301 -4.3516998 81.2994
-22.446301 -4.31287 81.4487
-22.955 -4.0389199 81.677399
-22.6975 -4.1402202 81.708099
-22.6541 -4.2876101 81.124001
-22.4237 -4.3508301 81.2155
-22.955 -3.8464799 82.004997
-23.153601 -3.50612 82.241096
-22.9258 -4.1894498 81.257401
-22.946301 -4.1827102 81.397301
-23.3491 -3.6514599 81.578796
-23.1824 -3.8670101 81.633003
-22.9189 -4.1877398 81.170197
-23.1584 -4.0606999 81.014099
-23.330601 -3.48436 81.897499
-23.361799 -3.8721199 81.116203
-23.357901 -3.79284 81.292999
-23.445601 -3.44435 81.508499
-23.4727 -3.7857101 80.768402
-23.3634 -3.9153299 80.998398
-23.4848 -3.5125599 80.948303
-23.4779 -3.4277301 81.137802
-23.406099 -3.17944 81.3162
-23.430099 -3.50475 80.556396
-23.4835 -3.5741999 80.805
-23.2883 -2.93466 81.4963
-23.215599 -2.7133701 82.037399
-23.335199 -3.26249 80.744598
-23.33 -3.1831801 80.930801
-23.336599 -3.3245299 80.599899
-22.549999 -2.79339 83.047897
-22.7964 -2.9476199 82.976898
-22.135201 -2.6454201 82.802101
-22.1299 -2.6729901 82.827103
-22.216499 -2.5479901 82.837402
-22.115801 -2.6691599 82.788902
-22.3573 -2.45876 82.884399
-22.485701 -2.3608699 82.813004
-22.762899 -2.29772 82.706703
-22.9149 -2.3329101 82.5998
-23.011299 -2.4082699 82.4618
-23.046801 -2.5074301 82.229797
-21.987499 -2.9375801 82.447601
-22.0226 -2.8141 82.637001
-22.0054 -2.8710301 82.537697
-22.064199 -2.7455399 82.729202
-21.749399 -3.74488 80.879501
-21.929001 -3.3589201 80.586998
-22.3312 -3.0811501 80.442703
-22.828199 -3.0350499 80.474503
-23.204901 -3.1500101 80.636902
-23.4286 -3.3875699 80.853203
-23.472601 -3.6656301 81.0336
-23.170799 -4.0595899 81.198196
-22.6691 -4.2901802 81.287498
-22.216801 -4.3400698 81.291397
-21.851601 -4.0998902 81.171799
-22.841299 -2.28092 82.513603
-22.8475 -2.2755899 82.556602
-22.8841 -2.30568 82.546997
-22.809401 -2.2704999 82.598198
-22.822201 -2.2816401 82.586899
-22.748699 -2.3085799 82.6119
-22.625601 -2.2915399 82.680702
-22.4688 -2.36889 82.718002
-22.328199 -2.42521 82.766998
-22.208799 -2.5610299 82.751297
-22.1618 -2.5681601 82.7649
-22.150499 -2.5876601 82.763
-22.112 -2.6320901 82.750999
-22.171301 -2.50194 82.7248
-22.153999 -2.52561 82.737801
-22.2131 -2.4662299 82.712502
-22.1556 -2.5271599 82.702499
-22.445299 -2.3223701 82.659103
-22.3118 -2.4110899 82.653099
-22.7491 -2.2434299 82.574898
-22.6975 -2.2495799 82.585701
-22.5849 -2.2919199 82.579903
-22.7792 -2.24649 82.576401
-22.77 -2.2585599 82.541
-22.1215 -2.5897901 82.746399
-22.1129 -2.5901301 82.707298
-21.927799 -3.38117 82.319
-21.893801 -3.27614 82.282997
-21.8995 -3.1847701 82.2481
-22.9095 -2.7244301 81.576897
-22.8888 -2.7141399 81.674103
-22.8428 -2.69768 81.712196
-22.737301 -2.7051899 81.702698
-22.445999 -2.78969 81.7071
-22.195801 -2.8950601 81.818901
-22.2155 -2.6079099 82.918198
-22.010401 -2.8726201 82.697197
-22.0567 -2.8038299 82.7985
-21.9772 -2.9295199 82.586899
-21.9394 -3.0497501 82.354401
-23.279301 -2.7316201 82.264503
-23.0984 -2.5750599 82.132896
-23.0355 -2.5467999 82.122803
-22.9573 -2.5156801 82.099403
-22.7423 -2.51792 82.069702
-22.4468 -2.5922899 82.110497
-22.572201 -3.1831999 82.929398
-22.176901 -3.16135 82.865303
-22.0767 -3.08145 82.816299
-22.008499 -2.9388199 82.752502
-22.019501 -2.8322999 82.655701
-22.0319 -2.8045399 82.624496
-22.062599 -2.7334099 82.5495
-23.056499 -3.0120499 82.795403
-22.817699 -2.2659199 82.5914
-22.753 -2.26705 82.630501
-22.4659 -2.3326199 82.732399
-22.2064 -2.52127 82.769897
-22.145901 -2.5672901 82.763496
-22.7052 -2.28566 82.514397
-22.444799 -2.3615601 82.5755
-22.2083 -2.49898 82.647903
-22.006001 -3.5848899 82.2472
-22.8501 -2.3045499 82.596497
-22.1334 -2.6396401 82.774597
-21.995001 -2.99893 82.135201
-22.007799 -2.9442699 82.294601
-21.9939 -2.96945 82.321701
-21.994301 -2.9245901 82.435997
-27.2955 -7.58215 83.338402
-27.0868 -4.8969102 82.014702
-26.401199 -5.13166 82.0065
-25.8424 -5.5405598 81.892899
-25.583099 -5.9116602 81.902901
-25.9576 -6.6998401 81.738297
-27.653299 -5.06743 82.296997
-27.261 -4.7836099 81.464996
-26.863701 -4.6296101 81.608803
-25.626801 -5.2101002 81.556801
-25.4342 -5.7031298 81.393097
-26.6628 -7.56393 83.123497
-28.2623 -6.8495898 82.659698
-28.511101 -6.26581 82.805901
-28.384199 -6.8077898 83.115898
-28.1203 -7.3098202 82.977898
-27.7223 -7.56112 83.043198
-27.7367 -6.35778 81.488503
-28.042601 -5.87251 81.932404
-28.341299 -6.1951098 82.382004
-28.0765 -6.7441201 82.082199
-27.144501 -7.6462498 82.818604
-26.438299 -7.4635801 82.245201
-26.819099 -7.46068 82.047997
-27.371 -5.8387098 80.885201
-27.494101 -5.32163 81.212502
-25.7099 -6.24435 81.205902
-25.1362 -4.2364001 80.515404
-25.199301 -4.4614501 80.536102
-25.7295 -4.14854 80.647903
-25.6402 -3.95701 80.596298
-26.239599 -3.9317 80.440498
-26.0891 -3.7674201 80.427597
-26.5842 -3.88902 80.156799
-26.758499 -4.1030202 79.642601
-26.597799 -4.5601802 79.037598
-25.256901 -4.6475 80.696404
-24.869699 -4.7764401 80.090698
-24.9678 -4.9428701 80.302101
-24.871799 -5.0316401 79.662697
-25.082399 -5.2685699 79.999496
-25.2281 -5.2326899 79.347702
-25.4706 -5.4966898 79.751801
-25.698099 -5.1788201 78.984497
-25.988001 -5.5325999 79.559799
-26.9349 -6.8985701 81.249702
-26.411501 -6.8875499 81.446098
-26.1054 -6.4155102 80.962898
-26.620501 -6.4300399 80.7379
-27.575199 -7.5818601 82.556602
-27.290001 -7.3747702 81.878197
-26.919901 -4.3168702 80.851799
-26.6129 -4.3401399 81.044899
-26.713301 -4.0675702 80.3927
-26.400101 -4.1118002 80.635399
-26.191999 -4.8217001 81.663399
-25.982901 -4.5581498 81.202202
-25.813999 -4.3220201 80.825897
-25.409599 -4.9086499 81.093002
-25.1971 -5.2830801 80.8666
-27.9783 -7.3303099 82.492401
-27.7278 -7.1550498 81.863197
-27.399099 -6.7175498 81.241096
-27.069 -6.25068 80.703201
-26.2596 -5.9131899 80.067596
-26.7127 -5.7150502 80.009903
-26.451599 -5.3393898 79.493698
-26.2236 -4.98944 78.931503
-27.039801 -5.3298001 80.1194
-26.8041 -4.94593 79.602303
-25.758699 -5.91787 80.287804
-25.384001 -5.7174001 80.584
-26.8985 -4.3673801 79.975998
-27.129801 -4.7497201 80.448303
-27.7616 -7.48632 83.342903
-28.161699 -7.2259498 83.303497
-25.650499 -6.1954598 81.545303
-26.039 -6.59514 81.3526
-25.846701 -6.4702001 81.464302
-25.6845 -6.23281 81.8209
-25.587601 -5.6206398 81.679398
-25.5364 -5.8704 81.617599
-25.4011 -5.7656898 81.029198
-25.5324 -5.9954901 81.306396
-27.556 -7.5727601 83.253403
-27.559 -7.54882 83.356598
-27.0625 -7.6146798 83.140297
-26.793501 -7.6070499 82.600403
-26.9182 -7.6244302 82.942299
-27.4557 -7.6269302 82.953598
-27.244801 -7.6308699 83.071503
-26.9751 -7.5829401 83.264397
-26.379999 -7.1519098 81.809303
-26.179199 -7.0875802 81.933098
-27.607599 -5.2374501 81.686401
-27.238501 -4.8022399 81.799202
-27.422501 -4.9331102 81.744202
-27.8794 -5.4429798 82.092598
-27.6686 -5.86483 81.407303
-27.711599 -5.5925598 81.586304
-27.212099 -4.7620201 80.994102
-27.408701 -5.0250201 81.355499
-25.6623 -5.7384601 81.840599
-27.377001 -4.91506 82.193298
-28.0863 -6.3551602 81.949303
-27.8708 -6.1121702 81.697098
-27.4168 -6.3199701 81.066101
-27.554199 -6.09582 81.212196
-27.2796 -5.3155799 80.635498
-27.473499 -5.5985899 81.041603
-26.5972 -7.5795202 82.686096
-26.615499 -7.4674902 82.153603
-27.225201 -7.5847802 82.336304
-27.0091 -7.6112499 82.463997
-28.307301 -6.4872499 82.559799
-28.4161 -6.24087 82.588997
-28.378099 -6.6145802 82.901703
-28.3563 -6.5270901 82.768402
-28.0396 -7.0777202 82.267197
-28.1859 -6.81674 82.399002
-28.2295 -6.4614301 82.277
-28.2444 -6.1643701 82.079803
-27.749399 -6.7897201 81.621101
-27.918301 -6.5883398 81.763496
-27.959999 -7.4231601 83.171898
-27.9725 -7.3754201 83.330597
-28.275 -7.0851698 83.128098
-28.292 -7.0438399 83.245201
-28.214701 -7.1163998 82.810097
-28.319 -6.8637099 82.872597
-28.4569 -6.5384998 82.960297
-25.9977 -5.17661 81.816597
-25.755501 -5.4052501 81.745697
-25.3533 -5.2489901 81.250999
-25.4746 -5.4486399 81.477097
-26.6653 -4.8520598 81.866798
-26.998699 -4.7936902 81.841904
-26.930799 -4.4538398 81.261497
-27.0916 -4.6602702 81.546799
-26.0923 -5.3260698 81.9562
-26.757299 -4.9860001 82.019501
-27.524799 -7.5998602 83.142403
-27.7609 -7.5258198 83.1996
-27.8729 -7.4846702 82.761703
-27.930799 -7.4609599 82.989899
-28.1483 -7.27525 83.1492
-28.255501 -7.11057 83.006798
-27.0814 -4.5602298 81.153503
-27.2925 -5.0267901 80.811203
-26.9132 -4.2839799 80.404404
-27.0487 -4.4987898 80.6604
-24.760201 -4.7876801 79.858803
-24.866199 -4.9668698 79.9608
-24.810301 -4.8987398 79.839996
-24.9718 -4.5130901 80.328697
-24.832899 -4.66817 80.094803
-24.841 -4.8601298 79.334801
-24.7383 -4.79951 79.597504
-26.744101 -4.0342598 80.018204
-26.506701 -3.9734499 80.402
-26.6427 -3.9761701 80.249397
-26.8048 -4.1265602 80.195999
-26.8141 -4.5114102 79.565201
-26.8225 -4.22823 79.797401
-26.6495 -3.8663399 79.818802
-26.696199 -3.9544401 79.883797
-26.685801 -4.1758399 80.715897
-26.807301 -4.1780901 80.589203
-26.995899 -4.8342199 79.985001
-26.9998 -4.5359802 80.180901
-25.361401 -5.0942502 79.023499
-25.6215 -5.4087 79.442703
-25.4774 -5.2536998 79.184998
-25.046 -4.9709201 79.1483
-25.2012 -4.8108702 78.886597
-25.2694 -4.9538002 78.935204
-25.1087 -5.28371 80.417999
-25.257299 -5.5207801 80.728897
-25.7276 -6.1114402 80.766403
-25.550501 -5.9848299 80.904404
-25.322201 -5.5033798 81.1427
-25.3932 -5.6031399 80.127098
-25.225401 -5.46948 80.270302
-25.1469 -4.9279199 80.712196
-25.059601 -5.0686898 80.567596
-24.967699 -5.0896802 80.145599
-26.764099 -5.3421998 79.758003
-26.912201 -5.1206102 79.836098
-26.8932 -4.6630602 79.766502
-27.122101 -5.0463099 80.261703
-27.060499 -5.7917399 80.406601
-27.199499 -5.5789299 80.493103
-26.5357 -4.0086598 79.086197
-26.296801 -4.54882 78.735802
-26.4575 -4.31604 78.834396
-26.687401 -4.2884998 79.250504
-26.613899 -4.1441302 79.135696
-26.560101 -5.0220699 79.2854
-26.7199 -4.7906399 79.372704
-26.745501 -4.3854699 79.4021
-26.8545 -7.1814599 81.604599
-26.6028 -7.1828599 81.700699
-26.179001 -6.8204298 81.584999
-26.5142 -6.6743898 81.094597
-26.6733 -6.91506 81.329697
-27.3482 -7.07127 81.508301
-27.108299 -7.1475801 81.536903
-27.0473 -7.43291 81.950104
-25.1294 -5.2771401 79.678001
-25.0215 -5.1559701 79.496803
-25.8531 -5.7213302 79.880096
-25.603901 -5.6891599 79.9944
-25.5522 -5.8460202 80.432602
-25.250401 -5.4082799 79.868797
-26.177799 -6.18224 80.504303
-25.934401 -6.1706901 80.629997
-25.898899 -6.3701301 81.085602
-26.2514 -6.6275501 81.227203
-25.8367 -4.8860502 78.732697
-25.5443 -4.94028 78.800797
-26.3538 -5.6307998 79.744499
-26.113701 -5.7027302 79.793999
-26.0044 -5.93929 80.161797
-25.7269 -5.5415502 79.645103
-26.6703 -6.0871601 80.360901
-26.429701 -6.1490102 80.411903
-26.3501 -6.42768 80.840103
-26.433201 -4.80651 78.947502
-26.083799 -4.74154 78.716499
-26.132401 -5.3280501 79.287201
-26.356899 -5.1984801 79.271797
-26.6506 -5.17102 79.516998
-26.898199 -5.54913 80.0392
-26.5711 -5.5080299 79.732803
-26.879 -5.9608102 80.364197
-27.236601 -6.06287 80.769501
-27.586399 -6.5590901 81.337997
-27.024099 -6.6103101 80.963203
-27.238001 -6.4928999 80.9823
-27.909599 -6.9723301 81.942703
-27.5679 -6.9526601 81.534897
-28.138901 -7.1195698 82.557999
-27.661301 -7.4251499 82.186096
-27.8666 -7.27981 82.193298
-28.065201 -7.3322401 82.755997
-25.989599 -5.1252799 78.947998
-26.2307 -5.4626999 79.5084
-25.8873 -5.3999801 79.343903
-26.497101 -5.8362699 80.018204
-26.8619 -6.3712602 80.694
-27.177 -6.8330898 81.215599
-26.781601 -6.66962 81.003502
-27.5215 -7.2866201 81.8508
-27.785 -7.48032 82.488197
-27.442699 -7.5251098 82.2369
-27.663401 -7.5847101 82.828003
-27.363501 -7.6352501 82.680298
-24.9459 -4.3295798 80.367599
-25.362101 -4.0426302 80.576202
-25.123501 -4.1775899 80.512299
-24.9552 -4.3825002 80.364098
-25.4188 -4.1974301 80.598503
-25.166 -4.35183 80.506798
-25.037399 -4.7154598 80.401604
-25.0065 -4.6263299 80.341797
-25.242701 -5.0718198 80.987396
-25.5779 -4.5952301 80.9636
-25.3195 -4.7671299 80.859802
-25.0763 -4.8080702 80.511398
-25.770399 -4.86163 81.401802
-25.510201 -5.0472498 81.334
-25.8416 -3.8080201 80.516998
-25.610701 -3.9128599 80.579903
-25.381001 -4.0945101 80.591103
-25.4762 -4.3838201 80.702698
-25.5112 -4.47823 80.802902
-26.0599 -4.1055899 80.635696
-25.7652 -4.23138 80.718399
-25.451799 -4.2955699 80.635201
-25.225201 -4.5525498 80.5979
-25.6679 -4.7279902 81.175598
-26.212099 -4.3083301 80.921097
-25.886999 -4.4356298 80.992104
-25.873301 -4.9939599 81.625504
-26.4333 -4.5577502 81.392403
-26.088301 -4.6882801 81.432602
-26.304701 -4.9788799 81.865196
-26.2334 -3.68733 80.3153
-26.0375 -3.7296901 80.428497
-25.934401 -3.9295001 80.532303
-25.8762 -3.8498399 80.528603
-26.127399 -4.1981702 80.751099
-26.3169 -4.01895 80.512001
-25.9967 -4.01753 80.561996
-26.319401 -4.4277301 81.139801
-26.497299 -4.2206101 80.811996
-26.5448 -4.6891298 81.650597
-26.736 -4.4734702 81.327202
-26.360399 -3.7927999 80.303101
-26.274599 -3.71802 80.318901
-26.5874 -4.0662098 80.532303
-26.4326 -3.8866899 80.325798
-26.8009 -4.3002 80.961098
-25.355801 -5.3678598 79.561401
-24.965 -5.1406498 79.812202
-24.908199 -4.8566198 80.156303
-26.699699 -3.9942601 79.499702
-26.5249 -3.7945499 80.122803
-26.162701 -3.84495 80.417702
-25.685301 -4.0468402 80.605698
-26.441401 -3.6859901 80.123901
-26.6033 -3.8137901 79.4701
-26.0287 -3.6769099 80.435799
-25.5854 -3.87045 80.5895
-25.1052 -4.14083 80.518501
-24.780701 -4.5159302 80.157303
-25.425501 -4.7185402 78.709702
-25.949499 -4.4951701 78.609398
-26.3368 -4.07932 78.776901
-24.8652 -4.5972199 79.129997
-24.6579 -4.61624 79.6371
-23.8472 -2.21802 79.757103
-23.710501 -2.2446499 80.115799
-23.812401 -2.29479 80.419098
-24.003901 -2.59727 79.665298
-24.2313 -2.10162 79.391602
-24.408701 -2.4902401 79.291901
-24.685499 -1.89885 79.258797
-24.882601 -2.2978301 79.144997
-25.0791 -1.63744 79.457901
-25.2945 -2.0658 79.339699
-25.3179 -1.4698 79.856903
-25.5415 -1.87344 79.7733
-25.351999 -1.58033 80.308998
-25.4837 -1.7963001 80.308098
-25.196501 -1.8200001 80.642403
-25.2831 -2.0044999 80.627403
-24.737499 -2.0797701 80.789703
-24.798201 -2.25735 80.749603
-24.169701 -2.2611101 80.687599
-24.2087 -2.4549899 80.651901
-23.8769 -2.5101099 80.419701
-26.213499 -3.23454 80.207001
-25.9261 -3.3882501 80.533401
-25.481701 -3.6480601 80.679497
-24.9863 -3.94486 80.595802
-24.6222 -4.1159501 80.232498
-25.153299 -1.7065901 80.708
-24.166599 -2.1480601 80.772697
-24.703899 -1.96775 80.877098
-24.9484 -3.7294199 78.953003
-25.0534 -3.9409599 78.867104
-24.677601 -4.0510201 79.270203
-25.883301 -2.5908201 80.236504
-25.604 -2.6516399 80.644302
-25.107901 -2.8749599 80.824799
-24.5485 -3.20524 80.688103
-24.2717 -3.4033899 80.3564
-25.2038 -4.2928801 78.726402
-25.684299 -3.9888101 78.624199
-25.537201 -3.66378 78.754501
-25.428301 -3.4714301 78.821503
-24.758301 -3.29022 79.080803
-25.249001 -3.05391 78.949699
-26.085501 -3.61114 78.865799
-25.927799 -3.37939 78.933296
-25.68 -2.84356 79.1315
-24.3834 -3.44275 79.435501
-24.532 -4.18045 79.736603
-24.2269 -3.4937401 79.877098
-23.8423 -2.6070001 80.053902
-25.941299 -2.6728201 79.628098
-26.3146 -3.3096399 79.486198
-24.621401 -4.4021101 79.935898
-24.681999 -4.5964398 79.898003
-26.347 -3.6494701 79.116096
-26.450899 -3.8541701 79.070801
-24.6458 -4.3784299 79.454102
-24.714899 -4.5900502 79.399399
-25.077101 -4.56428 78.865097
-25.1401 -4.6889801 78.863403
-26.0263 -4.0427899 78.628403
-26.1674 -4.30268 78.641701
-25.558001 -4.3979301 78.595497
-25.694799 -4.6472902 78.624702
-24.8766 -4.2284398 80.406097
-24.925301 -4.2940998 80.387703
-25.2974 -3.9316001 80.605301
-25.3389 -4.0029101 80.584198
-25.7782 -3.6780801 80.557198
-25.817801 -3.76139 80.528801
-26.188499 -3.5156901 80.367203
-26.222099 -3.63205 80.3377
-26.4617 -3.5177 79.870697
-26.585501 -3.74125 79.843002
-24.8981 -4.1967001 79.005798
-24.8267 -3.9544799 79.064697
-24.8556 -4.0436902 79.035797
-25.3442 -3.9396999 78.7173
-25.103001 -4.0713301 78.818001
-24.998301 -4.4050999 78.896301
-24.7451 -4.3042302 79.227303
-24.5965 -4.41466 79.681099
-24.4669 -3.8353601 79.575203
-24.575701 -4.1312299 79.512299
-25.312401 -4.50173 78.691597
-25.308001 -1.41971 80.149498
-25.277201 -1.6331 80.535698
-25.3179 -1.52107 80.364899
-25.414499 -1.58191 80.086502
-25.3466 -1.4784499 80.084099
-25.095301 -1.27139 79.736099
-25.2358 -1.31517 79.9506
-25.7323 -2.1946101 79.998001
-26.125401 -2.9617901 79.904701
-25.9377 -2.6207099 79.9412
-25.6423 -2.3421199 79.444901
-25.730101 -2.2571499 79.704903
-25.541401 -1.80822 80.051498
-25.569901 -2.1578901 80.516502
-25.6695 -2.1591201 80.283501
-26.3043 -3.24962 79.881203
-26.0135 -3.0706999 79.269699
-26.1304 -3.0076499 79.564796
-25.9492 -2.9663301 80.435699
-26.062201 -2.9381101 80.2164
-26.4597 -3.5726399 79.464401
-26.362 -3.50828 80.196899
-24.709801 -4.3292599 80.191299
-24.430599 -3.868 80.056396
-24.546801 -4.1659002 79.986198
-23.9993 -2.9711599 80.198303
-23.752701 -2.35288 80.263199
-23.83 -2.55919 80.251602
-24.0669 -3.0278599 79.759003
-24.0103 -3.0190499 79.975304
-24.2218 -3.46772 80.125198
-24.1388 -2.8139999 80.585098
-24.040199 -2.89798 80.407402
-24.6047 -3.7427599 80.493599
-24.4797 -3.8175001 80.295601
-24.425301 -3.87129 79.804802
-23.968 -2.3619599 80.545998
-23.826 -2.3625 80.403
-23.723 -2.21504 80.310402
-23.730801 -2.2720399 80.263199
-23.805799 -2.38518 79.9114
-23.7591 -2.3796999 80.095497
-24.683599 -3.68119 79.1679
-24.3585 -2.9583199 79.353996
-24.5466 -3.3819201 79.238297
-25.1063 -3.42907 78.910599
-24.8706 -3.5602901 79.009598
-24.7777 -3.86344 79.102699
-24.552799 -3.7699101 79.363503
-26.1856 -3.40535 79.141502
-25.814899 -3.62837 78.763397
-26.007099 -3.51174 78.877098
-26.1271 -3.2979 79.178703
-26.2512 -3.4921801 79.124397
-26.197001 -3.8073599 78.806999
-25.6001 -3.2181499 78.913002
-25.823099 -3.1428699 79.038902
-25.8437 -2.75049 79.349297
-25.323299 -1.7157 79.593102
-25.2293 -1.53959 79.638199
-24.759001 -1.4877501 79.384399
-24.934299 -1.34413 79.538597
-25.2955 -2.55639 79.102097
-25.4891 -2.44503 79.238503
-25.448601 -1.96119 79.531799
-24.0828 -2.3213501 79.525597
-23.9063 -2.3619101 79.723801
-23.8944 -2.6166301 79.858803
-23.6803 -2.0557699 80.012299
-23.752701 -2.2442 79.939201
-24.179501 -3.00646 79.554001
-24.2749 -3.4793501 79.648201
-23.9118 -1.94224 79.607498
-24.3479 -1.78074 79.330399
-24.1227 -1.87345 79.434601
-24.0158 -2.1705201 79.562698
-23.753 -1.99781 79.812401
-24.185101 -2.5548601 79.464897
-24.827499 -2.7851701 79.078201
-24.5825 -2.88568 79.187401
-24.5644 -1.65423 79.307404
-24.982 -1.93909 79.271301
-24.893801 -1.76484 79.323097
-25.070499 -2.6714599 79.046097
-25.1029 -2.1814201 79.204597
-25.478201 -2.9445901 78.999496
-25.3594 -3.30796 78.8759
-25.711901 -3.4747901 78.816498
-25.662701 -3.3958499 78.842003
-25.2379 -3.7072101 78.816101
-25.4858 -3.5750401 78.782303
-25.747499 -3.54178 78.790199
-25.899401 -3.7994299 78.687302
-25.589701 -3.7734201 78.714302
-25.8081 -4.2350998 78.582802
-24.535299 -2.17013 79.241501
-24.459 -2.01054 79.287498
-24.646601 -2.40293 79.178802
-25.000099 -3.17588 78.981201
-25.177999 -3.5908699 78.859596
-25.2889 -3.8059101 78.778198
-25.0086 -3.84272 78.901199
-25.4373 -4.1567602 78.632004
-23.955099 -2.23438 80.607399
-24.431101 -2.1217 80.808098
-24.1649 -2.1971099 80.725304
-23.9604 -2.1654 80.670502
-23.9555 -2.1872399 80.654297
-23.806101 -2.2390299 80.463699
-23.9592 -2.2951601 80.566597
-24.5938 -2.6261799 80.764198
-24.3197 -2.72824 80.7005
-24.005301 -2.49488 80.544502
-24.3778 -3.31552 80.544098
-25.0504 -3.48595 80.732697
-24.7957 -3.64293 80.638
-24.7761 -4.0416098 80.441597
-24.9769 -1.88761 80.775002
-24.718201 -2.0157399 80.830399
-24.4205 -2.0452299 80.877098
-24.4238 -2.0736301 80.854401
-24.4559 -2.2546 80.741898
-24.441299 -2.18625 80.766197
-24.8067 -3.0402601 80.791496
-25.190901 -2.36222 80.7425
-24.9135 -2.4949701 80.783401
-24.4909 -2.3709199 80.7258
-25.2187 -3.7994201 80.670197
-25.575701 -3.17717 80.698601
-25.3298 -3.3209801 80.757401
-25.1679 -1.75594 80.670403
-24.9529 -1.8091201 80.834
-24.960501 -1.83795 80.815201
-25.030199 -2.0167401 80.7258
-25.0009 -1.9517 80.743202
-25.376101 -2.74295 80.767303
-25.413099 -2.2396801 80.655502
-25.075001 -2.1309199 80.7146
-25.7243 -3.52121 80.629097
-25.786699 -3.0564401 80.585701
-25.350901 -1.76271 80.483002
-25.3092 -1.69648 80.497803
-25.242701 -1.5718 80.604401
-25.256001 -1.59463 80.594101
-25.778 -2.59953 80.469002
-25.413099 -1.88727 80.4841
-26.0903 -3.27775 80.408203
-24.696501 -1.93988 80.9002
-24.17 -2.1217799 80.798897
-25.138901 -1.68629 80.733803
-25.065901 -4.0771999 80.537903
-25.5434 -3.8015001 80.611198
-25.993401 -3.58074 80.468903
-24.177401 -2.3299501 80.665199
-24.7589 -2.14346 80.766701
-25.2327 -1.88727 80.632301
-25.4013 -1.65502 80.292297
-25.4132 -1.6334 79.820801
-25.171301 -1.81732 79.408997
-24.7665 -2.06269 79.208702
-24.303499 -2.25669 79.351799
-23.689699 -2.1600499 80.160202
-25.149799 -1.65863 80.759499
-24.6954 -1.9203399 80.942299
-24.1604 -2.1073599 80.837502
-23.6674 -2.0667901 80.2724
-23.998301 -1.59267 79.574203
-24.4259 -1.35286 79.4533
-24.8241 -1.10071 79.797997
-25.1943 -1.2215199 80.091904
-25.3002 -1.4691401 80.461098
-23.8034 -2.1863301 80.542503
-23.687901 -1.81422 80.015404
-24.065701 0.37708601 82.005798
-24.2714 0.30659401 81.966003
-24.0734 0.358686 81.969498
-23.7265 0.34518701 81.975502
-23.719601 0.36218199 82.011703
-23.4561 0.198263 82.006203
-23.4526 0.20794199 82.027603
-23.3836 0.107889 82.029297
-24.336399 0.230694 81.886803
-24.3116 0.29091099 82.007797
-24.410101 0.215501 81.971199
-24.105801 0.351881 82.0401
-24.1523 0.327517 82.046501
-24.503099 0.078734003 81.851898
-23.735399 0.32447499 82.027802
-23.7341 0.31948701 82.0504
-23.4554 0.161008 82.060799
-23.430401 0.139936 82.074501
-23.3715 0.089281 82.061897
-23.3034 -0.082001999 82.021202
-23.322901 -0.030989001 81.973999
-23.4508 0.186536 82.054497
-24.7428 -0.92183501 80.018501
-24.6404 -0.68554097 80.311096
-25.030899 -0.85046601 80.543297
-25.1094 -1.04932 80.301804
-25.185301 -1.10936 80.9244
-25.255199 -1.32067 80.656097
-25.1537 -1.57296 80.921204
-24.6805 -1.83889 81.122299
-24.1231 -2.01559 81.050201
-23.733101 -1.98391 80.7845
-23.597799 -1.86114 80.509201
-23.6096 -1.61483 80.2444
-23.8888 -1.28124 79.939499
-24.296101 -1.01871 79.843697
-23.5002 -1.3936 80.540497
-23.319901 -1.01828 81.407204
-23.427799 -1.0352401 80.952202
-23.7076 -0.821881 80.563004
-23.818399 -1.07783 80.186401
-24.1098 -0.57179099 80.437103
-24.2174 -0.81526601 80.087402
-24.5037 -0.41141 80.705299
-24.783899 -0.333891 81.236397
-24.930401 -0.58593601 80.871399
-24.8626 -0.34605899 81.7715
-25.065901 -0.74439198 81.377602
-23.2302 -0.350003 81.915604
-23.4037 -0.774019 81.337601
-23.411699 0.114955 82.162697
-23.7293 0.32549 82.173599
-24.1992 0.331294 82.125999
-24.5184 0.075212002 81.881699
-23.491699 -1.58849 80.824799
-24.266399 0.217462 82.315002
-23.7743 0.19486099 82.3825
-24.134399 0.013826 82.512001
-23.674801 -0.61648703 80.931999
-23.515499 -1.26386 81.652901
-23.456301 -0.78243101 82.216003
-23.2463 -0.49170601 82.021301
-24.419001 -0.26576701 81.024399
-24.5546 -0.118946 81.544098
-24.6441 -0.13744 81.552299
-23.8913 -1.37572 81.872704
-24.4891 -0.336023 82.362396
-24.637899 -0.035190001 82.079498
-25.1045 -1.36868 81.191902
-24.962601 -0.98841602 81.679199
-24.7346 -0.66217202 82.127197
-24.6196 -1.64557 81.4245
-24.4918 -1.25498 81.938599
-24.223101 -0.90013802 82.326302
-24.0369 -1.80521 81.363098
-23.635099 -1.72623 81.103897
-24.0453 -0.55448997 82.531502
-23.8403 -0.133203 82.577698
-23.414499 -0.052248999 82.344398
-23.467699 -0.32583201 82.460701
-24.045799 -0.39635599 80.842201
-23.6101 -0.67866498 82.4515
-24.486 -0.063496999 81.542702
-23.421301 -0.644117 81.413803
-23.3174 -0.22427 81.820503
-24.343201 -0.229353 81.163498
-24.0247 -0.347756 81.033096
-23.693199 -0.52618003 81.0924
-23.752899 0.28351599 81.890999
-24.101601 0.29980001 81.889397
-24.194799 0.104721 81.625298
-23.857 0.041065998 81.560097
-24.084101 0.37613299 82.042503
-23.5418 -0.110423 81.632202
-24.403999 0.101977 81.739098
-23.4713 0.13675 81.9291
-23.719601 0.35936299 82.039803
-24.283199 -0.097951002 81.338203
-23.942101 -0.15707999 81.289902
-23.5989 -0.35597101 81.3535
-23.370001 -0.47498399 81.579903
-24.577101 -0.21465699 81.272102
-23.298201 -0.59145498 81.643501
-23.3304 -0.53101599 81.6408
-23.2778 -0.74644703 81.728996
-23.466101 -0.99803501 81.9645
-23.780199 -1.09354 82.163696
-23.5077 -0.74344403 81.1194
-23.5408 -0.625305 81.218697
-24.505199 -0.202142 81.325699
-24.4599 -0.166611 81.336403
-23.344101 0.017987 82.051498
-23.442499 0.135784 82.061699
-23.748501 0.28972 82.008904
-24.1294 0.325611 82.032898
-24.368999 0.25987801 81.992699
-24.311199 0.27250999 81.934502
-24.085899 0.333397 81.934898
-23.7367 0.32120201 81.942398
-23.4624 0.176171 81.978302
-23.357 0.050956 82.012802
-24.1336 0.232113 81.796997
-23.793699 0.18831401 81.761101
-23.499701 0.028983001 81.800797
-25.247101 -1.26168 80.3769
-25.282 -1.34837 80.269997
-25.0376 -1.13587 79.938301
-23.7586 -1.549 79.973503
-23.8067 -1.69017 79.781502
-24.563999 -1.03478 79.809303
-24.628 -1.1969301 79.579002
-24.128 -1.27037 79.664101
-24.2146 -1.4861 79.4627
-24.4079 -1.99593 81.005699
-24.416599 -2.0289099 80.920998
-24.950701 -1.7510999 80.939201
-24.9533 -1.78925 80.871696
-23.933901 -2.11008 80.796097
-23.948099 -2.1565101 80.7034
-25.257099 -1.51318 80.698502
-25.252001 -1.55632 80.6408
-23.679399 -2.0455501 80.521202
-23.7115 -2.1498001 80.405899
-23.617599 -1.85719 80.263397
-23.6532 -1.95486 80.147301
-24.488001 0.0095149996 81.668999
-24.5219 -0.0081709996 81.694702
-24.362301 0.023801999 81.582901
-24.4447 0.017294999 81.636002
-24.4221 0.167299 81.869003
-24.4589 0.095229 81.786301
-23.397301 0.111747 82.009804
-23.575701 0.27219099 81.972198
-23.459101 0.188269 81.9935
-23.3911 0.069941998 81.978996
-23.394899 0.093158998 81.996902
-23.3552 0.060472 82.041801
-23.368 0.079645 82.0233
-23.3976 0.124217 82.022003
-23.2728 -0.168695 81.9599
-23.295601 -0.41400799 81.751701
-23.2761 -0.29254201 81.867996
-23.315901 -0.082102999 82.0214
-23.275 -0.181502 81.975899
-23.3228 -0.015767001 82.023697
-23.2987 -0.075948998 82.003799
-23.384399 -0.006722 81.903297
-23.3064 -0.103279 81.924004
-23.3414 0.0016749999 82.069504
-23.386299 0.018162999 82.051598
-23.3458 -0.000772 82.056801
-23.566 0.27720001 82.0495
-23.9147 0.368985 82.037102
-23.726801 0.34515601 82.0364
-23.5616 0.30058199 82.0392
-23.563 0.29068801 82.051102
-23.3881 0.095642 82.067902
-23.4524 0.174945 82.058098
-23.5772 0.235092 82.035797
-23.571501 0.256042 82.044296
-24.253201 0.32041001 82.027496
-24.0928 0.366384 82.042297
-23.899401 0.389103 82.026901
-23.9076 0.38124901 82.039398
-23.937599 0.333635 82.0233
-23.925699 0.351307 82.030197
-24.224899 0.34023401 82.011902
-24.244499 0.33086699 82.029099
-24.275499 0.29953101 82.021301
-24.2619 0.31200501 82.025703
-24.3734 0.24854 81.949402
-24.407301 0.215386 81.931503
-24.4533 0.159887 81.9375
-24.2854 0.17633399 81.772797
-24.3643 0.17487 81.823303
-24.216101 0.313059 81.944397
-23.908899 0.358428 81.957001
-24.0798 0.346147 81.952103
-24.205299 0.32745999 81.962303
-24.339199 0.27624199 81.969704
-24.2995 0.28648201 81.948898
-24.230301 0.28605899 81.910797
-24.2234 0.300037 81.928497
-23.7313 0.33390501 81.959801
-23.8993 0.379529 81.989197
-23.903799 0.36927301 81.972397
-23.9216 0.330843 81.9189
-23.9144 0.34645399 81.940498
-23.586599 0.242599 81.933502
-23.580299 0.25948501 81.955299
-23.568001 0.29334801 82.002502
-23.571501 0.28358299 81.987198
-24.2442 0.25406101 81.869003
-23.9466 0.27663699 81.843697
-24.114401 0.272733 81.852303
-24.2365 0.270219 81.889999
-24.2568 0.22883999 81.836899
-24.078501 0.381192 82.029198
-23.8974 0.38620299 82.009003
-23.717199 0.36604899 82.029297
-23.5653 0.299822 82.022003
-23.388901 0.122374 82.043602
-23.4517 0.204987 82.039299
-23.385599 0.108599 82.062798
-23.396099 0.12613399 82.028702
-23.3708 0.095517002 82.045502
-23.6084 0.18269999 81.855301
-23.480499 0.096173003 81.8797
-23.404301 -0.137747 81.772697
-23.3936 -0.084521003 81.827202
-23.385201 0.036894001 81.952202
-23.809799 -0.35323799 81.148598
-23.6602 -0.446118 81.198097
-23.599899 -0.66038698 81.090401
-23.5959 -0.59381598 81.156502
-23.468 -0.55836898 81.378899
-23.5634 -0.52453399 81.255402
-23.768299 0.247649 81.842102
-23.657499 0.050200999 81.681503
-23.6313 0.120522 81.773903
-23.594801 0.220008 81.903999
-24.373199 -0.148421 81.2994
-24.4536 -0.22619 81.225403
-24.4324 -0.19808801 81.257401
-24.166401 -0.204263 81.175903
-24.3116 -0.168569 81.242302
-24.4128 -0.103123 81.410202
-24.399599 -0.129302 81.353302
-24.233601 -0.31003901 81.004501
-24.2006 -0.275552 81.080101
-23.989901 -0.268837 81.137398
-24.0753 -0.001546 81.458397
-24.1252 -0.102335 81.320297
-23.850901 -0.486332 80.961197
-23.841801 -0.43559399 81.042702
-23.721901 -0.123961 81.453102
-23.7626 -0.238805 81.304703
-24.199499 0.33680201 81.9823
-24.303101 0.29514101 81.984001
-23.930901 0.31046799 81.8909
-24.000401 0.15962 81.681503
-23.970699 0.223702 81.770203
-24.559299 -0.019254999 81.714699
-24.5369 -0.019895 81.707199
-24.524401 -0.15429799 81.4328
-24.5362 -0.102153 81.543701
-24.691999 -0.086533003 81.800102
-24.5879 -0.025412001 81.731903
-24.43 0.210389 82.126198
-24.588499 0.053105 81.9589
-24.8347 -0.68659103 80.500999
-24.8992 -0.86624801 80.2631
-24.8654 -0.76787102 80.394798
-24.7376 -0.46962899 80.776001
-24.7959 -0.59534299 80.614197
-25.0847 -0.814551 80.931198
-24.987301 -0.72060102 80.699501
-23.399401 -0.58516401 82.308899
-23.2911 -0.326626 82.257401
-23.319799 -0.43496901 82.282799
-23.3307 -0.75809002 81.979301
-23.3302 -0.656775 82.127998
-23.4897 -0.73235899 82.314102
-23.7348 -0.43075699 82.552101
-23.536501 -0.51225197 82.466301
-23.6029 -0.039012998 82.480202
-23.871099 0.087811001 82.495499
-23.766001 0.043793 82.499397
-23.5609 0.198956 82.275101
-23.5781 0.100303 82.376602
-23.427299 -0.170956 82.416
-23.6537 -0.21960001 82.556297
-24.1612 -0.27387601 82.538803
-23.9487 -0.35210699 82.586098
-23.8913 -0.79511303 82.443298
-23.8134 -0.620561 82.511299
-23.5669 -0.96277499 82.174004
-23.556801 -0.86275798 82.269897
-23.676901 -0.83658898 82.384003
-23.952101 -0.93147099 82.344299
-24.4072 -0.62662798 82.386101
-24.139601 -0.72420597 82.446899
-24.7299 -0.34314999 82.093201
-24.629101 -0.489907 82.253403
-24.953899 -0.67112303 81.7668
-24.840401 -0.49558899 81.950996
-24.7633 -0.194158 81.914299
-24.434999 -0.0050010001 82.3666
-24.601299 -0.182212 82.239502
-24.7763 -0.20782401 81.6651
-23.9617 0.31569499 82.263199
-24.240801 0.294393 82.215202
-24.4669 0.13145299 82.240501
-24.3514 0.24534801 82.005402
-24.374399 0.241001 82.042801
-23.2789 -0.18451899 81.986099
-23.2458 -0.227906 82.071503
-23.254999 -0.20123699 82.0131
-23.3342 -0.0042070001 82.083397
-23.278999 -0.44911999 81.768097
-23.256001 -0.32449299 81.894203
-23.929399 0.365794 82.091301
-23.9408 0.346333 82.163399
-23.738001 0.282736 82.2659
-23.978001 0.246503 82.366096
-24.5604 -0.16854601 81.420601
-24.5825 -0.11808 81.539703
-24.495899 0.076084003 81.8517
-24.9396 -0.48376399 81.3358
-24.8664 -0.35380101 81.503502
-24.684299 -0.246879 81.320702
-24.7197 -0.23778801 81.403503
-25.0229 -0.64543498 81.141098
-25.1304 -1.05553 81.298897
-25.1334 -0.93528497 81.144203
-25.175301 -1.08944 80.589401
-25.133801 -0.97307199 80.735001
-23.597 -1.82145 80.778702
-23.6413 -1.9361 80.6455
-23.8584 -1.9217401 81.063301
-23.688299 -1.8753901 80.917503
-23.4538 -1.4060301 81.244003
-23.5373 -1.65891 80.964798
-23.5329 -1.64493 80.509003
-23.554199 -1.74736 80.643799
-23.7356 -1.56762 81.515099
-23.563499 -1.49289 81.380203
-23.364799 -0.99122 81.697502
-23.3906 -1.15353 81.513603
-23.3967 -1.33184 81.112503
-24.006701 -0.075066999 82.560501
-23.953501 0.15050399 82.443604
-24.586 -0.27792299 81.060799
-24.2721 -0.36993101 80.751999
-24.4515 -0.32093 80.884598
-24.5221 -0.23607001 81.146004
-24.6525 -0.26224899 81.227097
-24.6635 -0.36152601 80.935097
-25.1523 -1.13785 80.193802
-24.9811 -1.04011 80.052696
-23.408199 -0.89825898 81.1548
-23.4088 -1.22531 80.854401
-23.3599 -1.0526299 81.143097
-23.3067 -0.76411402 81.5233
-23.3428 -0.896626 81.348999
-23.681999 -1.35001 80.198097
-23.564699 -1.51238 80.365601
-23.577499 -1.75183 80.380699
-23.473499 -1.50237 80.6884
-24.049801 -1.03774 79.967102
-23.854799 -1.1847301 80.049896
-23.7216 -1.4491 80.083
-23.583599 -1.09534 80.521896
-23.635099 -1.23482 80.335701
-23.5478 -0.804331 80.8899
-23.570601 -0.695436 81.019096
-23.858601 -0.55606598 80.701401
-23.6728 -0.69031698 80.784203
-23.5441 -0.946513 80.720001
-23.4708 -0.86395502 81.023598
-24.387899 -0.26416799 81.103699
-24.2477 -0.32020301 80.891403
-24.0504 -0.39071599 80.947403
-24.056999 -0.44984099 80.682098
-24.368401 -0.60661399 80.337502
-24.319099 -0.485771 80.532097
-24.4741 -0.84492701 80.021896
-24.258301 -0.92019099 79.955002
-24.422501 -0.73468798 80.164398
-24.692499 -0.82506001 80.135498
-24.5231 -0.94600099 79.907501
-23.8447 -0.49748099 80.862396
-23.695999 -0.59239602 81.020103
-23.963699 -0.81102002 80.265198
-23.906401 -0.683676 80.456497
-24.014799 -0.93397701 80.0998
-24.0842 -1.1345 79.857002
-23.4056 0.053011999 82.254799
-23.2384 -0.536143 81.805702
-23.218599 -0.39308301 81.946701
-23.262199 -0.28926 82.165901
-23.5574 0.26232901 82.100998
-23.5574 0.248337 82.183098
-24.2831 -0.458114 82.480003
-24.3291 -0.163625 82.458298
-24.501101 -1.0099601 82.124496
-24.4669 -0.79713702 82.283401
-24.254299 -1.56284 81.701797
-23.967899 -1.59874 81.627098
-23.6308 -1.18804 81.937401
-23.6745 -1.34229 81.7705
-23.807301 -1.78826 81.245499
-24.366699 -1.8742501 81.256699
-24.086 -1.93023 81.185402
-23.8965 -2.0146699 80.927101
-24.0753 -1.1805201 82.125
-23.828699 -1.21784 82.0401
-24.1647 -1.34337 81.946999
-24.3297 -1.07882 82.147697
-23.993601 -1.02229 82.270103
-24.8267 -1.3223799 81.578697
-24.550699 -1.46138 81.6931
-24.3214 -1.75199 81.434402
-24.934999 -1.6356699 81.148697
-24.664 -1.77017 81.247398
-24.398899 -1.9558901 81.124496
-24.746901 -0.90187502 82.002502
-24.774099 -1.13276 81.817902
-24.878 -0.80366701 81.904602
-24.895 -1.50763 81.316399
-25.039101 -1.18199 81.432503
-25.225401 -1.35938 80.9133
-25.140301 -1.49414 81.031799
-24.9482 -1.70471 81.036301
-25.052799 -0.85902399 81.544502
-24.9769 -0.55348903 81.589996
-25.188601 -1.23779 81.068703
-25.249701 -1.45087 80.799103
-25.225901 -1.2292399 80.770897
-24.240999 0.116013 82.422699
-23.488001 -1.11033 81.8293
-23.5973 -1.07094 82.058296
-23.3009 -0.87024498 81.587097
-23.349001 -0.87427402 81.841003
-23.386299 -1.27722 80.991997
-24.1569 0.34453401 82.070099
-24.351101 0.245068 82.002701
-23.950899 0.31369799 82.028603
-23.934401 0.35615399 82.0569
-23.7253 0.335237 82.089996
-23.5823 0.210715 82.032997
-23.5658 0.241486 82.057602
-23.4198 0.140324 82.104897
-23.3855 -0.604509 81.505501
-23.4044 -0.58188701 81.466202
-23.371901 -0.64658201 81.5
-23.3827 -0.627469 81.508202
-23.334999 -0.51300901 81.634201
-23.344601 -0.68870997 81.498802
-23.273199 -0.647129 81.665604
-24.8582 -0.45730299 81.049599
-24.560499 -0.53513098 80.516602
-24.1663 -0.69483298 80.250397
-23.7617 -0.94959301 80.362801
-23.458799 -1.19234 80.733398
-24.7729 -0.99826801 79.921898
-24.9359 -0.954198 80.153198
-24.3421 -1.14417 79.663498
-23.9251 -1.3946 79.789299
-23.6504 -1.71715 80.130203
-23.634701 -1.96672 80.387802
-23.772301 -2.0927801 80.659401
-24.1476 -2.07582 80.9216
-24.688601 -1.88282 81.014999
-25.1537 -1.6181099 80.823502
-25.2848 -1.40742 80.552803
-25.2124 -1.18033 80.477501
-25.069901 -0.95955998 80.4086
-23.3904 0.066770002 82.064102
-23.3895 0.080385 82.065598
-23.343399 0.015973 81.997704
-23.327299 -0.021724001 82.040703
-23.341801 0.023885 82.0354
-23.357201 0.052207999 82.058899
-23.389299 0.044186 82.057503
-23.4596 0.14457899 82.057899
-23.5821 0.216572 82.026497
-23.7432 0.30620199 82.018097
-23.946501 0.32049301 82.018303
-24.1196 0.33666101 82.0364
-24.3288 0.26273999 82.007401
-24.291201 0.282913 82.015503
-24.348301 0.27259901 81.998398
-24.3584 0.263154 81.960197
-23.453199 0.205439 82.017998
-23.7223 0.35515901 81.991402
-24.0665 0.37113401 81.988701
-23.4818 -0.72456199 81.269501
-23.424999 -0.70775998 81.384697
-23.322901 -0.54758602 81.634697
-23.4501 -0.88332897 82.093102
-23.2579 -0.62601697 81.868698
-23.2535 -0.488152 81.779602
-23.288799 -0.43501601 81.765198
-23.4342 -0.30174699 81.611801
-23.340099 -0.35910699 81.697098
-23.415899 -0.19525 81.714401
-23.5697 -0.212155 81.512703
-23.457001 -0.42524201 81.490097
-23.686501 -0.0273 81.579498
-23.8967 -0.051497001 81.4338
-24.0343 0.085873 81.579201
-24.2327 0.018843001 81.507698
-24.321301 0.105719 81.685402
-24.4051 -0.05886 81.478897
-23.7293 -0.96953201 82.2798
-23.451401 -0.76811898 81.219101
-23.4769 -0.64764398 81.314598
-23.538799 -0.69999701 81.173302
-24.4834 -0.128714 81.427101
-24.5415 -0.168107 81.429901
-24.488501 -0.188686 81.333298
-24.612801 -0.193887 81.381798
-24.5226 -0.201836 81.317802
-24.3414 0.253618 82.005302
-23.441 0.12910201 82.070297
-23.7512 0.28479201 82.016998
-24.143999 0.307493 82.033997
