# .PCD v.7 - Point Cloud Data file format
VERSION .7
FIELDS x y z
SIZE 4 4 4
TYPE F F F
COUNT 1 1 1
WIDTH 1687
HEIGHT 1
VIEWPOINT 0 0 0 1 0 0 0
POINTS 1687
DATA ascii
-2.8690901 -26.4431 96.247597
-1.94881 -26.5065 95.9561
-5.7979598 -26.131399 99.094498
-6.0494499 -26.019899 98.539902
-6.9065099 -26.230499 100.172
-7.5949702 -26.245399 99.210297
-7.5749502 -26.262501 98.650101
-8.14779 -26.5581 101.274
-7.3999901 -21.469299 80.314499
-7.3234601 -21.313999 80.149399
-7.2979202 -21.145599 80.0028
-7.33953 -20.982 79.8601
-7.41994 -20.7994 79.740799
-7.5152602 -20.660999 79.6576
-7.6251001 -20.5399 79.608597
-7.7537098 -20.451401 79.587502
-7.9079299 -20.381901 79.601898
-8.0784702 -20.3374 79.6455
-8.2380505 -20.323799 79.706497
-8.3889904 -20.314301 79.773499
-8.5333595 -20.3372 79.859802
-8.6499701 -20.384501 79.9571
-8.7418699 -20.4737 80.063301
-8.8002005 -20.5807 80.176903
-8.8098898 -20.729099 80.296898
-8.7800503 -20.8843 80.3974
-8.6906605 -21.070601 80.4888
-8.5648804 -21.243299 80.564201
-8.4258099 -21.3827 80.600998
-7.5742798 -21.5749 80.445
-7.7322001 -21.6161 80.527397
-7.9035602 -21.6322 80.577599
-8.0732803 -21.585199 80.611603
-8.2535601 -21.509701 80.617996
-8.0356903 -21.1866 79.869003
-8.07586 -21.120001 79.820602
-8.0271997 -21.2491 79.939903
-8.05865 -21.2955 80.008904
-8.12045 -21.3179 80.053802
-8.1993103 -21.306801 80.070801
-8.2730398 -21.2668 80.063301
-8.3301897 -21.2085 80.036102
-8.36028 -21.1448 79.992699
-8.3605604 -21.0835 79.942703
-8.3333797 -21.0389 79.892303
-8.2824202 -21.021601 79.8479
-8.2139797 -21.028799 79.817596
-8.1413002 -21.059299 79.806198
-7.6154399 -21.534 80.391602
-7.7745099 -21.5728 80.4785
-7.9144101 -21.589199 80.518097
-8.0843496 -21.545601 80.552002
-8.2253799 -21.483601 80.559196
-8.3825397 -21.370701 80.544502
-8.5210695 -21.2418 80.511101
-8.6455498 -21.0818 80.4468
-8.7295799 -20.9151 80.364601
-8.7621403 -20.7666 80.266197
-8.7544699 -20.6493 80.171501
-8.6983004 -20.531601 80.060303
-8.6085196 -20.443501 79.946098
-8.4946203 -20.396099 79.848701
-8.3770704 -20.377399 79.778503
-8.2239904 -20.384701 79.7108
-8.0934496 -20.3936 79.661697
-7.9268799 -20.4387 79.617203
-7.7864099 -20.504601 79.603996
-7.6833601 -20.5839 79.621101
-7.5763502 -20.704399 79.676399
-7.4812799 -20.842699 79.759003
-7.4096498 -21.006001 79.870796
-7.3752699 -21.1681 80.015404
-7.39955 -21.3032 80.137398
-7.48945 -21.448 80.287201
-8.0445099 -21.400299 80.179199
-8.0830402 -21.355 80.111504
-8.1949396 -21.3398 80.136002
-8.19771 -21.373199 80.217697
-8.2974005 -21.2782 80.127998
-8.3303604 -21.2854 80.2034
-8.3784304 -21.189501 80.092003
-8.4352503 -21.1609 80.159203
-8.4175901 -21.094299 80.031898
-8.4818497 -21.0329 80.078796
-8.4140797 -21.003201 79.965202
-8.4695501 -20.9156 79.994598
-8.3712597 -20.936001 79.901604
-8.4100704 -20.8265 79.915001
-8.2975502 -20.9067 79.842697
-8.3109999 -20.787001 79.8451
-8.1985703 -20.916201 79.797401
-8.1788502 -20.7938 79.787498
-8.0964403 -20.9596 79.776398
-8.0390701 -20.846399 79.753197
-8.00459 -21.0513 79.7938
-7.9210901 -20.969299 79.774597
-7.9505301 -21.1527 79.858803
-7.8494301 -21.1106 79.851601
-7.9446998 -21.250799 79.954697
-7.8495402 -21.2535 79.972603
-7.9924998 -21.322201 80.050499
-7.9187198 -21.353901 80.098297
-8.3253202 -20.653799 79.840698
-8.4516697 -20.708099 79.925201
-8.1528902 -20.654301 79.7696
-7.9639301 -20.713499 79.723503
-7.8141098 -20.867901 79.762802
-7.7185001 -21.054899 79.858498
-7.7283702 -21.243 80.0112
-7.8282299 -21.3811 80.164902
-7.9960299 -21.4422 80.273499
-8.19732 -21.4021 80.330803
-8.3748703 -21.2742 80.311897
-8.5085201 -21.1075 80.251801
-8.5563097 -20.944 80.1427
-8.5298405 -20.8048 80.030502
-8.1458902 -21.488899 80.464104
-8.3858404 -20.5035 79.8134
-7.9024301 -21.5303 80.401497
-7.6729898 -21.4522 80.273399
-8.2953196 -21.392099 80.453003
-8.4457302 -21.269699 80.418404
-8.5728502 -21.1164 80.3703
-8.6395102 -20.993299 80.309402
-8.6804199 -20.821501 80.190598
-8.62008 -20.6777 80.049797
-8.5248699 -20.5751 79.921997
-8.1660299 -20.504601 79.712601
-7.9621701 -20.559 79.658997
-7.8316002 -20.6336 79.646202
-7.69906 -20.7812 79.716301
-7.6036801 -20.939899 79.801399
-7.5580902 -21.070299 79.892502
-7.5416002 -21.2654 80.073196
-0.161175 -21.1803 108.475
-1.35884 -21.379601 108.493
-1.41258 -20.4552 108.333
-2.65873 -21.563601 108.588
-2.8485899 -20.52 108.482
-3.6210699 -21.7915 108.672
-3.8828299 -20.931499 108.633
-4.8947601 -22.3249 108.517
-6.5014901 -23.492001 107.767
-7.6402602 -25.0965 106.539
-7.8517499 -26.1861 105.385
-7.6203299 -26.8636 104.422
-7.1280999 -26.9802 103.706
-6.3081298 -26.911301 102.847
-6.7909098 -26.7243 102.392
-5.55724 -26.774099 102.226
-5.87116 -26.5982 101.687
-5.02 -26.9368 101.422
-4.86449 -27.2286 100.811
-6.6105599 -27.1266 104.053
-7.3333402 -26.377199 105.588
-3.3717799 -22.452 108.586
-2.51004 -22.2738 108.577
-1.29855 -22.0819 108.596
-5.6921201 -23.8592 107.838
-4.8884201 -27.491501 101.451
-5.0320201 -27.2563 101.988
-5.43856 -27.083 102.656
-5.9242802 -27.116899 103.211
-4.2540598 -22.8139 108.482
-7.0083599 -25.347601 106.697
-7.0636301 -27.0212 104.711
-3.14434 -25.066999 108.175
-3.27724 -23.989201 108.178
-2.4331801 -23.740999 108.309
-0.71466398 -23.1717 108.732
-4.4883699 -25.4911 107.646
-1.36983 -23.343599 108.559
-4.7579498 -24.861401 107.644
-6.0496602 -25.9583 106.771
-3.7209799 -23.4181 108.329
-5.1130099 -24.2782 107.78
-6.4338899 -25.629801 106.782
-6.8035698 -26.617599 105.707
-6.67273 -27.1756 104.886
-3.1997399 -23.1738 108.417
-2.42802 -22.925501 108.451
-1.30362 -22.6159 108.564
-0.356103 -22.463699 108.721
-0.16953 -22.4618 108.753
-0.66420901 -21.933201 108.628
-0.720846 -21.2582 108.491
-1.8681999 -22.177401 108.573
-1.95556 -21.464001 108.525
-2.0325401 -20.477699 108.393
-0.79206198 -20.431601 108.285
-1.55927 -14.545 106.19
-0.93379998 -17.4895 107.396
-0.96196401 -16.1327 106.844
-0.907664 -18.8332 107.88
-1.69091 -15.9954 106.977
-2.9547501 -12.7188 105.854
-3.2114899 -14.0898 106.684
-6.6156502 -13.5393 106.864
-6.50665 -12.3231 106.119
-6.28684 -11.2143 105.352
-1.91485 -17.3932 107.605
-3.6101999 -15.5885 107.462
-6.8839598 -15.8271 107.898
-6.70542 -14.829 107.473
-2.0620301 -18.8319 108.069
-7.3697701 -16.872601 108.193
-8.0809698 -17.961 108.32
-4.5283499 -4.9423199 99.391899
-5.4056201 -8.52384 103.142
-5.07795 -7.2274199 101.982
-1.83705 -22.759701 108.497
-0.70471901 -22.4792 108.646
-1.8808399 -23.4828 108.434
-2.1763699 -14.3397 106.462
-1.88945 -12.9785 105.592
-2.4888 -15.8424 107.23
-1.05137 -13.2579 105.288
-1.11693 -11.8616 104.448
-1.18363 -10.4859 103.446
-1.78827 -0.38198799 91.875397
-1.73356 1.38278 89.336601
-1.3606499 -7.75563 101.208
-1.38162 -6.5398898 99.738197
-1.26474 -9.0175896 102.308
-1.48708 -5.4118299 98.5252
-1.61713 -3.9692199 96.805099
-1.76792 -1.7745 94.026901
-4.4074702 -13.8606 106.856
-1.00629 -14.6699 106.056
-3.8769901 -12.5651 105.972
-4.8206902 -11.245 105.254
-2.3927901 -6.1518402 100.141
-2.5631499 -7.3872099 101.691
-6.02982 -5.0222502 99.381302
-5.9855099 -3.47966 97.578499
-7.10326 -5.1458802 99.330704
-2.1152699 -4.5427899 98.013397
-1.6745 -2.9036601 95.447899
-2.2792301 -2.7112501 95.799301
-3.2938499 -2.4788699 96.017601
-5.6521001 -4.2452502 98.493202
-4.1914401 -4.2136102 98.485397
-4.38554 -2.24754 96.1763
-7.38238 -4.3275299 98.492996
-5.2906199 -2.2185099 96.210403
-6.3879099 -2.06109 96.238403
-8.1847897 -1.95713 96.210503
-2.7546799 -4.38484 98.239098
-0.92149502 -2.9714501 95.2938
-6.5869098 -4.2962098 98.489899
-5.7087202 -2.12273 96.260002
-9.0573902 -5.0734901 99.044502
-9.8159103 -3.43994 97.328102
-9.3494902 -2.04932 96.072197
-8.9790201 -0.78867799 94.558403
-8.9091101 0.54890198 92.665001
-9.2864704 2.3810899 90.101799
-8.8678102 -4.4288301 98.435699
-7.5030699 -26.436899 100.648
-6.8197198 -26.561199 101.432
-6.33005 -26.644899 102.036
-5.94242 -26.805 102.554
-5.6681499 -27.063101 102.926
-0.047408 -25.899099 95.086601
-7.0773001 -26.1854 98.468597
-6.7111402 -26.080799 98.933998
-6.2776999 -26.1136 99.623703
-5.8548102 -26.297501 100.388
-5.47894 -26.6043 101.19
-5.2400799 -26.8251 101.822
-5.2009401 -27.149799 102.342
-6.3522 -26.0823 97.901802
-5.1175499 -26.3762 97.189003
-4.9388499 -26.4319 97.662498
-4.8678799 -26.468901 97.853401
-4.73704 -26.673901 98.499802
-4.60359 -27.0145 99.303596
-4.4987502 -27.438299 100.23
0.86682999 -25.222099 92.214897
0.85620701 -25.4863 93.124496
0.810992 -25.6301 93.867104
0.84897298 -24.8958 91.141502
0.810265 -24.542 90.072197
-15.8664 -8.4798603 83.665802
-15.5359 -6.7234101 82.457603
-14.9568 -7.8653102 81.942001
-13.1583 -8.8752699 79.215797
-12.8456 -10.6708 80.047699
-13.7492 -7.1992998 79.191299
-14.1003 -7.01127 80.051697
-10.3712 -12.5315 78.151398
-11.3309 -12.1887 78.8498
-10.8965 -11.8931 78.241501
-11.2909 -11.7179 78.560402
-9.43995 -13.2074 77.748497
-12.1937 -11.225 79.395103
-11.7307 -12.0734 79.241203
-12.6193 -11.0651 79.996201
-12.1278 -12.0889 79.8908
-14.19 -6.2045498 79.730499
-14.4755 -6.1643 80.553398
-11.5721 -13.0709 79.8797
-11.1903 -12.9976 79.274803
-10.9495 -12.9924 78.9702
-9.9284496 -13.1801 78.201599
-11.1291 -12.6385 78.892998
-11.8473 -12.6302 79.871498
-11.4715 -12.5732 79.250298
-12.3895 -11.5343 79.945999
-11.9813 -11.6177 79.329697
-11.308 -11.9491 78.698799
-10.9399 -12.3977 78.6175
-10.7304 -12.9859 78.769501
-10.7965 -12.7602 78.692101
-10.6738 -12.4687 78.436996
-10.5054 -13.1535 78.705498
-10.4736 -12.9025 78.526703
-11.0523 -12.1171 78.561401
-10.9662 -12.0341 78.436501
-13.2024 -9.3656597 79.792801
-13.6162 -9.4368696 80.610397
-13.5562 -7.7915401 79.130096
-12.8952 -8.9911003 78.6772
-9.9144001 -12.5905 77.686302
-11.9779 -11.0627 78.935699
-12.4274 -10.8686 79.470497
-11.5988 -11.3196 78.640099
-12.1095 -10.5313 78.695396
-11.7426 -11.0289 78.597702
-12.5132 -9.1504498 78.0131
-9.07938 -12.6697 77.043404
-9.66852 -12.0585 77.098999
-10.6645 -11.1292 77.295403
-11.3638 -11.2945 78.333504
-11.7583 -10.7745 78.387398
-11.7364 -10.0756 77.636803
-13.2616 -7.9317999 78.4795
-11.259 -10.599 77.455902
-12.8345 -9.4820204 79.126198
-12.5213 -10.0086 78.968102
-13.1984 -8.99259 79.460701
-14.2327 -7.1006799 80.460602
-14.7343 -6.55092 81.202499
-14.3609 -7.2241602 80.789703
-13.2688 -9.05091 79.677803
-14.1613 -7.6398702 80.5765
-13.6321 -8.27215 79.789398
-13.3781 -8.6890898 79.569199
-13.9324 -7.7683501 80.147903
-13.7269 -8.3375502 79.991798
-13.8919 -8.05194 80.177803
-13.5748 -8.5829601 79.862099
-14.3057 -8.1039801 81.056297
-14.1835 -7.9762201 80.762497
-14.013 -8.0169697 80.426598
-13.4053 -8.8533096 79.761902
-14.0376 -8.5574398 80.863403
-13.8166 -8.6421204 80.478203
-13.6054 -8.7390203 80.096703
-13.8016 -7.6933498 79.745201
-14.5773 -6.3085098 80.852898
-13.0576 -9.3657799 79.506401
-12.8951 -9.6518202 79.396599
-12.5556 -10.2664 79.1633
-13.7431 -9.0884705 80.710403
-13.0793 -9.7273197 79.729301
-12.5413 -10.1541 79.0662
-12.3275 -10.4081 78.908096
-12.7718 -9.9420795 79.322304
-13.4334 -9.8237104 80.455803
-12.9034 -10.1028 79.625099
-13.1263 -10.2342 80.173798
-12.6843 -10.4847 79.558296
-12.1521 -10.6504 78.826797
-12.1908 -10.2833 78.587997
-12.5587 -9.73948 78.751999
-12.2168 -9.9215097 78.262398
-12.7249 -12.6058 81.643204
-12.9726 -11.1015 80.850098
-11.9326 -13.2195 80.626198
-12.1643 -12.831 80.625099
-12.4739 -12.2562 80.715599
-13.1314 -10.7988 80.893303
-13.3285 -10.4598 80.960701
-12.2551 -10.6948 79.026802
-12.2774 -13.3952 81.522301
-14.3899 -7.4938202 80.949303
-14.4323 -5.5262098 80.151604
-14.8113 -5.3884101 81.205399
-15.1961 -5.7642398 81.877296
-14.8208 -6.7793198 81.392502
-13.3518 -11.1117 81.751198
-14.0862 -9.89748 82.044899
-14.2774 -8.5772104 81.309303
-13.6818 -9.8568497 81.139503
-13.9748 -9.0433197 81.139
-13.8502 -9.4849997 81.202797
-7.9096198 -13.8862 77.173897
-8.4975204 -13.264 77.084503
-8.0981503 -11.3264 74.884003
-8.98557 -11.3084 75.688103
-12.2596 -8.4448004 76.723801
-7.8519502 -12.0957 75.712502
-10.3286 -10.3007 75.911697
-11.3104 -9.4597902 76.212196
-9.6993504 -10.8517 75.741302
-8.7426701 -10.9101 74.885902
-7.5294199 -11.6803 74.9674
-6.3842602 -12.6646 75.304398
-8.1099396 -12.6794 76.361198
-8.7908297 -12.0933 76.3983
-7.4419398 -13.2255 76.3843
-6.9882398 -12.0954 75.106003
-7.16501 -12.6522 75.750198
-11.1193 -10.1997 76.846298
-9.8881798 -11.2412 76.535797
-10.5656 -10.7254 76.674301
-12.7028 -7.9770298 77.032303
-13.3211 -7.1245599 77.6912
-13.089 -7.8780599 77.898804
-13.5496 -7.1086402 78.410599
-12.8019 -8.2619495 77.677101
-11.9965 -9.3239002 77.185799
-13.9782 -6.0764599 78.928902
-14.9656 -9.2227097 82.770203
-13.0904 -11.7828 81.738602
-12.754 -11.6313 80.809502
-11.7196 -11.4253 78.870201
-11.5829 -11.7928 78.915298
-10.4047 -11.9694 77.726402
-11.2899 -10.974 77.909203
-11.8071 -10.441 78.0812
-12.0016 -10.8897 78.811897
-10.149 -11.5631 77.190903
-9.3342896 -11.6227 76.462196
-10.8299 -11.4464 77.809097
-8.42068 -11.653 75.693199
-13.2815 -8.3802099 78.930298
-13.5059 -8.2799997 79.454803
-12.9468 -8.5441504 78.261902
-12.4897 -8.7430401 77.447197
-11.8877 -8.9042597 76.466202
-14.177 -8.3388004 80.942398
-13.9997 -8.33955 80.590599
-13.7915 -8.4078999 80.188797
-13.5019 -9.1977396 80.285698
-13.3771 -9.5546198 80.190201
-13.235 -9.9286203 80.1091
-14.9517 -7.25247 81.664902
-14.4894 -7.8031201 81.228798
-12.7935 -9.38624 78.907997
-12.5241 -9.4884005 78.444702
-12.0997 -9.6271601 77.815498
-11.5271 -9.7687397 77.005402
-10.7906 -9.8664999 76.066498
-5.77036 -13.007 75.287399
-6.5037498 -13.1447 75.7938
-6.8459201 -14.445 76.956802
-8.0824699 -14.2494 77.463303
-6.7450099 -13.7404 76.410599
-10.7588 -13.3557 79.120499
-11.2516 -13.5526 79.921799
-11.6152 -13.771 80.688103
-10.0706 -13.4645 78.508102
-9.1358404 -13.7368 77.909103
-11.8757 -14.1046 81.507103
-14.32 -4.2347002 79.794502
-14.5265 -4.27633 80.844597
-14.8999 -4.15241 81.889198
-15.4216 -4.2853799 82.856201
-16.5688 -7.2747202 84.904099
-16.093399 -5.2704 83.830399
-0.19827899 -25.817801 95.872704
-0.45824099 -26.1999 95.451599
0.241809 -25.8426 93.826698
0.106578 -25.873501 94.623802
-0.276465 -26.051399 95.629097
-0.43462899 -25.9597 93.922699
-0.63410699 -26.378099 95.779999
-0.37997299 -26.1017 96.3479
0.654787 -25.4179 95.376602
0.30127701 -25.6628 94.668198
0.181422 -25.613701 95.07
-0.31356499 -26.096399 95.105698
-0.117333 -25.8985 95.341599
-0.045499999 -25.6705 95.581703
0.62782198 -25.458401 95.0439
-1.52913 -4.7342701 97.7463
-0.90343702 -4.8652501 97.603401
-11.0817 -16.096201 81.578903
-10.865 -16.0173 81.091103
-10.5775 -16.057699 80.637497
-10.1859 -16.2519 80.246803
-9.7080402 -16.530199 79.831902
-9.0567503 -16.826599 79.417
-8.2322197 -17.1241 79.000999
-7.2880902 -17.4102 78.634499
-6.1320601 -17.613501 78.459198
-5.0559402 -17.873899 78.435501
-3.99472 -18.267 78.580498
-3.0153301 -18.819599 78.926003
-2.29952 -19.389799 79.340302
-1.79216 -19.802099 79.812401
-1.51227 -20.241301 80.275497
-2.796 -23.6513 84.084198
-2.2420399 -23.017 83.286499
-1.8408999 -22.375299 82.5196
-1.51324 -21.726101 81.841499
-1.38425 -21.095301 81.181
-1.41371 -20.532 80.590302
-11.3619 -15.2323 81.542297
-11.1193 -14.9527 80.899399
-10.7949 -14.8407 80.283699
-10.3491 -14.9045 79.735199
-9.7579298 -15.0984 79.235497
-9.0232201 -15.4061 78.766701
-8.1303101 -15.7245 78.332001
-7.0819998 -16.082001 77.957703
-5.7852702 -16.436399 77.739799
-4.4513102 -16.8589 77.798103
-3.2687399 -17.413401 78.177902
-2.2332101 -18.068199 78.739098
-1.47981 -18.7845 79.358299
-0.965698 -19.345501 79.9272
-0.665883 -19.813 80.411903
-0.51528299 -20.297899 80.8964
-1.91831 -23.912701 85.192596
-1.20322 -23.1651 84.200203
-0.78803802 -22.330999 83.197098
-0.62309301 -21.5898 82.267303
-0.50741202 -20.891701 81.520798
-6.0700698 -22.5923 81.764801
-5.7354002 -22.9447 82.379601
-5.3399 -23.3363 83.0979
-4.9265399 -23.7805 83.9561
-1.2720701 -26.460199 95.797798
-6.7003798 -26.918501 103.285
-6.2219601 -27.091999 103.648
-7.2513599 -26.7589 102.862
-9.5445004 -26.6308 101.057
-8.7418604 -26.6838 101.791
-7.9542899 -26.6805 102.351
-11.0362 -27.1276 99.904999
-10.2886 -26.7847 100.457
-11.824 -27.6826 99.376801
-13.4281 -9.0089502 79.9907
-13.8512 -8.8613195 80.778
-13.647 -8.9099598 80.3881
12.0364 -19.2059 81.486298
11.9544 -19.2845 81.512901
11.9319 -19.268299 81.468498
11.9953 -19.283899 81.548698
12.0434 -19.2659 81.568298
12.087 -19.2363 81.572899
12.1174 -19.197901 81.561699
12.1303 -19.1628 81.539803
12.1244 -19.134899 81.509697
12.1042 -19.118799 81.476196
12.0701 -19.118799 81.442802
12.0305 -19.132601 81.415802
11.9871 -19.1605 81.402802
11.9516 -19.1991 81.404701
11.9305 -19.2374 81.427902
6.3256302 -26.0145 99.415497
7.1764302 -25.484501 100.82
7.2964602 -25.0842 101.582
8.6779203 -24.9631 105.712
8.7532501 -24.923901 106.77
8.4416399 -24.182899 107.822
7.9152999 -23.341101 108.608
6.80724 -21.623301 109.084
4.7153702 -20.620899 109.317
7.63309 -12.4934 76.391602
8.3514204 -11.855 76.328697
7.2604098 -13.4494 76.9869
8.2571201 -12.6271 76.937302
8.9261503 -12.7837 77.574898
7.8051801 -13.6863 77.484497
8.2643099 -13.9812 77.962402
1.98059 -14.6392 76.693199
2.51195 -14.686 76.783798
3.2385399 -14.7819 76.929802
4.1631999 -14.7544 77.031799
2.28245 -15.2661 77.430702
2.0971401 -16.270599 78.416199
1.79723 -15.2321 77.372101
5.3786802 -14.0383 76.694603
6.61415 -13.2524 76.511597
8.9550695 -11.9479 76.927803
10.9634 -22.3057 102.994
10.8036 -22.465599 102.079
11.707 -21.9142 102.166
11.9841 -21.7512 102.761
12.6376 -21.6583 101.937
13.0521 -21.4629 102.596
11.4066 -22.1166 101.757
12.6425 -21.370899 104.096
11.8116 -21.8965 104.402
13.0265 -20.864401 105.163
12.4211 -21.471701 105.4
13.0742 -20.002001 106.24
12.4042 -20.483299 106.547
5.53408 -25.897699 98.0588
6.5169201 -25.649 98.675499
7.4672799 -25.0625 100.019
7.6558199 -24.582899 100.795
8.2295599 -23.980801 102.271
8.8771095 -23.7484 103.75
9.4866505 -24.0047 105.294
9.5174799 -24.1091 106.489
9.30334 -23.2083 107.631
8.8479605 -22.202101 108.405
3.10183 -24.154301 88.869102
2.8336799 -24.517599 90.0905
2.15697 -23.8489 88.608803
2.1473801 -23.336599 87.336502
3.0992801 -23.5839 87.400703
2.1174901 -22.5249 85.776299
3.00612 -22.768801 85.619202
1.9892499 -21.6189 84.308899
2.70753 -21.7512 84.129799
1.97903 -20.7866 83.0681
2.6755099 -20.978399 82.925102
2.0021601 -20.061399 81.998299
2.69081 -20.2598 81.973999
2.02459 -19.427601 81.262901
2.7532899 -19.6178 81.276703
2.1586399 -18.661501 80.573601
2.90379 -18.9942 80.692802
14.4999 -16.2593 106.326
13.3898 -16.5429 106.866
14.7583 -19.886801 104.522
14.5784 -20.5777 103.705
13.8718 -20.3347 104.892
13.5592 -20.9067 103.897
14.8314 -18.843201 105.294
13.9421 -19.4198 105.8
14.7149 -17.587999 105.943
13.7914 -18.080799 106.462
14.278 -21.313601 102.5
2.51895 -17.665701 79.653999
2.0584199 -17.369699 79.420303
2.67594 -16.393499 78.540199
2.6452799 -24.870701 91.3452
5.3359098 -19.879999 80.830902
4.2561002 -19.9695 81.123199
4.3713398 -19.5082 80.703201
14.9897 -0.93557799 90.781898
12.2297 -16.7255 107.323
12.8703 -18.537001 107.002
12.0866 -19.034901 107.44
9.2993803 1.79152 94.086601
6.98136 2.0654399 94.045097
7.0306101 0.81489098 95.999199
11.257 1.51688 93.070999
5.0397501 2.01881 93.853699
5.0068202 0.54270101 95.649696
5.5670099 -1.8477 98.6437
5.0127201 -3.8645501 100.317
4.7158399 -5.0354199 101.523
4.7240901 -6.45713 102.849
4.89217 -7.5825701 104.087
4.44871 -8.9458799 105.25
3.6308999 1.6247 93.584702
3.5806201 0.091737002 95.367599
4.0269299 -2.34272 98.317497
3.76828 -5.2033901 101.331
3.8726101 -6.4359198 102.657
4.14538 -7.6168299 103.891
3.4333701 -9.0399103 105.051
2.3419001 1.06444 93.298599
2.34127 -0.44447699 95.057701
2.7822299 -2.7198601 98.118202
2.51052 -5.3805399 101.219
1.55931 -6.8087602 102.254
1.84804 -7.9687901 103.467
2.2800801 -9.3365602 104.732
1.32552 0.56812501 92.757103
1.37247 -0.89242601 94.832199
1.66809 -2.9521201 97.814598
0.91512603 -4.6578002 99.383499
1.23569 -5.6490502 100.813
0.75194198 -8.3182497 103.083
0.961927 -9.6967402 104.296
0.30649099 0.22983301 92.241798
0.249374 -1.28553 94.563103
0.152978 -3.52513 97.300499
0.132167 -5.02107 98.9692
0.052556001 -6.14011 100.071
-0.0099459998 -7.38521 101.565
-0.022209 -8.7084503 102.616
0.026004 -10.1894 103.779
13.1919 0.25954899 92.211899
3.27739 -19.781601 81.253998
4.2721 -20.535101 81.716698
3.27701 -20.413 81.913498
4.4205599 -21.1866 82.420502
3.2502601 -21.100401 82.790298
4.7250099 -21.827299 83.246399
3.37236 -21.8666 83.847801
5.1487999 -22.477501 84.174599
3.7936399 -22.742399 85.096298
5.7602 -23.056299 85.152199
4.60286 -23.435801 86.320099
5.28789 -20.4988 81.461304
5.44067 -21.072701 82.112999
5.7852502 -21.5825 82.762497
6.1603699 -22.0847 83.473701
6.6584501 -22.5366 84.231499
3.46538 -23.8564 87.858803
3.89272 -23.6355 87.092102
11.7422 -22.081301 101.412
10.7943 -22.6513 100.777
11.349 -19.7813 81.944504
11.5454 -19.773399 82.072701
11.3089 -20.1756 82.493401
10.9128 -20.238701 82.295502
11.7702 -19.731501 82.180801
11.7153 -20.059999 82.6558
11.9747 -19.6327 82.259903
12.1315 -19.876301 82.790398
12.1985 -19.482401 82.3237
12.5526 -19.6113 82.897301
9.3657198 -22.461 85.435303
9.7547503 -21.934401 84.555496
10.0937 -21.445999 83.827904
10.3713 -21.0151 83.2062
10.6331 -20.5849 82.6623
11.147 -20.496201 82.876801
10.9619 -20.889799 83.4552
10.7813 -21.3099 84.109901
10.5377 -21.788799 84.881401
10.2462 -22.308399 85.793602
11.6614 -20.336901 83.064301
11.5908 -20.6901 83.668999
11.5061 -21.0833 84.356796
11.3665 -21.5453 85.143204
11.1856 -22.034201 86.063202
12.1985 -20.1008 83.228104
12.2926 -20.4195 83.879501
12.2865 -20.7824 84.581001
12.2497 -21.198 85.382797
12.2314 -21.6465 86.306801
12.7896 -19.754601 83.370499
13.09 -19.989401 84.053299
13.1197 -20.3815 84.769302
13.2222 -20.7068 85.531898
13.3041 -21.0233 86.484802
13.6078 -20.035299 84.842598
13.9291 -20.1208 85.646004
14.2949 -20.2237 86.621101
12.3956 -19.2871 82.354103
12.9428 -19.2787 82.959198
13.3174 -19.303699 83.443802
13.8181 -19.342199 84.156502
14.249 -19.358601 84.907097
14.6814 -19.275 85.735298
15.1218 -19.212999 86.797401
12.5425 -19.0954 82.341301
13.2612 -18.8904 82.997101
13.7652 -18.7598 83.537697
14.3399 -18.6446 84.303902
14.7664 -18.551399 85.005997
15.1627 -18.3657 85.916702
15.6236 -18.3736 87.041901
12.6577 -18.876101 82.282303
13.4646 -18.478399 82.980904
14.0198 -18.1684 83.530998
14.5932 -17.904301 84.332703
15.0283 -17.735001 85.2033
15.4152 -17.5285 86.136101
15.7789 -17.377199 87.218002
15.3773 -16.657101 86.1446
15.1138 -17.17 85.209198
14.6268 -17.48 84.219398
15.0276 -16.665899 85.027603
15.2527 -15.9305 85.872101
15.3983 -15.1803 86.738197
15.6664 -16.148399 87.330803
15.6606 -15.3338 87.695
12.7195 -18.652201 82.195503
13.5315 -18.123301 82.877098
14.0476 -17.6992 83.378098
14.5162 -17.0396 84.001198
14.828 -16.2353 84.671799
15.031 -15.4159 85.398598
15.1234 -14.6737 86.065201
12.7219 -18.4874 82.084198
13.5086 -17.8375 82.736702
13.9663 -17.370501 83.188004
14.3525 -16.7113 83.7397
14.5959 -15.9337 84.291801
14.769 -15.1114 84.847603
14.8167 -14.3516 85.339203
3.41401 -19.2201 80.753998
3.6577101 -18.6595 80.246498
4.6367698 -19.0263 80.270897
4.20152 -17.7945 79.573898
5.1056299 -18.450701 79.852898
14.2806 -12.5712 84.200401
14.4539 -11.5012 84.280296
3.1729901 -18.341801 80.115196
3.8341899 -17.245001 79.217102
3.2763901 -16.5501 78.637703
12.4367 -18.199301 81.639397
12.9951 -17.4529 82.017303
13.2764 -17.444799 82.3563
12.5734 -18.248699 81.778603
13.43 -17.6059 82.574699
12.6703 -18.330099 81.9291
13.8352 -17.133499 82.9907
13.694 -16.9884 82.779297
13.3095 -17.005699 82.302002
13.5426 -16.9671 82.588699
13.0902 -17.0898 82.065804
11.178 -18.686501 80.971199
10.2905 -18.627399 80.557701
10.6929 -18.3957 80.613297
11.3288 -18.557899 80.980598
11.1059 -18.212099 80.735802
11.506 -18.4408 81.035103
11.5165 -18.055599 80.907799
11.7072 -18.3431 81.122299
11.9136 -17.9027 81.139
11.9068 -18.273701 81.237602
12.2934 -17.751699 81.3908
12.0886 -18.215401 81.354797
12.6511 -17.598101 81.674797
12.2824 -18.1917 81.496902
9.92068 -18.453501 80.342201
10.3606 -18.224501 80.413597
10.861 -18.012199 80.564102
11.3846 -17.8325 80.787697
11.8996 -17.650499 81.075203
12.363 -17.446899 81.404198
12.7535 -17.2551 81.737602
9.1656399 -19.5907 80.886597
8.3580799 -19.7848 80.839798
8.47048 -19.3979 80.555099
9.2635498 -19.242399 80.637497
8.6726704 -19.026899 80.310799
9.4070196 -18.931801 80.448601
9.0128698 -18.654499 80.177299
9.6390896 -18.6581 80.347198
9.4463501 -18.3337 80.154297
13.5281 -16.474001 82.569099
13.7791 -16.3839 82.901604
13.9831 -16.382999 83.192497
14.1747 -16.491301 83.467697
7.5448298 -19.9177 80.811501
7.6694498 -19.482401 80.469002
7.9253802 -19.0578 80.180496
8.3717098 -18.6133 79.9888
13.9244 -15.7493 83.1838
14.164 -15.7068 83.549004
14.3787 -15.7579 83.913101
6.7477899 -19.9478 80.803802
6.8954701 -19.4788 80.387802
7.2037201 -19.0245 80.048302
7.7323399 -18.4991 79.834396
14.2506 -14.983 83.851799
14.5014 -14.9777 84.328796
5.9723301 -19.9189 80.820801
6.1700101 -19.4291 80.3414
6.5462999 -18.9338 79.969101
14.2792 -14.2714 84.068604
14.5433 -14.2185 84.660004
5.58183 -19.330999 80.324799
6.0541201 -18.825399 79.924202
14.2764 -13.6112 84.158501
5.9857998 -20.478001 81.348602
6.1190701 -20.9662 81.906303
6.74475 -20.419201 81.257599
6.85782 -20.8162 81.715797
7.5318599 -20.306999 81.194
7.6191602 -20.6217 81.560699
8.3227196 -20.117701 81.164497
8.3762197 -20.3293 81.413101
9.1188402 -19.939301 81.190697
6.4328899 -21.390499 82.463303
6.7808199 -21.794701 83.077103
7.2379999 -22.145901 83.708504
7.8417201 -22.392799 84.335197
7.1375299 -21.1418 82.183502
7.45258 -21.458401 82.6866
7.8635602 -21.716101 83.194
8.3999901 -21.905199 83.680801
7.86272 -20.8794 81.937897
8.1438904 -21.116501 82.363197
8.5015001 -21.316999 82.759201
8.9487696 -21.452999 83.144897
8.5734901 -20.547001 81.720703
8.8285599 -20.763 82.079903
9.1227102 -20.9179 82.392197
9.4719105 -21.0322 82.711899
9.29848 -20.181299 81.523598
9.5047798 -20.3957 81.848602
9.7091999 -20.517599 82.082001
10.1305 -20.5867 82.3545
10.1437 -20.155399 81.802498
10.5123 -20.230101 82.065697
11.1431 -19.7267 81.771698
11.0798 -19.691401 81.700104
9.9605904 -19.941799 81.482399
10.9613 -19.573799 81.522202
9.86905 -19.705099 81.205704
10.9046 -19.3983 81.347298
9.8758001 -19.436899 80.967003
10.9249 -19.217199 81.197701
9.9448004 -19.161699 80.774101
10.9887 -19.0072 81.072098
10.0635 -18.8962 80.6315
11.0715 -18.8409 81.003502
2.9145801 -15.333 77.518799
12.7565 2.9797001 84.379402
12.7259 2.88955 82.888397
13.3641 -16.111099 82.3759
12.9601 -16.3916 81.922203
13.0157 -15.8919 81.986198
13.4168 -15.5497 82.494797
13.8241 1.19552 82.398903
13.8385 1.1603301 83.611298
13.8861 1.12084 84.415802
13.9909 1.2595201 86.312798
14.4142 0.49777201 88.643303
7.8913598 4.0065398 91.375
9.5917702 3.71228 91.2873
11.4738 2.9820399 90.692596
5.5394402 4.1036301 91.269402
4.10215 3.82535 91.102203
2.6271601 3.2644 90.775002
1.36251 2.6334 90.291397
0.25849 1.85146 89.7444
12.7886 2.9331801 86.981201
13.0513 1.80357 89.8293
3.5835099 -15.4643 77.639297
4.9244199 -16.877001 78.9207
5.7927098 -17.701799 79.4394
5.9587798 -15.992 78.421402
6.72964 -16.8766 79.1315
7.1909599 -15.2181 78.192802
7.8271799 -16.2173 79.07
8.5025997 -14.4388 78.2864
8.9797201 -15.6385 79.238602
9.7988501 -13.6747 78.667
10.2009 -15.0855 79.603996
10.8641 -13.0084 79.186401
11.1571 -14.541 80.1866
11.7792 -12.4283 79.871597
12.0006 -13.9879 80.790497
12.5667 -11.9504 80.683899
12.6839 -13.4852 81.439201
13.2074 -11.5951 81.495102
13.2243 -13.0745 82.088097
13.7264 -11.4209 82.373398
13.6503 -12.7315 82.730598
14.137 -11.381 83.300102
13.9905 -12.5821 83.456497
4.5957999 -16.3423 78.514603
5.6294899 -15.4583 77.946297
6.9024401 -14.7952 77.8573
4.1259599 -15.754 77.941299
5.2357898 -14.9751 77.450401
6.5217199 -14.4774 77.454903
6.1085901 -14.2622 77.113503
13.722 -15.2548 82.966698
13.6627 -15.8845 82.792702
13.2362 -16.629999 82.216499
12.8598 -16.8428 81.829201
9.9952898 -18.058001 80.222
10.6126 -17.8032 80.3964
11.2428 -17.5818 80.662498
11.8643 -17.3493 81.010803
12.415 -17.0867 81.4179
8.9272203 -18.190001 79.970398
9.6044998 -17.859501 80.042099
10.3414 -17.5791 80.229202
11.0975 -17.314501 80.528999
11.8165 -17.0285 80.947502
12.4526 -16.6987 81.437698
8.3899298 -17.9904 79.777702
9.1770296 -17.5979 79.866699
10.0509 -17.3095 80.070602
10.9265 -17.014601 80.389
11.7383 -16.6707 80.872498
12.4606 -16.274401 81.434799
14.0005 -15.0685 83.410698
7.1089101 -18.3353 79.717499
7.9129601 -17.7544 79.628799
8.8226004 -17.313101 79.724403
9.7186098 -16.964701 79.894798
10.7148 -16.6567 80.250198
11.6158 -16.254499 80.772697
12.4053 -15.8 81.3993
12.9983 -15.342 81.998497
13.413 -14.9397 82.540497
13.7412 -14.586 83.035599
14.0248 -14.3787 83.541801
6.6754699 -18.181999 79.636101
7.5304499 -17.5273 79.503403
8.4826403 -17.007099 79.567703
9.46525 -16.620399 79.755898
10.5266 -16.243099 80.119797
11.4657 -15.7897 80.660103
12.2844 -15.2898 81.298401
12.9212 -14.7795 81.895203
13.3567 -14.3265 82.478302
13.7197 -13.9496 82.996597
14.012 -13.7325 83.556099
11.354 -22.4778 105.884
10.6453 -22.996401 104.918
10.5345 -23.254101 106.111
11.3313 -21.352301 107.024
10.3281 -22.2008 107.37
11.1817 -17.183701 107.947
9.0358601 -16.487101 108.896
10.0494 -17.993999 108.604
7.3872499 -16.9377 109.412
8.8109198 -19.235201 108.983
6.2948999 -18.8372 109.461
7.69871 -20.4417 109.038
5.3218002 -20.087999 109.38
10.9367 -19.7603 107.937
9.7860003 -21.003599 108.26
3.0630901 -14.5955 108.159
3.3893399 -12.8192 107.595
3.6673999 -14.1509 108.308
5.2100101 -17.7512 109.494
4.3315501 -19.053801 109.342
3.1972401 -19.545799 109.071
4.5324302 -16.548401 109.279
3.8038199 -17.3403 109.167
2.9135599 -17.8902 108.874
2.0510001 -18.3048 108.557
0.75062001 -18.6576 108.124
4.0451002 -15.3595 108.876
3.4054899 -15.8942 108.798
2.6031899 -16.385599 108.553
1.7392499 -16.780701 108.207
0.42596599 -17.297899 107.612
4.7087402 -10.1124 106.217
3.0806899 -11.5945 106.736
1.284 -11.1378 105.443
0.099813998 -11.6741 104.867
0.112223 -12.9744 105.528
2.3916199 -25.2001 92.347702
2.6758499 -25.758301 94.807602
1.66853 -25.4081 94.779297
2.07827 -25.561501 93.968903
2.2786801 -25.562599 93.259804
2.15432 -25.391001 95.509201
2.7270401 -25.986 96.198196
7.0057101 -25.181299 97.651199
8.4181299 -24.3346 98.571899
3.2312 -25.981501 96.040298
7.7985401 -24.7225 99.444099
6.7704902 -25.312 98.077301
8.0135202 -24.5168 99.093201
5.7052102 -25.5984 97.2061
5.09729 -25.713499 96.798698
4.2522001 -25.938601 96.385002
8.1447601 -24.1852 100.188
8.5542202 -23.890499 99.696297
9.0956898 -23.4804 101.739
10.1797 -22.92 101.021
10.3407 -22.9314 100.385
9.8849602 -22.990601 103.358
11.1699 -19.6642 81.718697
11.0579 -19.536501 81.528801
11.0012 -19.3818 81.3694
11.0196 -19.2152 81.227997
11.077 -19.019699 81.1185
11.158 -18.863001 81.050003
11.2578 -18.7185 81.020401
11.3839 -18.600201 81.0243
11.5424 -18.4923 81.071503
11.7247 -18.4025 81.154503
11.9021 -18.3437 81.255302
12.0719 -18.2896 81.3619
12.2425 -18.2665 81.489601
12.388 -18.2731 81.624298
12.5148 -18.3262 81.764198
12.6079 -18.405199 81.904503
12.6532 -18.538601 82.039703
12.6527 -18.692499 82.1427
12.5873 -18.896601 82.219299
12.475 -19.1001 82.267899
12.3387 -19.2775 82.270897
11.3857 -19.717699 81.895103
11.5739 -19.7122 82.018799
11.7746 -19.6779 82.113297
11.9637 -19.581301 82.191498
12.1605 -19.453501 82.244202
11.8319 -19.2402 81.388802
11.8643 -19.1665 81.3461
11.835 -19.300301 81.4627
11.8803 -19.334 81.543503
11.9557 -19.3368 81.606003
12.0441 -19.303301 81.6427
12.121 -19.2437 81.652298
12.1751 -19.172001 81.636497
12.1965 -19.103399 81.596802
12.1841 -19.046 81.542801
12.1434 -19.012699 81.481903
12.081 -19.0123 81.422203
12.0039 -19.0397 81.373802
11.9269 -19.09 81.3451
11.425 -19.6688 81.848099
11.6142 -19.660101 81.976799
11.7785 -19.6357 82.052498
11.9679 -19.542601 82.130302
12.121 -19.439899 82.173599
12.2836 -19.2827 82.198196
12.421 -19.115999 82.198303
12.5344 -18.9249 82.161201
12.5977 -18.741199 82.093201
12.6031 -18.5928 81.993401
12.5675 -18.487101 81.886902
12.4754 -18.3964 81.750099
12.3512 -18.344 81.602501
12.2091 -18.336201 81.468803
12.0703 -18.354799 81.365097
11.8975 -18.407301 81.257202
11.7519 -18.4531 81.175598
11.5738 -18.542801 81.0924
11.4296 -18.6439 81.049004
11.3298 -18.747101 81.045898
11.2331 -18.8901 81.082703
11.1524 -19.0467 81.150597
11.1013 -19.2213 81.253799
11.0909 -19.384501 81.398804
11.141 -19.5072 81.532402
11.267 -19.6213 81.709602
11.8869 -19.431801 81.722198
11.9212 -19.3804 81.658897
12.0469 -19.3332 81.711601
12.0586 -19.3603 81.799896
12.1532 -19.244101 81.7276
12.195 -19.2369 81.816803
12.229 -19.1359 81.708298
12.292 -19.0868 81.7948
12.2547 -19.0348 81.652702
12.3193 -18.9526 81.718803
12.2317 -18.9503 81.5793
12.2806 -18.8461 81.6241
12.1685 -18.8999 81.500198
12.1936 -18.780199 81.523201
12.0777 -18.894899 81.419296
12.0717 -18.7728 81.424202
11.9661 -18.933701 81.3479
11.922 -18.8186 81.332001
11.8583 -19.004999 81.302696
11.7735 -18.909401 81.264297
11.7716 -19.1187 81.301102
11.6634 -19.060301 81.261703
11.73 -19.229601 81.358704
11.6091 -19.2145 81.3283
11.7425 -19.323099 81.459702
11.6362 -19.3498 81.457298
11.811 -19.375799 81.572701
11.734 -19.424299 81.606598
12.0638 -18.637699 81.421799
12.22 -18.6509 81.543404
11.8675 -18.688801 81.305901
11.6655 -18.799101 81.215103
11.5261 -18.988199 81.225098
11.4532 -19.192699 81.306602
11.4986 -19.368999 81.470901
11.6373 -19.471901 81.656502
11.8411 -19.481199 81.811203
12.0668 -19.382 81.921097
12.2485 -19.2057 81.944702
12.3708 -19.006201 81.9132
12.3916 -18.838699 81.806198
12.331 -18.716999 81.677002
12.0268 -19.474199 82.051498
12.1042 -18.4746 81.405701
11.7521 -19.587 81.9254
11.4752 -19.577999 81.736198
12.1825 -19.335899 82.076897
12.3342 -19.173 82.078003
12.4523 -18.987101 82.058502
12.5046 -18.850201 82.009201
12.5148 -18.677601 81.889603
12.4121 -18.5641 81.719704
12.279 -18.4993 81.556801
11.854 -18.5408 81.246902
11.635 -18.6504 81.145203
11.5029 -18.7579 81.104103
11.3825 -18.9338 81.150902
11.3049 -19.1106 81.221199
11.2773 -19.247 81.308197
11.2934 -19.436399 81.495399
1.03887 -21.160101 108.659
0.94600701 -20.239201 108.496
2.3253701 -21.107201 108.932
2.33604 -20.0452 108.841
3.2219 -21.169701 109.14
3.2709799 -20.2819 109.121
4.3182001 -21.657301 109.301
5.7749801 -22.851101 109.239
6.9911499 -24.3589 108.79
7.5282898 -25.256399 108.058
7.8362002 -25.906799 107.098
7.8076501 -25.8911 106.118
7.5577202 -25.669399 104.809
8.2251797 -24.6611 104.239
7.14639 -25.6542 103.675
7.6768498 -24.7134 102.941
6.8787498 -25.883499 102.543
6.8938098 -26.1868 101.848
6.9963598 -26.686199 106.457
6.8533502 -26.016899 108.203
3.1265299 -22.181299 109.238
2.2997 -22.006201 109.019
1.09434 -21.882601 108.774
5.0064402 -23.7848 109.298
6.5704498 -27.0926 102.817
6.5330501 -26.851999 103.428
6.6811099 -26.598101 104.321
6.8612299 -26.572901 105.221
3.8320701 -22.620701 109.385
6.2427201 -25.197701 108.897
7.0443201 -26.690399 107.345
2.06126 -25.7738 109.261
2.6020701 -24.5965 109.295
1.6997 -24.2967 109.177
0.149828 -23.287399 108.915
3.2964399 -26.5338 109.262
0.756181 -23.628599 109.007
3.90645 -25.591499 109.212
5.0338402 -26.657499 108.918
3.2977099 -23.666401 109.365
4.4242201 -24.6124 109.258
5.5420399 -25.9891 108.948
6.16574 -26.783701 108.269
6.4639201 -27.2824 107.503
2.8459599 -23.370199 109.304
2.1187 -23.085699 109.127
0.98147798 -22.785 108.961
0.0079399999 -22.5123 108.798
0.44402599 -21.831699 108.705
0.39580399 -21.156 108.569
1.6672601 -21.943001 108.874
1.63109 -21.1355 108.773
1.5457 -20.15 108.641
0.3439 -20.327499 108.364
0.31302801 -14.3735 106.319
0.071434997 -17.3974 107.465
-0.071119003 -16.051201 106.906
0.22285201 -18.729601 107.958
0.59598303 -15.786 107.135
1.38791 -12.321 106.154
1.76432 -13.6348 107.027
4.2084498 -12.4743 107.697
4.03016 -11.2985 106.916
3.79532 -10.2482 106.099
0.98101902 -17.128 107.805
2.2393999 -15.0578 107.861
4.7272 -14.4777 108.675
4.3190598 -13.6175 108.242
1.3211 -18.521999 108.303
5.3087101 -15.3821 109.108
6.05581 -16.1922 109.4
2.2523401 -4.3276601 99.8536
3.0077701 -7.7485299 103.729
2.70544 -6.5169401 102.518
1.5356801 -22.918501 109.024
0.341979 -22.6192 108.867
1.22437 -23.899599 109.087
0.839697 -14.0635 106.671
0.43295199 -12.7658 105.753
1.31086 -15.4944 107.493
-0.291253 -13.1883 105.34
-0.36523399 -11.7927 104.5
-0.41212299 -10.4152 103.499
-0.166922 -0.22379 92
-0.225099 1.5386 89.460503
-0.427715 -7.6701798 101.272
-0.42640501 -6.4524002 99.804298
-0.443225 -8.9423599 102.365
-0.362012 -5.3087902 98.602997
-0.26130101 -3.8450401 96.898903
-0.18159699 -1.62519 94.141998
2.6274199 -13.2212 107.337
-0.184773 -14.5947 106.113
2.1126599 -12.024 106.378
2.7121699 -10.5582 105.771
0.43326101 -5.8930202 100.337
0.61101699 -7.0964999 101.91
3.4939799 -4.1330199 100.06
3.4927001 -2.59816 98.249496
4.3726301 -4.0338602 100.195
0.16260099 -4.3341599 98.170898
-0.221238 -2.76986 95.549202
0.28518 -2.4753499 95.977898
1.19409 -2.0657699 96.331703
3.19891 -3.4279399 99.113098
1.97507 -3.65453 98.905403
2.1134501 -1.65298 96.628799
4.6091099 -3.1586299 99.403503
2.8856101 -1.4651 96.786697
3.7822199 -1.10295 96.981598
5.2573199 -0.62364101 97.273598
0.726013 -4.0660601 98.479797
3.9675601 -3.2953801 99.259201
3.2172 -1.2943701 96.896797
5.9299402 -3.5011201 100.311
6.6006398 -1.6952 98.747597
6.23949 -0.43830299 97.380501
5.9829302 0.74633902 95.812798
6.0374298 2.0896101 93.940399
6.7130599 4.1042099 91.330498
5.8035698 -2.9117899 99.649597
9.55585 -23.229799 102.517
8.5638504 -23.818899 102.944
7.97088 -24.6467 103.589
7.36412 -25.593201 104.245
6.7679801 -26.5254 104.736
2.4091499 -25.674101 95.2565
9.8190899 -23.2707 99.977501
9.2559605 -23.4709 100.345
8.5660801 -23.834 100.901
7.8794098 -24.2658 101.481
7.4212899 -24.8624 102.216
6.9802599 -25.7575 103.074
6.57019 -26.728701 103.876
9.0573502 -23.711 99.108498
7.70959 -24.8111 98.059601
7.4180498 -24.985701 98.512001
7.2996802 -25.065001 98.690399
7.06319 -25.3529 99.316399
6.8316202 -25.7866 100.109
6.6061902 -26.431801 101.115
1.78838 -25.137699 92.278603
1.72229 -25.407 93.184502
1.69094 -25.5495 93.928001
1.89333 -24.8001 91.213799
2.0130799 -24.4319 90.155403
16.2358 -3.63516 87.783096
15.7698 -2.3933899 85.761101
15.694 -3.6166201 85.257797
14.4929 -5.6908898 81.286598
14.7617 -7.3106699 82.646599
14.7011 -3.79076 81.280998
14.8415 -3.62831 82.191101
12.7213 -10.1064 79.9515
13.6268 -9.4571695 80.933098
13.0998 -9.3105001 80.088501
13.4572 -9.0189304 80.528999
11.93 -11.0375 79.386398
14.2591 -8.1794004 81.702499
14.0219 -9.1737804 81.495697
14.6469 -7.78161 82.562103
14.4206 -8.9812899 82.388901
14.8187 -2.6958899 81.880997
14.9371 -2.6986899 82.745796
14.0802 -10.1663 82.291298
13.6767 -10.2771 81.469002
13.4293 -10.3703 81.057198
12.4094 -10.8898 79.9729
13.5343 -9.9633198 80.981796
14.2648 -9.6248999 82.328796
13.8762 -9.7571898 81.482903
14.5425 -8.3311195 82.481499
14.1544 -8.6363697 81.616402
13.5374 -9.2372999 80.723099
13.2724 -9.7980204 80.591698
13.1996 -10.4441 80.773903
13.2135 -10.2012 80.679497
13.0151 -9.9534702 80.332703
13.0018 -10.6855 80.662003
12.9101 -10.4477 80.430099
13.3169 -9.4868803 80.5233
13.2069 -9.4335499 80.351402
14.7021 -6.0423999 82.164398
15.1115 -5.7832699 83.406403
14.6478 -4.4633498 81.198799
14.331 -5.8413701 80.665703
12.2844 -10.2691 79.342499
13.9811 -8.1459904 81.052002
14.3918 -7.7522001 81.807999
13.6634 -8.5286102 80.637901
13.9516 -7.6048698 80.695702
13.7259 -8.20117 80.574303
14.1249 -6.0073299 79.947601
11.6416 -10.4378 78.581001
12.103 -9.6519299 78.698196
12.8579 -8.4532404 79.008003
13.4136 -8.5790997 80.214104
13.6627 -7.9565701 80.282204
13.6264 -7.1254301 79.477203
14.5127 -4.5924802 80.502701
13.2983 -7.77104 79.239799
14.3647 -6.35567 81.219101
14.2131 -6.9609599 81.042
14.576 -5.75177 81.642197
14.9658 -3.5865099 82.805298
15.2167 -2.7997401 83.819801
15.1071 -3.57862 83.326599
14.6666 -5.7508101 81.960098
15.061 -4.0454702 83.084702
14.7719 -4.91962 82.025101
14.6565 -5.40589 81.763199
14.8983 -4.3178701 82.466904
14.8839 -4.91361 82.335503
14.949 -4.5738802 82.564102
14.8158 -5.20298 82.178497
15.3061 -4.2755198 83.924301
15.1763 -4.28475 83.438103
15.0459 -4.4531698 82.930901
14.7374 -5.5155902 82.062897
15.2144 -4.8056698 83.686798
15.0545 -5.05439 83.107002
14.8935 -5.2895002 82.542999
14.7585 -4.3646402 81.872704
15.0398 -2.72877 83.225899
14.5571 -6.1313701 81.745903
14.4846 -6.46314 81.617798
14.331 -7.1782298 81.343903
15.1148 -5.4071102 83.5084
14.6946 -6.4288101 82.119797
14.28 -7.0851002 81.195999
14.1389 -7.4068799 80.989403
14.4507 -6.78478 81.543999
15.0661 -6.2319698 83.217697
14.6365 -6.8547201 82.007896
14.9019 -6.7828999 82.821098
14.535 -7.2929101 81.928101
14.0331 -7.69943 80.887703
13.9546 -7.3501601 80.5383
14.159 -6.7161798 80.727203
13.9366 -6.9388599 80.170403
15.0517 -8.9744902 84.813698
14.949 -7.5612702 83.742699
14.4734 -10.0674 83.295601
14.6139 -9.6086397 83.361702
14.7771 -8.9061699 83.530098
15.0149 -7.2006202 83.813004
15.1025 -6.78864 83.919403
14.1553 -7.6955199 81.171997
14.8314 -9.9334698 84.522003
15.205 -3.7588799 83.630798
14.8317 -1.97071 82.341904
14.9856 -1.81592 83.523598
15.3229 -1.85404 84.657097
15.3416 -2.9096701 84.175201
15.2168 -7.26127 85.034203
15.4928 -5.76088 85.502197
15.3966 -4.6165299 84.370399
15.2438 -6.0519099 84.177696
15.2776 -5.1844101 84.140297
15.284 -5.6292901 84.255699
10.6201 -12.0455 78.596802
11.1482 -11.2208 78.564102
10.8952 -8.9591703 76.173401
11.5998 -8.8204899 77.134102
13.9366 -5.2153702 78.5429
10.6536 -9.9167995 77.025803
12.649 -7.4732599 77.520203
13.3614 -6.3899798 77.944199
12.1884 -8.1821404 77.273499
11.4259 -8.3721199 76.253304
10.4067 -9.4707699 76.190399
9.4286299 -10.8063 76.416397
10.8635 -10.5656 77.751602
11.4113 -9.7889996 77.862801
10.2963 -11.3065 77.704597
9.9431601 -10.0458 76.2724
10.0807 -10.6689 76.990097
13.2128 -7.2943301 78.5914
12.2874 -8.6468401 78.129799
12.8149 -7.9593101 78.351898
14.1987 -4.68437 78.895897
14.4966 -3.7400601 79.632202
14.4376 -4.5002699 79.886803
14.6258 -3.6398201 80.459396
14.2824 -4.9474702 79.628098
13.8178 -6.2027302 79.038803
14.7232 -2.51192 81.033997
15.9182 -4.65344 86.639999
15.1632 -8.0177898 85.005203
14.8835 -8.1681299 83.678497
13.82 -8.5847797 80.962402
13.7823 -8.9828997 81.028198
12.6603 -9.48703 79.431503
13.3098 -8.2337999 79.710602
13.6766 -7.5659499 79.9422
13.9516 -7.97789 80.874001
12.462 -9.0223103 78.842697
11.8382 -9.1710796 77.988403
12.9688 -8.835 79.558701
11.1225 -9.3153801 77.070198
14.5371 -5.1311698 80.965897
14.6473 -5.0190401 81.550797
14.375 -5.2920198 80.249298
14.1244 -5.5027499 79.360802
13.7428 -5.7147198 78.2621
15.2701 -4.5501199 83.785004
15.1278 -4.7019901 83.238503
14.9656 -4.91746 82.638603
14.9353 -5.6971798 82.881302
14.9302 -6.0806999 82.787201
14.9116 -6.4849801 82.708199
15.5606 -3.16944 84.738098
15.3645 -3.9112699 84.142403
14.2862 -6.3031802 80.910797
14.1123 -6.4287801 80.388397
13.857 -6.586 79.699097
13.4901 -6.7624502 78.799896
12.9742 -6.9246502 77.731499
8.9001999 -11.3056 76.327599
9.5169601 -11.3483 76.963501
9.69802 -12.8381 78.241501
10.7572 -12.4275 78.907898
9.6817598 -12.0219 77.657204
13.3021 -10.7883 81.202599
13.8549 -10.7354 82.253304
14.2764 -10.708 83.273598
12.6125 -11.1388 80.364098
11.7106 -11.6703 79.540901
14.6069 -10.7845 84.366699
14.4785 -0.70497799 81.9077
14.5231 -0.72283602 83.060402
14.6756 -0.598409 84.214302
14.9474 -0.392517 85.662903
16.128401 -2.32534 89.096497
15.5394 -0.88227999 87.150703
2.4340601 -25.5767 96.054802
2.8138399 -25.9002 95.677902
2.2892599 -25.6551 93.9683
2.3177299 -25.671 94.776703
2.5857201 -25.789301 95.827003
2.9561601 -25.649099 94.157204
2.9725299 -26.0478 96.029404
2.59747 -25.829 96.553802
1.5986201 -25.331499 95.441902
2.08394 -25.4995 94.791496
2.13693 -25.434601 95.205299
2.7014401 -25.820299 95.314301
2.4423299 -25.664101 95.5187
2.2983601 -25.455799 95.743797
1.6776201 -25.3622 95.116501
-0.33720601 -4.6251101 97.828697
14.2644 -13.0318 84.185699
13.9984 -13.1249 83.5177
13.6853 -13.3344 82.891502
13.2883 -13.7085 82.322601
12.8112 -14.1768 81.723801
12.1497 -14.69 81.107101
11.3136 -15.2197 80.4841
10.3706 -15.7332 79.9245
9.2115297 -16.180901 79.551804
8.1560297 -16.652599 79.362297
7.1325598 -17.2465 79.351799
6.2265 -17.9732 79.5653
5.57582 -18.668501 79.885101
5.0917501 -19.1717 80.288498
4.83531 -19.66 80.7145
6.1821198 -22.829 84.7052
5.6367998 -22.295401 83.831497
5.2347798 -21.7272 83.009003
4.8908801 -21.139601 82.284401
4.7413702 -20.5343 81.604698
4.7488799 -19.9676 81.016602
14.3499 -12.085 84.231201
14.0279 -12.0125 83.370598
13.6546 -12.1039 82.546501
13.1887 -12.3744 81.793297
12.5948 -12.7854 81.086998
11.8756 -13.3162 80.414299
11.0045 -13.8643 79.779198
9.9995403 -14.4554 79.210701
8.7606096 -15.0686 78.786797
7.5028501 -15.7423 78.650002
6.3660302 -16.521799 78.854897
5.3543901 -17.373301 79.263901
4.6655402 -18.221701 79.783401
4.18855 -18.8734 80.283699
3.91487 -19.393499 80.728798
3.78968 -19.903601 81.194199
5.2231698 -23.2586 85.6866
4.52701 -22.6402 84.596497
4.1087999 -21.8825 83.535797
3.9410901 -21.171801 82.583
3.8041301 -20.496799 81.819
9.8188496 -21.070601 82.940201
9.4625101 -21.4932 83.499298
9.0260897 -21.9708 84.148697
8.55445 -22.506599 84.933601
3.6063099 -26.013399 96.135201
7.6596799 -25.7292 105.442
6.8731198 -26.5779 105.843
8.4062996 -24.769199 104.968
11.3211 -22.1126 103.663
10.26 -22.939501 104.111
9.2002697 -23.7808 104.468
13.2999 -21.240499 103.18
12.294 -21.596001 103.384
14.4157 -21.035101 103.036
14.8088 -5.6092401 82.414299
15.1405 -5.1542001 83.583801
14.9805 -5.3691101 83.000198
1.61378 -14.6776 76.653503
1.54746 -15.2564 77.3517
1.50157 -17.3153 79.3442
1.51029 -16.2019 78.319
1.53229 -18.554199 80.514297
1.56387 -20.0135 81.989998
1.56225 -20.765699 83.009399
1.5542099 -19.3986 81.315498
1.55257 -21.5966 84.249603
1.50247 -23.314899 87.2491
1.53353 -22.484501 85.7006
1.46162 -23.820299 88.508904
1.24496 -25.5359 93.912903
1.17298 -25.3908 94.761597
1.1195199 -25.3076 95.424202
1.15108 -25.3634 95.041702
-0.93164301 1.25612 89.088402
-0.95223802 -0.67057902 92.142502
-8.5423803 -20.068199 79.755997
-8.7810602 -20.0623 79.891403
-8.9933996 -20.0791 80.050201
-9.1388197 -20.164801 80.221603
-9.2002602 -20.3286 80.363602
-9.2088499 -20.533899 80.495796
-9.1649704 -20.7626 80.6138
-9.0578299 -21.0156 80.718597
-8.8828602 -21.2619 80.799698
-8.6583405 -21.474701 80.851501
-8.39748 -21.6476 80.876602
-8.1208601 -21.7647 80.870399
-7.8505502 -21.8241 80.833603
-7.5859399 -21.826 80.766502
-7.33604 -21.780399 80.669601
-7.1023402 -21.686701 80.541801
-6.91956 -21.5786 80.395599
-6.8249102 -21.3902 80.196198
-6.7905898 -21.177401 79.9963
-6.8247399 -20.960501 79.809196
-6.9116998 -20.747499 79.643501
-7.0362701 -20.5555 79.524498
-7.20751 -20.386801 79.450699
-7.4651098 -20.269899 79.440498
-7.7430501 -20.1894 79.464699
-8.0208197 -20.132 79.534203
-8.2886105 -20.092501 79.639801
11.9149 -18.1061 81.193604
11.6218 -18.220501 81.022102
11.3248 -18.3498 80.890602
11.0347 -18.497499 80.809799
10.7749 -18.6731 80.771103
10.6175 -18.8771 80.816299
10.5133 -19.091999 80.917198
10.4519 -19.3179 81.073402
10.4474 -19.535299 81.261398
10.5169 -19.732201 81.475899
10.65 -19.889799 81.702301
10.8707 -19.946699 81.892799
11.1502 -19.974501 82.077797
11.4445 -19.9484 82.237602
11.7512 -19.868999 82.373001
12.058 -19.728901 82.481697
12.3641 -19.5282 82.563004
12.6419 -19.2763 82.6092
12.8679 -18.996901 82.617699
13.0253 -18.702999 82.5793
13.0971 -18.4279 82.493401
13.0963 -18.2001 82.372902
13.0368 -18.014299 82.220703
12.9238 -17.8867 82.043297
12.7289 -17.863199 81.812798
12.4744 -17.922701 81.583199
12.1992 -18.006001 81.377403
-1.04485 -28.359301 110.324
-0.382182 -23.9851 108.834
-0.514934 -24.863701 108.931
-0.0060149999 -27.2213 97.885803
-0.617769 -27.242399 97.5783
-0.98943299 -27.3396 97.421204
-2.04726 -27.1472 97.623596
-3.4412999 -27.108601 98.254601
-2.82147 -26.6278 97.0159
-0.179178 -26.028601 96.750397
0.487627 -25.3475 96.089897
0.442976 -26.059601 97.330101
