# .PCD v.7 - Point Cloud Data file format
VERSION .7
FIELDS x y z
SIZE 4 4 4
TYPE F F F
COUNT 1 1 1
WIDTH 1650
HEIGHT 1
VIEWPOINT 0 0 0 1 0 0 0
POINTS 1650
DATA ascii
-0.40366301 -10.1549 85.803299
-0.198158 -10.2281 85.699097
-0.40089601 -10.1444 85.757301
-0.17326701 -10.1855 85.655899
-0.377799 -10.1162 85.715302
-0.17328499 -10.1502 85.596199
-0.39151701 -10.0791 85.6343
-0.201342 -10.1395 85.542801
-0.453361 -10.0524 85.546898
-0.53179199 -10.0476 85.510399
-0.76379198 -10.0273 85.462196
-0.512218 -10.6533 85.419601
-0.69940799 -9.7944899 85.562202
-0.93110001 -8.9345999 85.432404
-0.582434 -9.3829403 85.586197
-0.107479 -9.8350096 85.840897
-0.165731 -9.7544899 85.855103
-0.204528 -9.8877497 85.850998
-0.326491 -9.8446999 85.879204
-0.23852 -9.9708405 85.834503
-0.38395599 -9.9806404 85.8675
-0.203486 -9.6651897 85.833199
-0.42327499 -9.8063602 85.867996
-0.477025 -9.9981098 85.876801
-0.596443 -10.3654 85.454002
-0.23404901 -9.5043697 85.740097
-0.47435501 -9.6468096 85.755302
-0.50163102 -9.9797001 85.828903
-0.55616897 -9.8778095 85.724403
-0.409724 -8.7177696 85.441902
-0.26931399 -9.1903801 85.589401
-0.57449299 -8.1800699 85.3629
-8e-06 -7.6995602 85.247299
-0.71483999 -27.6369 100.088
-0.69310802 -24.9251 101.406
-0.69345403 -22.9529 102.349
-0.58908403 -15.0949 104.803
-0.57211202 -14.0012 105.171
-0.68167001 -18.968599 103.958
-0.650204 -16.804199 104.513
-0.70291799 -20.8846 103.26
-8.4510498 -28.890499 101.637
-8.4995003 -26.2218 102.615
-8.29704 -24.367001 103.276
-7.85603 -22.406401 103.85
-7.2315102 -20.739201 104.428
-6.7774501 -18.721201 105.075
-6.51296 -16.7929 105.606
-6.2262301 -15.6899 105.829
-0.99059898 -15.6688 83.859001
-1.02385 -15.3107 84.1343
-0.98816699 -14.901 84.32
-0.96487498 -14.2519 84.555298
-0.96870297 -13.7274 84.675201
-1.04327 -13.2611 84.996399
-1.09778 -12.9865 85.335899
-1.11708 -12.7975 85.536102
-1.12517 -12.5212 85.644402
-1.13563 -11.943 85.633202
-1.12797 -11.2227 85.480301
-1.1300499 -10.6009 85.445999
-3.2163799 -13.4958 85.333298
-3.2335999 -13.2414 85.661301
-15.3619 -13.2727 99.182297
-15.0957 -13.8445 101.138
-15.1955 -12.5662 97.131897
-14.4973 -11.7788 95.025299
-14.4745 -14.3551 102.544
-13.5623 -14.7526 103.556
-12.2451 -15.059 104.427
-10.4208 -15.2416 105.121
-8.6720695 -15.324 105.634
-7.3008099 -15.1078 105.891
-5.9725599 -14.7531 106.028
-4.6559601 -14.3086 106.164
-3.8833499 -14.0351 106.212
-2.98594 -13.7342 106.158
-2.1264801 -13.4867 105.965
-1.3039401 -13.2564 105.689
-0.596551 -13.119 105.427
-6.90095 -14.588 86.727997
-6.9805298 -14.754 86.496902
-6.8161898 -14.3287 87.023499
-14.349 -19.5884 93.211899
-6.70753 -13.6459 87.5429
-6.71737 -14.0167 87.282402
-6.7630801 -12.2361 87.486099
-6.7702599 -13.0101 87.655098
-13.6915 -17.131001 92.303902
-14.3045 -18.549601 93.463799
-12.8062 -15.2647 91.330002
-13.6577 -15.9448 92.564697
-14.2594 -16.969601 94.250702
-6.6966 -11.5554 87.2173
-6.6034698 -10.5011 87.099503
-6.65061 -11.1048 87.100304
-12.9667 -14.4719 91.629799
-11.6023 -13.8949 90.239197
-10.7803 -16.0879 88.644798
-11.7525 -16.437 89.537003
-12.6856 -17.053801 90.574501
-10.1218 -13.6851 89.523804
-9.5487604 -13.7199 89.198799
-8.6423197 -12.9714 88.605698
-8.7259703 -13.7728 88.733002
-7.8296199 -12.4877 88.083603
-8.5686798 -12.103 88.2658
-7.80445 -11.6124 87.811096
-9.2509699 -12.7394 88.8162
-7.7780199 -14.8784 87.246803
-7.1230001 -14.9476 86.3526
-7.7778702 -14.541 87.727097
-7.8559499 -14.0838 88.144997
-8.0557098 -13.4143 88.380302
-8.9158401 -15.2668 87.639198
-9.9239502 -15.4415 88.520302
-9.3587799 -15.3363 88.003098
-8.37216 -15.1998 87.176697
-8.5246696 -14.9364 87.871498
-9.1109304 -14.98 88.374603
-9.5229702 -14.4489 89.044098
-8.42169 -14.5537 88.2323
-7.4570198 -15.3678 86.230103
-7.9369798 -15.2439 86.7192
-10.0504 -12.3465 89.203201
-12.7879 -15.9105 91.262703
-12.7368 -16.4028 91.005302
-11.6569 -14.5881 90.362
-10.9261 -13.7602 89.865601
-12.1388 -15.5001 90.693001
-11.0097 -15.6454 89.384102
-12.1674 -16.0492 90.444702
-10.2569 -15.0473 89.235497
-11.5768 -15.3126 90.261902
-10.9744 -14.5371 89.975998
-13.6472 -18.018801 91.937302
-13.1386 -17.460199 91.102997
-12.3173 -16.737 90.104698
-11.6928 -15.8422 89.962303
-11.035 -15.1713 89.802902
-10.3626 -14.4765 89.571098
-7.3060098 -14.7006 87.0317
-7.2319798 -14.4502 87.318703
-7.5283999 -14.9403 86.785103
-7.37746 -14.8263 86.882004
-7.1696 -13.8031 87.814697
-7.27144 -13.1695 87.9561
-7.1658201 -14.2048 87.531799
-7.1146302 -11.6224 87.443298
-7.0808902 -11.2335 87.377098
-7.0727201 -10.769 87.398201
-7.2246399 -12.3456 87.755402
-11.2436 -16.2603 89.102303
-10.4378 -15.5392 88.966698
-9.6514301 -15.0066 88.821404
-8.9741001 -14.5318 88.6576
-8.5383797 -14.1917 88.5354
-8.2435999 -13.878 88.441803
-6.5883398 -9.7481098 87.041901
-6.0643001 -9.7090302 86.7687
-6.2684698 -12.0886 87.162201
-6.2077599 -11.4232 86.930496
-6.28303 -12.8359 87.325203
-7.8087401 -10.4326 87.813301
-6.1217098 -10.4302 86.788597
-6.1579399 -10.9843 86.822998
-8.7701397 -11.0368 88.395401
-6.4633598 -14.6924 86.085197
-6.3915401 -14.4525 86.3153
-6.51649 -14.9869 85.859802
-6.3420801 -14.1761 86.656502
-6.2544699 -13.8783 86.936699
-6.2228098 -13.398 87.267799
-6.2062602 -13.6314 87.149696
-6.9201899 -15.405 85.773399
-13.0704 -13.4421 92.042198
-10.1305 -11.6492 89.238297
-11.4357 -12.6387 90.250603
-14.0032 -14.2929 93.677902
-14.5481 -14.8978 95.5103
-14.5239 -20.5903 95.112396
-14.4445 -19.631701 95.405098
-14.4507 -17.8258 96.2687
-14.7302 -15.8416 97.523003
-7.0993099 -9.9994202 87.366898
-0.32846799 -15.9709 83.592903
-0.63037503 -15.9778 83.578796
-1.17615 -8.3856201 85.3843
-1.62712 -7.9952698 85.355797
-1.45016 -16.1705 105.129
-0.63747901 -15.9639 104.684
-1.5272501 -22.0312 103.273
-0.70006901 -21.7969 102.851
-0.69682002 -19.951099 103.631
-1.53596 -20.2386 104.071
-12.0109 -17.5926 103.447
-10.1988 -17.868099 104.252
-13.2367 -17.214899 102.535
-14.0848 -16.7491 101.456
-14.7088 -16.0534 100.04
-8.1240997 -17.936899 104.919
-2.4098699 -16.486 105.585
-5.34657 -17.4569 105.708
-4.4498401 -17.1749 105.874
-3.4145899 -16.8255 105.843
-11.9999 -20.965599 101.285
-13.2634 -20.191 99.827698
-13.2772 -21.8955 98.926598
-12.0333 -22.5529 100.543
-10.5872 -23.2411 102.089
-10.3654 -21.5891 102.757
-2.61516 -22.320299 103.684
-3.95453 -22.572001 103.993
-5.4939198 -22.8057 104.084
-6.9516301 -23.0446 103.936
-8.70994 -21.712999 103.601
-9.1930904 -23.3603 103.058
-14.0267 -19.4921 97.943001
-14.4066 -18.8055 95.791496
-5.14291 -21.1373 104.729
-6.4366798 -21.397699 104.487
-2.57426 -20.5734 104.471
-3.7823999 -20.880199 104.703
-8.1040497 -23.2519 103.613
-7.5576901 -21.6071 104.102
-6.67202 -17.7887 105.347
-14.2481 -17.896999 93.766701
-1.49893 -18.134199 104.748
-0.66116601 -17.837999 104.259
-11.9299 -19.2747 102.536
-10.2324 -19.6488 103.499
-13.0853 -18.7855 101.434
-13.7314 -18.3169 100.515
-14.5146 -16.8244 96.875603
-14.3377 -17.702499 98.995598
-8.25951 -19.8573 104.274
-2.4928899 -18.4874 105.192
-5.7908602 -19.4615 105.198
-4.6978202 -19.173201 105.443
-3.5476899 -18.8321 105.432
-6.93644 -19.7335 104.776
-14.3149 -15.8711 94.852402
-13.8044 -15.1767 93.1315
5.4807601 -15.5492 84.833504
6.3237801 -15.4593 85.3237
0.42331001 -15.5973 83.881897
1.19872 -15.9652 83.573303
1.98586 -16.2013 83.271202
2.0948501 -15.6369 84.002403
2.9805801 -15.9008 83.747803
4.3275099 -15.6927 84.299103
1.86823 -13.792 84.777298
1.9578 -13.3426 85.089798
3.1907101 -13.8875 84.9972
3.20417 -14.3193 84.908401
4.4995499 -14.0255 85.347504
4.52141 -14.3446 85.268501
5.4956799 -14.2671 85.724701
5.7151599 -14.631 85.651497
4.8029799 -15.0107 85.0784
4.6359601 -14.6464 85.197899
5.8365002 -14.9189 85.518303
5.05305 -15.2705 84.964699
5.9907498 -15.1474 85.43
3.7519701 -15.4299 84.488403
3.30532 -14.774 84.788902
3.4814799 -15.1525 84.656197
2.02509 -15.2771 84.308601
1.92761 -14.8668 84.490898
1.86983 -14.2825 84.6772
0.43187299 -14.9266 84.266502
0.421666 -14.2428 84.514
0.44527599 -15.3087 84.098396
5.5808101 -13.9721 86.195503
0.42063299 -13.6842 84.6334
9.4050198 -24.431299 102.703
12.2505 -25.2971 100.288
10.8476 -25.92 101.499
7.3017001 -26.188499 102.927
5.71942 -26.0805 103.05
9.6306601 -26.139 102.111
9.5661297 -28.773701 101.354
11.0303 -28.532 100.846
12.503 -27.8955 99.860901
7.2434101 -28.987101 101.927
5.68328 -28.9802 101.971
3.9998 -25.8622 102.798
4.0293298 -28.7458 101.611
2.5833299 -25.513201 102.333
2.5778401 -28.318701 101.017
1.4897 -25.1689 101.792
1.4656 -27.8925 100.462
0.44947201 -13.2238 84.980904
4.49124 -13.7149 85.729103
14.1425 -21.2185 97.085602
12.1375 -23.6443 100.43
10.7273 -24.276199 101.805
5.5830402 -23.9419 103.72
2.6133299 -23.466999 103.216
5.5235801 -13.6879 86.506699
4.4583001 -13.4546 86.044701
2.0243001 -13.082 85.4272
2.0752399 -12.6465 85.723801
2.09642 -12.0643 85.7248
3.3403299 -12.2437 85.9795
3.29053 -12.8223 85.956001
4.58215 -12.4521 86.391502
4.5072799 -13.0267 86.353798
5.5882502 -12.6576 86.887299
5.5254898 -13.2258 86.8433
2.0536599 -12.9133 85.626099
3.25178 -13.0814 85.857498
4.4561901 -13.2862 86.242203
5.4918599 -13.4885 86.713303
5.5778399 -11.9099 86.746002
3.32514 -11.5042 85.8769
4.5808001 -11.7068 86.283203
2.0678699 -11.3343 85.599403
1.98886 -10.7131 85.527802
0.47278401 -12.9383 85.322098
0.48394001 -11.8904 85.640701
0.48143899 -12.45 85.643303
0.48035201 -12.731 85.522301
0.48584399 -11.2007 85.479897
3.6426001 -19.9491 105.089
4.9081998 -20.2435 105.085
5.3546901 -21.956499 104.4
3.89551 -21.716 104.334
2.53967 -19.621901 104.845
2.61116 -21.4512 104.075
1.53693 -21.1429 103.688
1.52487 -19.2703 104.427
6.7211599 -22.2026 104.191
6.11203 -20.512199 104.824
8.4862604 -20.830601 103.906
8.9558001 -22.5536 103.35
14.0676 -20.357201 97.455498
14.1566 -18.587999 98.503799
13.2816 -21.0198 99.303596
13.3448 -19.250099 100.5
7.1289601 -24.144199 103.604
10.4601 -22.411501 102.39
10.3015 -20.6308 103.102
3.9778099 -23.736 103.573
1.51977 -23.1777 102.776
11.9906 -20.105 101.944
11.9953 -21.7202 100.857
3.4791 -17.731001 105.675
4.5621901 -18.094801 105.688
3.32689 -15.8347 105.961
4.3276901 -16.1691 106.021
3.1535299 -14.653 106.069
4.1159801 -14.9733 106.105
1.3065799 -14.1469 105.532
2.20719 -14.386 105.861
2.32388 -15.5128 105.668
1.3679301 -15.2785 105.246
2.45298 -17.379601 105.434
5.4110498 -9.5720701 86.419502
5.4517598 -10.3235 86.420403
4.43191 -9.3807402 86.027199
4.4857702 -10.1866 86.024597
3.13676 -9.2383204 85.664803
3.2246499 -10.0457 85.681602
1.94716 -9.3420801 85.459396
2.0000401 -9.9849596 85.483902
6.0058298 -9.2609797 86.693398
5.3190799 -8.97509 86.348701
4.91991 -15.2668 106.038
7.4548101 -15.9802 105.636
4.2859101 -8.7082396 85.956299
2.7757101 -8.45998 85.553802
11.6323 -11.4921 90.522598
5.1513 -16.445101 105.89
5.53579 -18.401899 105.498
1.47807 -17.035999 104.973
7.9893699 -16.863701 105.271
8.1648397 -18.8759 104.607
10.2267 -16.950899 104.592
10.2139 -18.722601 103.896
8.4925299 -16.139999 105.382
10.3655 -16.081499 104.877
14.431 -12.2206 94.826797
13.0796 -11.8307 92.479698
14.2798 -12.8792 94.466202
13.0115 -12.5729 92.225998
14.2298 -13.5388 94.105499
14.7875 -14.2436 96.132004
14.9883 -13.6733 96.623398
15.0983 -13.0525 96.9767
15.2909 -13.7446 99.099503
15.116 -14.3037 98.636703
14.9509 -14.9986 98.1633
14.5202 -16.871401 99.542603
14.8371 -15.3485 100.4
14.987 -14.6224 100.857
14.2385 -15.9639 101.938
13.9321 -17.5326 100.95
14.3749 -15.1461 102.31
13.3789 -16.3976 102.949
13.1325 -18.020599 102.053
13.4877 -15.5593 103.285
12.0889 -16.7584 103.826
11.9802 -18.4142 103.034
12.1719 -15.8978 104.149
5.4721198 -10.8248 86.4991
5.5184498 -11.2502 86.561897
4.4898801 -10.6446 86.1408
4.5254002 -11.0534 86.152702
3.2028899 -10.4686 85.802299
3.25545 -10.8613 85.782898
1.68657 -8.7049198 85.437401
1.83532 -10.3459 85.542099
1.05497 -9.6265898 85.431602
1.18618 -10.0702 85.446999
0.77378798 -7.7677102 85.276901
0.372628 -10.2148 85.486
0.25519201 -10.161 85.508301
0.179884 -10.0581 85.792603
0.086443 -10.1059 85.7603
0.134372 -10.1896 85.759399
0.28995499 -10.1153 85.809502
0.17913599 -10.2234 85.761002
0.37208 -10.1352 85.824097
0.204466 -10.2498 85.738503
0.40358901 -10.1549 85.803299
0.19807699 -10.2281 85.699097
0.400821 -10.1444 85.757301
0.173186 -10.1855 85.655899
0.37772501 -10.1162 85.715302
0.17320199 -10.1502 85.596199
0.39144301 -10.0791 85.6343
0.201252 -10.1395 85.542801
0.45328501 -10.0524 85.546898
0.53171098 -10.0476 85.510399
0.76370502 -10.0273 85.462196
0.51201802 -10.6533 85.419601
0.69934201 -9.7944899 85.562202
0.93105698 -8.9345999 85.432404
0.58238 -9.3829403 85.586197
0.107413 -9.8350096 85.840897
0.165667 -9.7544899 85.855103
0.20446 -9.8877497 85.850998
0.32642499 -9.8446999 85.879204
0.23845001 -9.9708405 85.834503
0.38388601 -9.9806404 85.8675
0.20342501 -9.6651897 85.833199
0.42321 -9.8063602 85.867996
0.476955 -9.9981098 85.876801
0.59629601 -10.3654 85.454002
0.233992 -9.5043697 85.740097
0.47429401 -9.6468096 85.755302
0.50156099 -9.9797001 85.828903
0.55610198 -9.8778095 85.724403
0.409686 -8.7177696 85.441902
0.269265 -9.1903801 85.589401
0.574467 -8.1800699 85.3629
0.71717799 -27.6367 100.088
0.69492698 -24.924999 101.406
0.69491202 -22.952801 102.349
0.589288 -15.0949 104.803
0.57215101 -14.0012 105.171
0.68246901 -18.9685 103.958
0.65067297 -16.8041 104.513
0.70402402 -20.884501 103.26
8.4535599 -28.888399 101.638
8.5014601 -26.2202 102.616
8.2987003 -24.365601 103.277
7.8573499 -22.4051 103.85
7.2325501 -20.738001 104.428
6.7781501 -18.7201 105.075
6.51333 -16.792 105.606
6.22648 -15.6893 105.829
0.99216199 -15.6684 83.859299
1.0250601 -15.3102 84.134598
0.98916501 -14.9008 84.320099
0.96576703 -14.2518 84.555397
0.96941501 -13.7273 84.675301
1.04379 -13.2609 84.996399
1.0981899 -12.9863 85.335999
1.1174099 -12.7973 85.536102
1.1253999 -12.521 85.644501
1.13569 -11.9428 85.633301
1.12783 -11.2225 85.480301
1.12986 -10.6009 85.445999
3.2169399 -13.4953 85.333504
3.23406 -13.2409 85.6614
15.3621 -13.2718 99.182198
15.096 -13.8435 101.138
15.1956 -12.5655 97.131798
14.4973 -11.7783 95.0252
14.4748 -14.3541 102.545
13.5625 -14.7516 103.557
12.2454 -15.058 104.427
10.4211 -15.2408 105.121
8.6723204 -15.3232 105.634
7.3010302 -15.1072 105.891
5.9727201 -14.7527 106.028
4.6560602 -14.3083 106.164
3.88342 -14.0349 106.212
2.98598 -13.7341 106.158
2.1265199 -13.4867 105.965
1.30398 -13.2564 105.689
0.596587 -13.119 105.427
6.90171 -14.5868 86.728401
6.98136 -14.7528 86.4972
6.8168602 -14.3275 87.023804
14.3503 -19.585501 93.212898
6.7079601 -13.6448 87.543098
6.7179198 -14.0156 87.2826
6.7630401 -12.2354 87.486198
6.7704601 -13.009 87.655296
13.6924 -17.129 92.304604
14.3056 -18.547199 93.4646
12.8068 -15.263 91.330399
13.6584 -15.943 92.565201
14.2602 -16.967699 94.251297
6.6964898 -11.555 87.2173
6.6033902 -10.501 87.099503
6.6505098 -11.1046 87.100304
12.9671 -14.4704 91.630096
11.6026 -13.8936 90.239403
10.7812 -16.085899 88.6455
11.7534 -16.4349 89.537804
12.6866 -17.0515 90.575302
10.1221 -13.6839 89.523903
9.5490103 -13.7186 89.198997
8.6423998 -12.9704 88.605797
8.7262897 -13.7715 88.733299
7.8296199 -12.4868 88.083702
8.5686502 -12.1023 88.2659
7.8043699 -11.612 87.811096
9.25103 -12.7385 88.816299
7.77882 -14.8771 87.2472
7.1238399 -14.9463 86.353104
7.7785401 -14.5396 87.727402
7.8564601 -14.0824 88.145302
8.0559502 -13.4131 88.380501
8.9167099 -15.2652 87.639702
9.9248199 -15.4399 88.520798
9.3596497 -15.3347 88.003502
8.3730097 -15.1983 87.1772
8.5254498 -14.9349 87.871902
9.1116695 -14.9785 88.375
9.52351 -14.4473 89.044502
8.4223299 -14.5522 88.232697
7.4579 -15.3661 86.230797
7.93783 -15.2423 86.719803
10.0504 -12.3457 89.2033
12.7886 -15.9086 91.263298
12.7377 -16.4007 91.005997
11.6573 -14.5866 90.362297
10.9263 -13.759 89.865799
12.1394 -15.4982 90.693398
11.0105 -15.6436 89.384598
12.1683 -16.047199 90.445396
10.2577 -15.0456 89.236
11.5774 -15.3108 90.262299
10.9748 -14.5356 89.976303
13.6483 -18.0163 91.938202
13.1396 -17.457701 91.103897
12.3183 -16.7348 90.1054
11.6936 -15.8403 89.962898
11.0357 -15.1695 89.803398
10.3631 -14.4749 89.571404
7.3067799 -14.6994 87.031998
7.2326598 -14.449 87.319
7.5292501 -14.9391 86.7854
7.3782802 -14.8251 86.882301
7.1700501 -13.8018 87.815002
7.2716498 -13.1684 87.956299
7.16641 -14.2036 87.532097
7.1145401 -11.6219 87.443298
7.08079 -11.2332 87.377098
7.0726199 -10.7688 87.398201
7.2246199 -12.3448 87.755501
11.2446 -16.2582 89.102997
10.4387 -15.5374 88.967201
9.6521597 -15.0049 88.8218
8.9747105 -14.5302 88.657898
8.5389004 -14.1903 88.535698
8.24403 -13.8765 88.442101
6.5882902 -9.74821 87.041801
6.06425 -9.7090302 86.7687
6.2684102 -12.0878 87.162201
6.2076302 -11.4228 86.930496
6.2832098 -12.8349 87.325401
7.80867 -10.4326 87.813103
6.1216402 -10.4302 86.788597
6.1578302 -10.9841 86.822998
8.7700396 -11.0367 88.395302
6.46421 -14.6913 86.085503
6.3923001 -14.4514 86.315598
6.5173402 -14.9855 85.860298
6.34272 -14.175 86.656799
6.2550101 -13.8772 86.936996
6.2231798 -13.3969 87.268097
6.2067099 -13.6303 87.149902
6.9211001 -15.4033 85.7742
13.0706 -13.4409 92.042397
10.1304 -11.6488 89.238197
11.4357 -12.638 90.250603
14.0035 -14.2915 93.6782
14.5486 -14.8964 95.510696
14.5253 -20.587299 95.113403
14.4456 -19.6292 95.405899
14.4515 -17.8239 96.269302
14.7307 -15.8402 97.523399
7.0992498 -9.9995298 87.366699
0.330349 -15.9708 83.593002
0.63226801 -15.9775 83.579002
1.17612 -8.3856201 85.3843
1.6271 -7.9952998 85.355797
1.45052 -16.1702 105.129
0.63781899 -15.9638 104.684
1.52853 -22.031 103.273
0.70132798 -21.796801 102.851
0.69777399 -19.951 103.631
1.53694 -20.2384 104.071
12.0114 -17.591299 103.447
10.1994 -17.866899 104.252
13.2372 -17.213499 102.536
14.0853 -16.7477 101.457
14.7093 -16.052099 100.04
8.12463 -17.935801 104.919
2.41027 -16.485701 105.585
5.3470702 -17.455999 105.708
4.4503102 -17.1742 105.874
3.41503 -16.825001 105.843
12.001 -20.963699 101.286
13.2644 -20.1891 99.8284
13.2787 -21.893 98.927399
12.0348 -22.5508 100.544
10.5887 -23.2393 102.089
10.3666 -21.587299 102.757
2.6164801 -22.319901 103.684
3.9558799 -22.571301 103.993
5.4953098 -22.8048 104.084
6.9530501 -23.0434 103.936
8.7111597 -21.7115 103.601
9.1945896 -23.358801 103.059
14.0277 -19.490101 97.943604
14.4076 -18.8034 95.792198
5.1440201 -21.1364 104.73
6.43783 -21.396601 104.487
2.57529 -20.572901 104.471
3.7834699 -20.879601 104.703
8.1055098 -23.250601 103.613
7.5588799 -21.605801 104.103
6.6725502 -17.7878 105.347
14.2491 -17.894899 93.767403
1.49959 -18.134001 104.748
0.66179198 -17.837799 104.259
11.9307 -19.2731 102.537
10.2332 -19.647301 103.499
13.086 -18.7838 101.434
13.732 -18.3153 100.516
14.5152 -16.822701 96.876198
14.3384 -17.7008 98.996101
8.2603998 -19.8559 104.274
2.4935901 -18.487 105.192
5.7916899 -19.4606 105.198
4.6986098 -19.1724 105.443
3.54844 -18.831499 105.432
6.9373202 -19.732401 104.776
14.3155 -15.8694 94.852997
13.8049 -15.1751 93.131897
0.00044800001 -14.2397 84.489304
-1.3e-05 -8.1155701 85.351601
-6.0999999e-05 -10.2651 85.469398
-5.3e-05 -10.1946 85.490402
-4.7000001e-05 -10.1628 85.526299
-3.1e-05 -9.7221003 85.8265
-3.3e-05 -9.8157597 85.821701
-2.9999999e-05 -9.6230202 85.806602
-1.8999999e-05 -8.6538601 85.445801
-4.4e-05 -10.1665 85.576103
-7.5000004e-05 -10.399 85.433403
-3.7999998e-05 -10.2073 85.733398
-3.7000002e-05 -10.1174 85.744598
-3.8999999e-05 -10.2425 85.729401
-4.2e-05 -10.264 85.711197
-4.2e-05 -10.1993 85.633102
-4.3e-05 -10.2431 85.672203
-2.8e-05 -9.4571695 85.726898
-2.4000001e-05 -9.1353502 85.590302
-9.9999997e-05 -10.6724 85.398697
-3.5000001e-05 -9.9648504 85.797302
0.00019399999 -12.9102 85.311096
0.000102 -12.4164 85.6306
0.000151 -12.6974 85.507698
1.8999999e-05 -11.8703 85.6334
-7.1000002e-05 -11.1978 85.468803
0.000351 -13.6553 84.612099
0.00025700001 -13.1946 84.964699
0.000512 -14.9318 84.238998
0.00061500003 -15.2939 84.087997
0.00074300001 -15.5663 83.889397
0.00093699998 -15.9587 83.592003
1.9999999e-05 -13.9347 104.901
9.6999996e-05 -14.9821 104.442
1.8000001e-05 -13.0589 105.218
0.000165 -15.8252 104.328
0.000543 -20.7103 102.904
0.00039100001 -18.7964 103.579
0.000227 -16.6348 104.164
0.00061699998 -21.5935 102.493
0.000466 -19.757999 103.271
0.00030700001 -17.6943 103.931
0.00089199998 -24.631701 101.129
0.00070999999 -22.670099 102.032
0.001159 -27.409 99.749001
0.0078140004 -46.8452 78.125298
0.003736 -37.261902 92.350899
0.002874 -34.653801 94.794403
0.0081040002 -47.1954 76.744698
0.0060129999 -43.450401 85.358597
0.0042949999 -38.850601 90.7145
0.006794 -45.1007 82.425598
0.0055740001 -42.425098 86.898201
0.00544 -28.951799 72.478699
0.0089969998 -47.848801 72.094101
0.0087339999 -47.751701 73.488197
0.0075090001 -46.374599 79.4729
0.007152 -45.760899 80.972099
0.0051739998 -41.400398 88.194702
-10.6986 -20.265699 77.669296
-10.6086 -20.2878 77.592697
-10.5795 -20.242901 77.611801
-10.6576 -20.325001 77.590302
-10.7133 -20.3466 77.605598
-10.763 -20.3536 77.6334
-10.7971 -20.3449 77.671097
-10.8107 -20.3248 77.706596
-10.8024 -20.295601 77.736
-10.7774 -20.2619 77.754204
-10.7361 -20.2272 77.756897
-10.6886 -20.198099 77.745796
-10.638 -20.1826 77.720299
-10.597 -20.1817 77.682999
-10.5745 -20.202999 77.644501
0.0084250001 -47.477501 75.090202
-5.42169 -37.880901 69.805496
-6.4045701 -39.5051 70.112503
-6.58922 -40.382999 70.3974
-7.97896 -44.698399 70.475899
-7.9331498 -45.6689 70.546097
-7.41537 -46.708199 71.1987
-6.94068 -47.430302 71.885498
-6.10849 -48.054001 73.367401
-4.6076298 -48.280701 74.371002
0.0056889998 -29.926201 72.053398
0.0059460001 -30.9666 71.6492
0.0061670002 -31.847 71.283997
0.0064139999 -44.350498 83.910797
0.0047089998 -40.036301 89.510902
-6.0557098 -15.9024 84.679604
-6.8110299 -15.8562 85.191299
-5.7105098 -16.402 83.852097
-6.7308402 -16.3755 84.5187
-7.4682698 -16.918501 84.326797
-6.3050299 -16.825701 83.577499
-6.8070002 -17.2332 83.253304
-0.37044901 -16.436199 83.194603
-0.90839303 -16.474701 83.100601
-1.64533 -16.5457 82.941299
-2.57868 -16.5707 82.883003
-0.738258 -17.053699 82.550598
-0.58480102 -17.9522 81.511101
-0.25040701 -17.040001 82.627701
-3.7737601 -16.212799 83.461403
-5.0136099 -16.010401 84.086403
-7.4639001 -16.3923 85.074997
-10.0579 -43.2309 72.7472
-10.0252 -42.236301 72.681801
-10.7747 -42.724998 73.111397
-10.9214 -43.412102 73.201897
-11.6355 -42.859001 73.295502
-11.8822 -43.6492 73.421501
-10.5731 -42.172298 72.970001
-11.242 -44.929501 73.442596
-10.5246 -44.881001 72.958801
-11.3272 -46.124401 73.835701
-10.816 -46.026001 73.320702
-11.0582 -47.287998 74.575104
-10.477 -47.2715 74.139503
-4.5160899 -36.466599 70.041199
-5.5781598 -37.233799 70.195999
-6.6514201 -38.864399 70.555
-6.9099698 -39.791801 70.8983
-7.7637801 -41.527302 71.2342
-8.3542099 -43.294601 71.404297
-8.7010698 -44.754601 71.209396
-8.5446196 -45.7714 71.174301
-8.0430298 -46.921001 71.957497
-7.5671301 -47.6623 72.778
-1.6187 -27.6483 72.711899
-1.40289 -28.854099 72.270302
-0.690009 -27.4851 73.117699
-0.639992 -26.2614 73.7351
-1.56754 -26.2337 73.403099
-0.57736599 -24.776501 74.676102
-1.42721 -24.533899 74.371498
-0.43199399 -23.3988 75.711098
-1.12125 -23.156 75.533699
-0.41266999 -22.231501 76.6436
-1.07733 -22.021601 76.405998
-0.42843899 -21.2234 77.452499
-1.09285 -21.131399 77.198898
-0.45808601 -20.540501 78.142197
-1.16565 -20.4841 77.890099
-0.613846 -19.9053 78.949898
-1.33199 -19.9412 78.545998
-11.9385 -48.669498 77.964104
-10.8141 -48.6535 77.8405
-12.8844 -46.3041 74.678398
-12.9561 -45.368099 74.115997
-12.059 -46.255699 74.3116
-12.0398 -45.128399 73.846802
-12.6834 -47.250301 75.5457
-11.8268 -47.290401 75.1147
-12.3362 -48.083 76.690399
-11.3892 -48.120098 76.333298
-13.0035 -43.999599 73.498497
-0.99956298 -19.0422 79.985901
-0.55298603 -18.868 80.338799
-1.16193 -18.021099 81.328697
-1.2695 -30.087799 71.829201
-3.67698 -19.8246 77.447701
-2.6160901 -20.189899 77.425903
-2.74384 -19.799999 77.909798
-15.0591 -31.615499 95.313797
-9.8392801 -48.599602 77.597801
-10.5451 -48.188301 75.922401
-9.8563805 -48.241901 75.465599
-9.9946604 -34.634399 97.759697
-7.96807 -34.611801 98.113503
-7.86202 -36.5541 96.7425
-11.6943 -33.6964 97.510696
-6.17945 -34.483601 98.189201
-6.0132699 -36.2201 96.582001
-6.3013701 -39.0751 93.934799
-5.6612401 -40.6096 91.816299
-5.3373799 -41.734402 90.573601
-5.2547698 -42.963001 89.065201
-5.33181 -44.132401 87.857903
-4.9072499 -45.2005 86.433296
-4.8036499 -34.270599 97.914001
-4.6535401 -35.971802 96.239304
-4.90137 -38.738499 93.527397
-4.5247798 -41.541302 90.458801
-4.5540099 -42.7738 89.128403
-4.7225699 -43.923698 87.854599
-4.0770001 -44.988499 86.3815
-3.5037999 -34.040699 97.477203
-3.4365499 -35.703602 95.817398
-3.75652 -38.565399 93.243301
-3.4338901 -41.463299 90.364502
-2.5490401 -42.436199 88.928001
-2.7702899 -43.5359 87.653999
-3.0931201 -44.671001 86.165199
-2.43326 -33.548698 97.109703
-2.46208 -35.520199 95.466202
-2.71664 -38.315498 93.122902
-1.94354 -39.797199 91.359802
-2.2695899 -41.115601 90.227097
-1.70128 -43.199001 87.425598
-1.86742 -44.281101 85.936203
-1.34996 -33.096001 96.903297
-1.28776 -35.312599 95.191101
-1.14686 -37.873402 92.726196
-1.10419 -39.416199 91.101097
-0.99864298 -40.43 89.903297
-0.925394 -41.821201 88.545799
-0.86468101 -42.763699 87.143799
-0.857256 -43.799 85.570801
-13.3345 -32.976299 96.370697
-1.66984 -20.408899 77.684799
-2.62111 -20.7342 76.812698
-1.65711 -21.0149 77.001999
-2.7574501 -21.3715 76.093498
-1.62797 -21.834499 76.247398
-3.05811 -22.118999 75.361298
-1.75191 -22.8162 75.386497
-3.48348 -22.958401 74.600998
-2.1761799 -23.956499 74.375099
-4.1051202 -23.8384 73.891098
-3.0007701 -25.057199 73.513802
-3.61608 -20.4062 76.783897
-3.7602201 -20.997499 76.145798
-4.1005902 -21.5769 75.555199
-4.4762301 -22.216 74.964203
-4.9953599 -22.904699 74.4151
-1.9378099 -26.639799 73.0625
-2.3299601 -25.862801 73.310501
-10.9038 -41.917599 72.964699
-10.0212 -40.773399 72.490402
-9.9872103 -20.701599 77.098297
-10.2151 -20.8342 77.092697
-9.9844103 -21.2386 76.677902
-9.52841 -21.0308 76.639297
-10.4744 -20.9498 77.122101
-10.4544 -21.418501 76.773697
-10.7147 -21.041401 77.211304
-10.9403 -21.58 76.941902
-10.9791 -21.122801 77.352898
-11.4373 -21.724501 77.196198
-8.0119896 -24.069599 74.279999
-8.3933401 -23.2153 74.850502
-8.7256298 -22.5107 75.372704
-8.9917498 -21.9077 75.8312
-9.2453804 -21.382601 76.283302
-9.8326797 -21.6096 76.342796
-9.6721401 -22.1751 75.924301
-9.5180101 -22.815599 75.473602
-9.2973299 -23.569201 74.957703
-9.0279999 -24.461201 74.392197
-10.4284 -21.8216 76.479401
-10.4023 -22.423 76.100098
-10.3631 -23.1068 75.676598
-10.2624 -23.885201 75.179398
-10.1208 -24.7978 74.648003
-11.0566 -22.0238 76.699203
-11.2233 -22.688101 76.3554
-11.2794 -23.400299 75.967499
-11.3025 -24.2132 75.523399
-11.3603 -25.162901 75.0364
-11.7539 -22.2237 77.036102
-12.1634 -22.9501 76.784599
-12.2629 -23.6894 76.376404
-12.4838 -24.517099 76.020302
-12.7849 -25.627701 75.618797
-12.8452 -23.8407 76.737
-13.4233 -24.8358 76.598099
-14.1005 -26.1112 76.417503
-11.2145 -21.1737 77.542198
-11.9012 -21.8309 77.5233
-12.3827 -22.3659 77.486702
-13.0382 -23.171101 77.446297
-13.6705 -24.0721 77.421097
-14.4124 -25.182899 77.462402
-15.2048 -26.661501 77.518097
-11.389 -21.178699 77.731201
-12.2889 -21.9175 77.909698
-12.9352 -22.5425 78.035202
-13.6927 -23.4445 78.163696
-14.3517 -24.348301 78.246399
-15.0597 -25.593 78.431801
-15.8998 -27.1975 78.627701
-11.5243 -21.1366 77.950104
-12.5446 -21.945299 78.322403
-13.2623 -22.6057 78.632401
-14.0313 -23.571301 78.917999
-14.7214 -24.6896 79.089897
-15.4316 -25.9751 79.399902
-16.113501 -27.545401 79.780899
-15.3743 -25.995399 80.300201
-14.8258 -24.736401 79.674896
-14.0816 -23.486401 79.343697
-14.687 -24.5212 80.194199
-15.1438 -25.624901 81.002899
-15.4773 -26.8092 81.885597
-15.9551 -27.6938 81.042801
-15.9668 -28.219299 81.934799
-11.5984 -21.064501 78.1754
-12.6321 -21.867001 78.679604
-13.3073 -22.4813 79.1036
-13.9614 -23.271299 79.778702
-14.447 -24.133499 80.608002
-14.8335 -25.0439 81.444702
-15.0561 -25.907801 82.261803
-11.5986 -20.9603 78.343498
-12.6102 -21.7388 78.967796
-13.2163 -22.2962 79.432297
-13.7697 -22.9944 80.100304
-14.1628 -23.7075 80.893799
-14.4926 -24.4137 81.723198
-14.6593 -25.039101 82.490799
-1.82249 -19.945601 78.273003
-2.08091 -19.466801 78.851898
-3.0218301 -19.388 78.402298
-2.6539199 -18.8249 79.721497
-3.5114501 -18.982201 78.969299
-14.04 -23.836 84.216202
-14.2788 -24.000099 85.266899
-1.61932 -19.398001 79.219803
-2.3106301 -18.5408 80.328201
-1.75587 -18.0597 81.113297
-11.2511 -20.511 78.653999
-11.9778 -20.9816 79.373001
-12.3345 -21.3533 79.368896
-11.4137 -20.6546 78.595703
-12.5201 -21.5804 79.2024
-11.5335 -20.8081 78.506897
-13.0635 -22.0931 79.669601
-12.8902 -21.867599 79.816101
-12.4002 -21.333401 79.808098
-12.6991 -21.655399 79.840103
-12.1205 -21.0665 79.732498
-9.7763996 -19.7873 78.248901
-8.80441 -19.393499 78.378304
-9.2510595 -19.4557 78.583397
-9.9480305 -19.8041 78.3694
-9.7150898 -19.5846 78.737701
-10.1531 -19.866699 78.475098
-10.1839 -19.7658 78.8647
-10.3867 -19.961901 78.559402
-10.65 -20.0128 78.9888
-10.621 -20.085199 78.614998
-11.104 -20.286501 79.114502
-10.8365 -20.211201 78.661003
-11.5427 -20.6 79.2463
-11.0657 -20.361401 78.671997
-8.41329 -19.2017 78.5867
-8.8979902 -19.276199 78.784203
-9.4568596 -19.430901 78.9589
-10.0509 -19.6623 79.099098
-10.6506 -19.9671 79.2435
-11.2095 -20.3258 79.415398
-11.6943 -20.6966 79.583801
-7.5890002 -19.692101 77.462196
-6.7353001 -19.6637 77.3218
-6.8592401 -19.403601 77.721298
-7.6958098 -19.464399 77.820602
-7.0762601 -19.178301 78.095802
-7.8517499 -19.292299 78.134399
-7.4449301 -19.0578 78.454201
-8.1045799 -19.201799 78.399696
-7.9163399 -19.040501 78.747398
-12.7228 -21.6763 80.332901
-13.0509 -22.0585 80.419296
-13.3146 -22.389999 80.420403
-13.5539 -22.697701 80.315201
-5.8893199 -19.662701 77.243896
-6.0275002 -19.349001 77.695999
-6.30126 -19.081499 78.1241
-6.7773199 -18.9023 78.551102
-13.2989 -22.432699 81.0532
-13.6116 -22.8571 81.099701
-13.8896 -23.2766 81.0569
-5.0767598 -19.6924 77.267502
-5.23839 -19.3078 77.758202
-5.5645399 -18.989401 78.216797
-6.12781 -18.7897 78.720001
-13.7946 -23.2659 81.8274
-14.1361 -23.817301 81.841003
-4.3050098 -19.7633 77.355698
-4.5131998 -19.310301 77.865799
-4.9074602 -18.9533 78.358902
-13.9099 -23.564199 82.534302
-14.283 -24.251699 82.598701
-3.9366601 -19.3461 78.014702
-4.42449 -18.951799 78.510399
-13.9665 -23.714001 83.1884
-4.3036098 -20.243 76.754601
-4.42974 -20.749001 76.211304
-5.0631499 -20.1068 76.761299
-5.1757302 -20.5261 76.321297
-5.8719702 -20.0144 76.826897
-5.9632001 -20.3519 76.478996
-6.6988301 -19.9646 76.967903
-6.7579799 -20.195101 76.7351
-7.5402298 -19.973101 77.0961
-4.7410002 -21.245501 75.715897
-5.1069698 -21.808201 75.2407
-5.6016698 -22.3925 74.8134
-6.2704201 -22.981701 74.486603
-5.4692302 -20.953699 75.941399
-5.8073902 -21.4179 75.566902
-6.2570901 -21.8902 75.247101
-6.8510299 -22.3484 74.994102
-6.2233601 -20.6984 76.177902
-6.53231 -21.0949 75.892502
-6.9257302 -21.464899 75.643303
-7.4240298 -21.8307 75.457298
-6.97188 -20.479 76.483597
-7.2535901 -20.814501 76.2276
-7.5801401 -21.1084 76.0355
-7.9727602 -21.414301 75.882401
-7.7402902 -20.2838 76.821297
-7.97158 -20.589199 76.574097
-8.2012701 -20.8106 76.426498
-8.6718197 -21.073601 76.320396
-8.6596498 -20.5448 76.784798
-9.0743198 -20.800501 76.677399
-9.7501898 -20.529499 77.169998
-9.6768599 -20.4594 77.2117
-8.4491796 -20.240601 77.027496
-9.5390501 -20.2876 77.344002
-8.3431501 -19.981001 77.2864
-9.4728098 -20.1229 77.531403
-8.3473501 -19.759701 77.569
-9.4912395 -19.983299 77.719597
-8.4219999 -19.5832 77.851898
-9.5611601 -19.8696 77.9328
-8.5529804 -19.455299 78.118797
-9.6543703 -19.810499 78.098396
-1.3741601 -17.080799 82.428101
-13.4758 -24.3424 98.674301
-13.316 -22.918501 98.664398
-12.548 -21.491899 80.698997
-12.0226 -20.969299 80.434799
-12.1355 -21.0809 80.930298
-12.6689 -21.670601 81.256699
-14.1657 -22.285 96.865898
-14.2699 -23.438601 96.7677
-14.3778 -24.215401 96.720497
-14.5966 -26.315599 97.028099
-14.831 -29.1684 96.503899
-9.2299299 -31.8419 99.987198
-10.8809 -31.6077 99.526001
-12.6308 -30.8318 98.643799
-6.8958201 -31.9233 100.331
-5.4242101 -31.8515 100.214
-3.87379 -31.605801 99.8311
-2.5158801 -31.1845 99.363998
-1.29456 -30.688601 98.723701
-13.7031 -26.957899 98.6147
-14.0097 -29.7931 97.366302
-2.0474899 -17.1299 82.239799
-3.39502 -18.1903 80.624199
-4.2339702 -18.577999 79.689301
-4.4433498 -17.678499 81.452301
-5.2070599 -18.270599 80.458397
-5.7024298 -17.4249 82.139503
-6.3418899 -18.192301 81.035103
-7.0591602 -17.4939 82.791603
-7.5624499 -18.3375 81.511299
-8.4294701 -17.8454 83.409401
-8.8927202 -18.6859 81.950302
-9.6347799 -18.358601 83.963097
-10.0038 -19.287399 82.398102
-10.7292 -19.069401 84.451797
-11.0138 -19.938499 82.876297
-11.7049 -19.940901 84.853302
-11.866 -20.6609 83.327904
-12.5217 -20.8375 85.163902
-12.5614 -21.400801 83.710297
-13.2199 -21.818899 85.316101
-13.1261 -22.1471 84.042801
-13.8058 -22.870001 85.357803
-13.6165 -22.9764 84.189697
-3.0715101 -17.850901 81.215698
-4.1131902 -17.27 82.048103
-5.4043798 -17.150499 82.587196
-2.5969701 -17.360901 81.887001
-3.6882701 -16.865499 82.566803
-4.9907999 -16.8153 82.93
-4.5450001 -16.536301 83.175903
-13.0878 -22.225201 81.545998
-12.9498 -21.9771 80.918701
-12.3417 -21.2714 80.185699
-11.8605 -20.830299 79.989601
-8.5140696 -19.108101 78.983398
-9.1977396 -19.283501 79.190102
-9.9100704 -19.556499 79.362
-10.6335 -19.9251 79.547798
-11.3013 -20.3703 79.772202
-7.3804102 -18.8901 78.9366
-8.11131 -18.9576 79.216698
-8.9180202 -19.1401 79.438499
-9.7663898 -19.444 79.642403
-10.6053 -19.8859 79.871902
-11.381 -20.4235 80.156799
-6.8345499 -18.738899 79.185097
-7.6805401 -18.8204 79.516197
-8.6257496 -19.011101 79.733803
-9.5989599 -19.3288 79.957497
-10.5469 -19.8379 80.234703
-11.4284 -20.4555 80.579102
-13.4619 -22.747999 81.734001
-5.5071201 -18.719601 78.935501
-6.3614302 -18.6334 79.463799
-7.3323798 -18.716801 79.832802
-8.2974596 -18.873899 80.108597
-9.39606 -19.2215 80.332703
-10.444 -19.7696 80.658798
-11.408 -20.4568 81.054298
-12.1657 -21.139601 81.477997
-12.7197 -21.7717 81.864304
-13.166 -22.3587 82.2127
-13.5512 -22.9547 82.423302
-5.0816898 -18.6749 79.125099
-5.9872198 -18.547001 79.726196
-7.0009098 -18.6008 80.171501
-8.0517302 -18.770201 80.474998
-9.2201204 -19.125099 80.760399
-10.3118 -19.690901 81.131798
-11.3096 -20.3908 81.568604
-12.1134 -21.072701 82.041298
-12.6966 -21.7526 82.475998
-13.1806 -22.3675 82.846703
-13.5858 -23.0191 83.063499
-9.9376097 -45.959099 72.506203
-9.5831003 -44.8251 72.083199
-9.3433399 -45.82 71.874901
-9.5626898 -47.215199 73.43
-8.7963696 -47.113998 72.756104
-9.1350002 -48.678501 77.173203
-7.7535701 -49.0858 77.986099
-8.36763 -48.787201 76.467903
-6.6223898 -49.220798 77.815102
-7.5213499 -48.6908 75.342102
-5.7982702 -48.772499 76.0821
-6.7550502 -48.367199 74.293503
-5.0799198 -48.433701 74.890297
-8.97124 -48.228699 74.773804
-8.1954803 -47.987701 73.717003
-3.5323501 -47.703201 80.658302
-3.88132 -47.274899 82.454803
-4.0675502 -47.9296 81.0746
-5.0529499 -48.7939 77.269402
-4.3721399 -48.437199 76.018997
-3.4122 -48.120098 75.571297
-4.5981898 -48.669399 78.541901
-4.0243702 -48.432701 77.784401
-3.26021 -48.077599 77.274902
-2.4568501 -47.757999 76.935799
-1.10313 -47.3983 76.7332
-4.2734098 -48.377701 79.797096
-3.76367 -48.210499 79.286102
-3.0753 -47.904202 78.825203
-2.2620299 -47.553001 78.505302
-0.86941099 -47.0205 78.154198
-5.0580702 -46.1063 85.211197
-3.67732 -46.493698 83.735497
-2.13465 -45.2836 84.380699
-0.86983699 -44.758499 83.9981
-0.80894399 -45.312302 82.650101
-1.05618 -31.077801 71.438599
-1.45623 -33.4576 70.651398
-0.48544899 -33.533199 71.087196
-0.82301003 -32.684601 70.968803
-0.97343802 -31.9645 71.011002
-1.01964 -34.223301 71.000801
-1.58162 -34.8139 70.3228
-6.0186 -36.386398 70.683998
-7.3957601 -37.7784 71.3489
-2.0720899 -34.618999 70.299896
-6.8988199 -38.4165 70.934402
-5.8129601 -36.7449 70.541199
-7.0590601 -38.1563 71.163597
-4.64749 -35.66 70.378799
-4.0023899 -35.254299 70.338402
-3.11396 -34.887299 70.230904
-7.2685399 -39.315498 71.3563
-7.5890098 -38.959099 71.657898
-8.48598 -41.1745 71.782303
-9.4378405 -40.7873 72.286903
-9.54842 -40.168201 72.272301
-9.1795797 -43.219799 72.114899
-9.7771902 -20.4795 77.2341
-9.6450701 -20.2957 77.376602
-9.57866 -20.1451 77.542198
-9.5945101 -20.012501 77.715302
-9.6586199 -19.9144 77.913597
-9.7490101 -19.8547 78.069702
-9.8635397 -19.8337 78.210602
-10.0077 -19.8447 78.322403
-10.1913 -19.899599 78.420303
-10.4041 -19.990299 78.498001
-10.6117 -20.098 78.544601
-10.8125 -20.2124 78.587303
-11.015 -20.347601 78.598999
-11.1898 -20.4888 78.582497
-11.3416 -20.632401 78.5205
-11.4556 -20.775101 78.434303
-11.5131 -20.9077 78.295403
-11.5143 -21.004 78.138199
-11.4368 -21.0669 77.933098
-11.3044 -21.099501 77.730598
-11.1413 -21.086 77.556297
-10.0252 -20.6553 77.163002
-10.2435 -20.783001 77.155602
-10.4743 -20.883801 77.178596
-10.6976 -20.974001 77.2659
-10.9288 -21.041201 77.385902
-10.4647 -20.163099 77.6474
-10.4994 -20.124201 77.721603
-10.4736 -20.235201 77.583801
-10.5307 -20.316299 77.544701
-10.6198 -20.3808 77.536301
-10.7223 -20.421499 77.565002
-10.8112 -20.436199 77.6213
-10.8731 -20.4254 77.691803
-10.8962 -20.3894 77.7612
-10.8804 -20.337601 77.821198
-10.831 -20.276699 77.858498
-10.7555 -20.2145 77.863701
-10.6638 -20.1623 77.8414
-10.573 -20.128901 77.795502
-10.0647 -20.610201 77.2127
-10.2851 -20.743401 77.208199
-10.4733 -20.823799 77.223503
-10.6963 -20.913099 77.307098
-10.8768 -20.9678 77.403397
-11.0702 -21.008301 77.555199
-11.2337 -21.023899 77.718399
-11.3679 -21.0021 77.907997
-11.4425 -20.946501 78.092499
-11.4465 -20.8533 78.244003
-11.4015 -20.7491 78.354202
-11.2905 -20.611401 78.452103
-11.1402 -20.459801 78.513702
-10.9692 -20.32 78.531502
-10.8046 -20.2104 78.522301
-10.6006 -20.094801 78.4814
-10.4305 -20.007601 78.445396
-10.2221 -19.9165 78.367699
-10.0544 -19.865801 78.275497
-9.93927 -19.856199 78.177498
-9.8292704 -19.8846 78.037498
-9.7390299 -19.9436 77.8815
-9.6828299 -20.0369 77.704102
-9.6764097 -20.173401 77.533897
-9.7357998 -20.300301 77.402
-9.8824596 -20.4723 77.273499
-10.5563 -20.4949 77.438599
-10.5875 -20.432699 77.4916
-10.7335 -20.491199 77.531998
-10.7577 -20.5816 77.500702
-10.8577 -20.5152 77.616699
-10.9176 -20.6096 77.618797
-10.9459 -20.503901 77.723
-11.0322 -20.599199 77.766502
-10.9743 -20.453899 77.825401
-11.0624 -20.5305 77.902802
-10.9468 -20.3839 77.913498
-11.0169 -20.4398 78.014099
-10.8724 -20.3053 77.969299
-10.9156 -20.3396 78.086899
-10.7643 -20.2215 77.981003
-10.7718 -20.237101 78.102798
-10.6314 -20.1446 77.949699
-10.595 -20.138201 78.066902
-10.5036 -20.092501 77.885002
-10.419 -20.061701 77.985497
-10.4004 -20.0826 77.7752
-10.2874 -20.048 77.839699
-10.3544 -20.1339 77.663498
-10.2249 -20.105301 77.684898
-10.3737 -20.231199 77.564903
-10.2593 -20.2279 77.542503
-10.4583 -20.344 77.504204
-10.3777 -20.376101 77.4571
-10.7775 -20.246099 78.2379
-10.9603 -20.3717 78.214203
-10.5476 -20.122499 78.199699
-10.3102 -20.021299 78.102203
-10.1462 -20.018299 77.919296
-10.061 -20.0872 77.714302
-10.1154 -20.242399 77.528198
-10.2791 -20.4251 77.410797
-10.5174 -20.5842 77.386803
-10.784 -20.7071 77.473503
-10.9988 -20.747101 77.643097
-11.1441 -20.7313 77.840103
-11.1655 -20.632601 78.010902
-11.0925 -20.5065 78.139198
-10.7533 -20.836201 77.377098
-10.8342 -20.242599 78.399803
-10.4304 -20.695101 77.2789
-10.11 -20.500999 77.307098
-10.9371 -20.875099 77.509598
-11.1154 -20.891001 77.668198
-11.2569 -20.8871 77.851601
-11.3183 -20.847099 77.9888
-11.3266 -20.735201 78.165298
-11.2012 -20.5648 78.287697
-11.0405 -20.3985 78.3629
-10.5394 -20.073299 78.350502
-10.283 -19.9615 78.255203
-10.1273 -19.912201 78.155899
-9.9906101 -19.9484 77.983597
-9.9018898 -20.0082 77.806999
-9.8719501 -20.0875 77.667702
-9.8972301 -20.2654 77.468201
0.0085939998 -47.637402 74.227501
-1.19809 -47.7355 74.123199
-1.17858 -47.636902 75.101196
-2.4997301 -47.9189 74.033897
-2.6008401 -47.893799 75.139603
-3.34744 -48.065601 73.873001
-3.4355099 -48.1143 74.7967
-4.23491 -48.104801 73.401604
-5.3899002 -47.8535 72.390404
-6.3483 -47.258499 71.072403
-6.81074 -46.5509 70.343903
-7.2628999 -45.580101 69.779099
-7.2729998 -44.669998 69.770699
-7.05127 -43.449699 69.966797
-7.6631699 -43.343102 70.704803
-6.6058302 -42.201401 69.9627
-7.1378498 -41.885101 70.620399
-6.21664 -41.0112 69.777802
-6.1649799 -40.268101 69.522003
-6.6729698 -44.6744 69.1744
-6.4107199 -46.433701 69.720001
-3.23593 -47.994701 72.9963
-2.40713 -47.891102 73.1912
-1.19497 -47.787102 73.366699
-4.8541002 -47.688099 71.603699
-5.9566998 -40.882198 68.884903
-5.99264 -41.534599 69.066101
-6.2497401 -42.501598 69.250397
-6.5028 -43.4687 69.283401
-3.84128 -48.011501 72.600998
-5.8956099 -47.117401 70.388397
-6.7259698 -45.521198 69.157303
-2.6730001 -47.556 69.729599
-2.9939499 -47.664799 70.934601
-2.12096 -47.702999 71.209702
-0.4366 -47.8381 72.031097
-3.9276099 -47.237099 69.142899
-1.08678 -47.781399 71.766403
-4.2042699 -47.2994 70.027702
-5.2129502 -46.802101 69.130402
-3.47823 -47.830601 71.728996
-4.4675202 -47.497101 70.887901
-5.4946198 -46.964001 69.729401
-6.0213699 -46.265099 69.081398
-6.3679299 -45.479698 68.688202
-3.03473 -47.864498 72.0065
-2.2836299 -47.813 72.290802
-1.15297 -47.812199 72.605797
-0.178799 -47.825901 72.822098
0.0088569997 -47.820599 72.850098
-0.54901397 -47.774502 73.472099
-0.55338103 -47.692101 74.193497
-1.76816 -47.821201 73.281898
-1.79645 -47.807499 74.0839
-1.7924 -47.743801 75.123901
-0.56327099 -47.542301 75.078201
-0.93513501 -45.973598 81.176804
-0.49808899 -46.894001 78.098
-0.440826 -46.454498 79.494202
-0.560848 -47.267399 76.720802
-1.14343 -46.652302 79.681198
-2.1787601 -45.8895 83.136803
-2.4864399 -46.627998 81.727898
-4.5609999 -47.431 82.784401
-4.4656501 -46.7117 83.997498
-4.3202901 -45.9548 85.097
-1.44958 -47.184101 78.259201
-2.82533 -47.337898 80.225502
-4.83355 -48.433998 80.547096
-4.6721301 -48.023102 81.519402
-1.69451 -47.543598 76.804001
-5.1908798 -48.776798 79.594597
-5.69697 -49.0555 78.698402
-3.2316 -40.198502 91.540604
-3.7735701 -43.767601 87.782501
-3.56615 -42.661999 89.118401
-1.6964999 -47.7981 72.464996
-0.53068799 -47.821201 72.758598
-1.5914201 -47.744701 71.553398
-1.5107501 -46.307999 81.409798
-1.16202 -45.528099 82.810799
-1.90475 -46.976898 79.879303
-0.375763 -45.139801 82.487999
-0.37189499 -44.420101 83.951103
-0.38226199 -43.5368 85.4077
-0.81462699 -32.8652 96.509201
-0.75925499 -30.426399 98.4758
-0.46435201 -41.540001 88.323303
-0.47603399 -40.176102 89.656799
-0.40787399 -42.527401 86.968803
-0.56192201 -39.067001 90.888702
-0.678608 -37.4804 92.477997
-0.79584402 -34.903301 94.920197
-3.22967 -46.971199 82.0886
-0.40630499 -45.789101 81.017197
-2.8449099 -46.108101 83.371002
-3.4086399 -45.605 84.8489
-1.41757 -40.684299 90.093697
-1.59228 -42.140099 88.750099
-4.3375702 -40.359699 91.636497
-4.4036999 -38.670898 93.306503
-5.10074 -40.479401 91.681
-1.1423301 -38.674301 91.848198
-0.72812903 -36.219799 93.656303
-1.28734 -36.630501 93.869698
-2.2555399 -36.944 94.175903
-4.1058502 -39.481201 92.430603
-2.99382 -39.324501 92.309097
-3.1793799 -37.203499 94.491501
-5.3619199 -39.749298 92.600899
-3.90956 -37.326302 94.6092
-4.7632799 -37.501701 94.898697
-6.1363602 -37.7817 95.280998
-1.7476701 -38.959801 92.040199
0.0033120001 -36.003601 93.537804
-4.7918601 -39.6087 92.506401
-4.2319002 -37.430599 94.749603
-6.4661198 -40.638302 92.155197
-7.2037101 -39.2005 94.055702
-7.0208902 -37.893101 95.423103
-6.9198799 -36.371799 96.7267
-7.1105199 -34.534801 98.194298
-8.0668097 -31.893801 100.207
-6.4096799 -40.012299 92.788902
-8.9479399 -42.205399 71.975502
-8.1162004 -42.388401 71.335197
-7.4405398 -42.630199 70.713097
-6.8492599 -42.847198 70.013901
-6.3722801 -42.961102 69.311203
-1.2297 -33.930599 70.719498
-8.9666204 -39.5555 72.028397
-8.4398499 -39.7537 71.882004
-7.8488202 -40.116901 71.5438
-7.3004098 -40.559601 71.061798
-6.8179402 -41.0718 70.506599
-6.3796601 -41.556999 69.883202
-6.0862198 -42.009998 69.154701
-8.0216999 -38.533501 71.815598
-6.7323198 -37.010601 70.968102
-6.4794402 -37.3592 70.785202
-6.3801899 -37.498699 70.700302
-6.18925 -38.020901 70.382797
-5.9945998 -38.678699 69.924896
-5.8081498 -39.482201 69.318802
-0.45782 -31.0597 71.557899
-0.42969 -31.944 71.2192
-0.43650201 -32.674198 71.017303
-0.51988602 -30.0198 71.974602
-0.59989798 -28.9876 72.4198
-16.3393 -28.502501 92.9039
-15.9883 -26.094999 93.8582
-15.8491 -25.5497 92.759598
-13.957 -20.769699 90.339302
-14.5215 -22.3627 89.1987
-14.3381 -20.8631 92.002899
-14.5838 -21.739799 92.161102
-11.7333 -19.2589 86.517303
-12.9171 -20.328899 87.133102
-12.1567 -19.4368 87.202698
-12.638 -19.9079 87.480003
-10.7819 -18.641899 85.702301
-13.7764 -21.228701 88.312897
-13.4788 -20.966499 87.431602
-14.3722 -22.242201 88.760101
-14.06 -21.9757 87.633698
-14.6337 -21.5103 92.991096
-14.8335 -22.3367 93.003799
-13.6397 -21.788799 86.523499
-13.0703 -20.877501 86.419296
-12.7339 -20.428699 86.340897
-11.4204 -19.244101 85.844002
-12.835 -20.3652 86.700996
-13.861 -21.867001 87.0299
-13.3055 -20.923201 86.900299
-14.2289 -22.119499 88.244904
-13.6465 -21.1196 87.909798
-12.7695 -20.108 87.306396
-12.4594 -19.949499 86.818604
-12.4376 -20.117701 86.2714
-12.4243 -20.0263 86.475403
-12.131 -19.6661 86.669701
-12.2081 -19.983801 86.055298
-12.0507 -19.7465 86.2481
-12.4874 -19.888 87.081802
-12.3314 -19.7073 87.1175
-14.3588 -21.7822 90.183296
-15.0313 -23.294901 90.6325
-14.2041 -20.7351 91.400497
-13.6932 -20.1397 90.178398
-11.1369 -18.636 86.352097
-13.3221 -20.4942 88.263397
-13.9399 -21.3573 88.690102
-12.8843 -20.037399 87.901398
-13.21 -20.1168 88.679001
-12.9372 -19.9771 88.170303
-13.3995 -19.453899 90.030998
-10.4091 -17.936899 86.237999
-10.9358 -18.094299 86.911003
-11.8114 -18.451 87.933502
-12.5188 -19.590099 87.827003
-12.8035 -19.671101 88.349403
-12.7444 -18.9538 89.064903
-13.9895 -20.068899 91.279602
-12.3317 -18.7005 88.512299
-13.7907 -20.7013 89.782303
-13.5776 -20.502501 89.2556
-14.1208 -21.175301 90.341103
-14.8344 -22.4681 92.306503
-15.2836 -23.6565 93.138496
-15.0634 -23.1024 92.4151
-14.284 -21.5418 90.391296
-14.9578 -22.831499 91.989304
-14.43 -21.5996 91.083504
-14.2401 -21.308201 90.643402
-14.6704 -22.099501 91.651398
-14.6073 -21.9625 91.138603
-14.7301 -22.2237 91.457802
-14.4969 -21.785299 90.875
-15.3287 -23.893101 91.985703
-15.1244 -23.2785 91.868301
-14.9008 -22.661301 91.626198
-14.3842 -21.6572 90.600403
-15.1912 -23.6166 91.501297
-14.9262 -22.8974 91.1735
-14.6489 -22.219601 90.870003
-14.4039 -21.402901 91.511803
-15.0216 -22.915899 93.071899
-14.1152 -21.297701 90.043098
-14.0041 -21.151199 89.747498
-13.7669 -20.8344 89.108299
-15.0548 -23.413401 90.968498
-14.3342 -21.729 89.851303
-13.6803 -20.670601 89.167999
-13.4786 -20.4384 88.8741
-13.945 -21.064301 89.465797
-14.9492 -23.065901 90.216904
-14.2436 -21.595501 89.475601
-14.7011 -22.576799 89.676102
-14.1178 -21.501101 89.095001
-13.3394 -20.322599 88.617996
-13.1797 -19.9492 88.875
-13.452 -20.1565 89.421799
-13.1397 -19.607201 89.218102
-15.0367 -24.792601 87.759102
-14.8486 -23.6145 89.024597
-14.2135 -22.941401 86.632301
-14.3867 -23.0427 87.077599
-14.6023 -23.2845 87.749397
-14.9355 -23.717199 89.365402
-15.0493 -23.8641 89.755402
-13.5365 -20.635201 88.653999
-14.7546 -24.389 86.810303
-15.2005 -23.4916 92.334801
-14.772 -22 93.653099
-15.0671 -23.1957 93.8526
-15.5353 -24.6152 94.065002
-15.4456 -24.117599 93.131699
-15.2547 -25.155899 89.399101
-15.5878 -25.795 90.834503
-15.4634 -24.476801 91.785599
-15.2415 -24.2027 90.455498
-15.3034 -24.189301 91.251404
-15.3032 -24.3111 90.851097
-9.30832 -17.855801 84.871201
-9.8691301 -17.874901 85.572197
-9.5910597 -15.7993 87.576599
-10.3629 -16.7125 87.675903
-13.2272 -18.185699 90.740402
-9.3181295 -16.573799 86.768898
-11.6021 -17.0868 88.774399
-12.4599 -17.5371 89.695297
-11.0504 -16.818899 88.169998
-10.1861 -15.8927 88.060699
