# .PCD v.7 - Point Cloud Data file format
VERSION .7
FIELDS x y z
SIZE 4 4 4
TYPE F F F
COUNT 1 1 1
WIDTH 1701
HEIGHT 1
VIEWPOINT 0 0 0 1 0 0 0
POINTS 1701
DATA ascii
35.8955 4.7136502 104.253
35.433102 5.5362301 103.789
35.149799 6.46491 103.397
35.071899 7.1815901 103.176
35.164501 8.0679102 102.932
35.625599 8.9469805 102.805
36.314602 9.55686 102.883
37.171799 3.9176099 107.387
36.346001 4.0711899 106.998
35.590302 4.5704899 106.544
34.9519 5.3769102 106.033
34.423302 6.17342 105.542
34.2444 6.5508299 105.334
34.012299 7.3270602 105.002
33.951199 8.0655603 104.709
34.135399 8.8980303 104.523
34.726501 9.73559 104.543
35.564899 10.2994 104.667
39.6945 9.5585699 106.598
40.1777 8.8338299 104.594
40.082401 8.7134104 107.039
40.5056 8.0263395 105.05
41.0345 7.32658 102.896
40.710899 8.1079597 102.456
41.4105 6.95821 101.395
41.102299 7.6771402 101.017
41.835201 6.56429 99.834801
41.4841 7.2256198 99.487602
39.8344 6.7419901 107.668
40.332699 6.1243801 105.662
40.852501 5.4183798 103.392
41.268101 4.98879 101.938
41.760399 4.6171799 100.316
41.766102 7.0027599 98.443001
42.097801 6.3745899 98.7229
42.129002 5.4051199 98.948196
42.078499 4.3942299 99.179901
42.326099 4.1332898 98.2061
40.326099 7.6189599 97.474899
41.087002 7.5951099 97.919998
39.9226 8.0138702 98.490501
40.791698 7.9526401 98.935303
39.444099 6.1066699 107.785
39.980099 5.4503899 105.76
40.579899 4.7128501 103.508
41.0555 4.2444501 102.061
41.583698 3.8148401 100.502
41.8927 3.55216 99.391197
42.200802 3.31935 98.327003
38.848701 4.9921999 107.83
39.4627 4.4176998 105.833
40.165401 3.7848201 103.607
40.6926 3.31637 102.198
41.213902 2.8879399 100.705
41.557301 2.61919 99.619698
41.8153 2.24262 98.561401
38.132401 4.24366 107.739
38.789001 3.7566099 105.761
39.5914 3.08252 103.609
40.138901 2.6545899 102.232
40.715 2.1942 100.805
41.070702 1.86269 99.736298
40.408401 8.46068 100.422
40.007198 8.9820404 101.845
39.402699 9.7419996 103.899
38.886501 10.4448 105.918
39.3596 8.5672503 99.960602
38.818901 9.1298599 101.417
38.152199 9.9657698 103.421
37.633598 10.6862 105.297
39.041 7.9000702 98.182999
38.4636 8.4477901 99.644402
37.851501 9.0127802 101.135
37.0439 9.8485498 103.101
36.447102 10.58 104.932
29.426399 8.5105896 115.326
29.6243 8.2101498 115.529
28.6446 8.6440401 117.217
28.2812 9.0565701 117.025
30.269199 7.53583 116.043
29.5438 7.9586301 117.588
27.6336 9.4674101 117.791
27.403999 9.6274996 118.319
31.1607 6.8302398 116.464
30.516001 7.3729901 117.965
31.9956 6.41154 116.748
33.205299 6.0788002 117.036
29.434999 14.6899 118.22
29.8675 15.1237 118.65
30.2731 15.2528 118.507
30.1556 15.0372 118.02
30.9681 15.4798 118.435
31.0611 15.3618 117.933
31.712601 15.5903 118.464
31.903 15.5078 117.92
28.6765 13.8396 117.49
29.7771 14.4701 117.129
31.149599 15.1633 117.159
32.010101 15.3873 117.263
27.799101 13.0777 117.39
28.7222 13.5325 116.806
28.875 11.5025 113.918
28.2206 12.1586 115.534
28.9384 13.0435 115.626
29.454901 12.4602 113.892
30.174801 14.1701 115.736
30.5931 13.5473 113.927
31.3745 14.9 116.045
31.7722 14.2939 114.198
32.297798 15.1383 116.244
32.641499 14.5682 114.48
27.8859 12.7136 116.727
27.1544 12.3361 117.477
26.9307 11.4765 117.635
27.3755 11.9588 116.774
27.203501 11.161 117.036
27.9028 11.3637 115.751
27.790501 10.684 116.068
28.723101 10.518 114.199
28.7918 10.0122 114.392
27.0459 10.3985 117.948
27.2803 10.2097 117.412
27.9307 9.7230797 116.586
29.0618 9.1946497 114.788
30.7981 15.6378 119.203
31.4517 15.7057 119.346
30.315201 15.4202 118.937
30.901501 15.5659 118.841
31.579399 15.6558 118.888
34.546799 13.6614 119.52
34.8787 13.5303 118.809
33.927601 14.3907 118.927
34.091202 14.346 118.531
33.6721 14.9054 117.62
34.437801 14.158 117.798
35.166698 13.436 118.167
35.834599 12.8272 118.428
36.731201 12.1884 118.079
36.1231 12.684 117.749
37.248501 11.9284 116.827
36.6441 12.3675 116.442
37.322701 10.6584 118.615
37.8055 10.239 117.369
37.6814 9.3350496 117.612
36.397598 8.2637701 120.47
36.8354 7.91049 119.271
37.3279 7.5756502 117.804
35.278099 7.20895 120.182
35.592499 6.92734 119.417
36.171501 6.4663901 117.867
34.509998 6.8697 119.885
34.835499 6.6006799 119.137
35.452202 6.10919 117.636
33.9585 6.45473 118.836
34.5285 5.9358201 117.38
31.8689 15.6354 119.244
31.9506 15.616 119.61
32.087002 15.5489 118.748
32.351601 15.4748 119.222
32.383499 15.392 119.77
32.308899 15.479 118.231
32.7948 15.3251 118.588
32.829498 15.2242 119.172
32.9203 15.0041 119.862
33.077702 15.132 116.408
33.1777 14.6435 114.648
32.8657 15.2893 117.401
32.871399 15.3269 118.054
33.238602 15.1729 118.199
33.3731 15.0589 118.521
33.275398 15.0567 118.836
33.123798 15.0955 118.988
33.419102 14.7671 119.307
34.213501 13.7792 120.179
33.436001 14.4962 120.072
33.741402 14.4407 119.453
36.1255 13.0579 116.062
35.575199 13.2971 117.291
35.327702 13.8697 115.521
34.811001 14.0192 116.956
34.369701 14.4862 115.084
34.043999 14.7507 116.647
30.488001 7.9916501 113.576
31.258301 7.0993299 114.078
32.231701 6.1140299 114.607
32.7528 5.77876 114.815
33.920399 5.4625802 115.294
29.485001 10.8841 112.345
29.9186 12.0075 112.237
30.855801 12.9058 112.325
32.033901 13.6248 112.6
33.0896 13.9958 112.937
29.668699 9.54776 112.748
30.057301 8.6890202 113.121
33.8549 5.95753 107.799
33.341999 6.7790599 107.297
35.209999 4.4695101 108.835
34.4244 5.1655698 108.34
33.140202 7.2406101 107.012
32.8694 8.16642 106.59
32.853802 8.9874401 106.34
33.112499 9.7999201 106.213
33.827702 10.6033 106.345
34.7346 11.1461 106.565
33.8419 5.0341702 111.334
32.979401 5.8069301 110.807
32.329899 6.8137102 110.29
31.8515 7.64184 109.84
31.565399 8.2922096 109.516
31.2806 9.3977299 109.069
31.3883 10.4824 108.777
31.9335 11.3576 108.758
32.863499 11.9652 108.941
33.844799 12.3777 109.208
33.0546 5.55896 112.701
32.257198 6.4084902 112.098
31.5979 7.2747798 111.524
31.175699 8.0482798 111.079
30.8237 8.7643499 110.683
30.5116 9.9117098 110.275
30.7777 11.1219 110.059
31.4709 12.0204 110.099
32.4673 12.6668 110.356
33.4991 13.0617 110.697
36.2174 4.1986198 109.249
35.010601 4.5457001 111.888
33.414799 5.2414598 112.932
34.575901 4.87957 113.375
37.261398 12.1835 114.817
38.041401 11.7556 112.87
38.2827 10.5356 115.7
39.058899 10.5163 111.817
38.604401 11.2795 111.46
39.510502 9.8102999 108.973
39.3381 10.3309 108.696
38.688702 8.8790998 113.836
39.853901 8.5096197 109.419
37.622398 7.2597098 116.411
38.230202 7.5363102 114.014
38.591599 7.8722401 112.553
39.434601 7.3306298 109.668
37.403999 6.0011702 114.017
37.979301 6.3241501 112.685
36.008499 5.64955 115.929
36.573399 5.2126698 113.901
37.008099 5.1182699 112.518
37.714901 4.8070798 109.686
35.183201 5.4194002 115.71
35.751999 4.9386301 113.692
36.171001 4.7144599 112.318
37.097801 4.3744602 109.552
38.584702 11.1319 108.002
38.010899 12.045 110.926
37.485199 12.4562 112.508
36.850498 12.867 114.511
37.260101 11.5348 107.371
36.752201 12.605 110.289
36.376099 13.1116 111.825
35.849201 13.6635 114.133
35.7393 11.4384 106.881
35.2356 12.6579 109.718
35.010799 13.2872 111.227
34.676701 14.0829 113.52
31.7276 6.6967502 117.557
32.364498 6.0784001 115.805
33.077301 5.53579 113.947
34.448002 4.7582302 110.231
32.944 6.3768501 117.817
33.544899 5.75631 116.199
34.2328 5.2045398 114.426
35.528801 4.3908401 110.686
36.5009 4.5432301 111.007
37.3083 4.9499002 111.237
36.256401 5.4321899 114.972
35.4604 5.1851702 114.805
34.855999 5.6781301 116.567
35.742599 5.8771901 116.812
35.135601 6.3427701 118.417
34.236301 6.19414 118.124
30.7771 7.1539302 117.229
31.688299 6.47509 115.547
32.6161 5.8477402 113.702
33.612999 5.4923601 109.67
33.0061 6.4081998 109.169
31.726801 6.7733002 113.126
31.0221 7.67945 112.572
30.142401 8.0600204 114.587
29.9921 8.2629204 114.448
30.7806 7.3049302 115.057
29.862 7.7561898 116.843
29.1189 8.3928499 116.444
28.863701 8.7529097 116.239
29.426399 9.0145597 114.233
28.320801 9.5160599 116.048
30.554399 8.3943701 112.195
32.535599 7.2592101 108.709
35.861801 6.6806402 118.685
36.4203 6.2416801 117.027
38.373199 6.5437899 111.353
42.59 4.8983402 97.147301
41.060101 0.89465702 97.722801
40.900902 7.07792 95.800598
38.502899 2.3394301 96.552803
38.910301 1.6791 96.909897
42.390499 2.994 97.531502
42.519901 3.82461 97.384399
41.5536 1.18398 97.7463
40.1464 0.75400299 97.544701
38.572899 5.8319702 95.526199
38.373402 5.2290602 95.621498
38.267101 3.31739 96.129303
38.454201 2.9770501 95.411201
42.6306 5.8487401 95.469299
42.700699 5.70959 95.639198
42.7192 5.1891899 96.416702
42.7052 4.58252 96.588097
42.372101 6.2874398 95.582901
42.4785 6.0988898 95.437302
42.085999 6.5178499 95.3769
42.598202 6.0529099 95.884499
42.760101 5.5721798 95.809998
40.295898 7.0081501 94.731499
38.809101 5.66394 94.676498
41.223202 0.60577297 97.022102
40.472301 0.42265001 96.906303
42.728699 5.6528101 96.193802
42.547501 2.69291 96.836899
41.720501 0.93107098 97.032097
39.033901 1.3481899 96.266502
38.651798 2.0074401 95.936897
38.445599 3.95678 95.079697
38.608398 5.00033 94.824799
39.012299 6.5812602 94.620499
39.5215 6.9744802 94.652496
41.268799 6.8675799 94.903999
41.804401 6.68401 95.269501
42.300098 6.45612 96.618698
42.611301 5.9850402 96.367401
42.453602 6.2977099 96.2052
42.3368 6.4098201 95.927399
39.297001 7.0802398 95.477402
38.8326 6.71137 95.393204
42.004799 6.7243299 96.048302
41.691002 6.9503498 96.094902
40.000999 7.1776199 95.620796
38.2243 4.2309399 95.837601
42.054298 1.9248 97.649101
36.682499 10.5347 120.199
37.120399 10.328 119.266
37.337101 10.1747 118.718
37.781502 9.7842798 117.451
36.752499 9.4896097 120.325
37.219002 9.2628403 119.123
37.6991 8.9454098 117.714
36.669701 8.8892403 120.44
37.1311 8.5897503 119.248
37.612499 8.27281 117.828
36.869301 11.2918 119.204
37.2019 11.2279 118.509
37.715302 10.9589 117.216
36.457802 7.1986799 118.904
36.771702 6.9858298 118.05
36.975399 6.7864199 117.277
37.161999 6.56218 116.238
35.9146 7.7038498 120.412
36.221199 7.4001899 119.599
37.381802 11.954 114.951
38.203098 11.3782 113.043
38.7537 10.8419 111.651
37.8634 11.5818 115.227
38.543999 11.0491 113.258
38.199402 9.4177599 116.148
38.2495 9.8061504 115.964
38.872299 9.9699202 113.661
39.3009 9.44419 112.192
38.0509 8.6236897 116.316
38.420601 8.3688202 113.897
37.945202 7.99474 116.401
38.0751 9.0159903 116.233
37.313702 6.3018699 115.146
36.637402 6.00454 116.09
36.817001 5.76649 115.077
36.963699 5.4816198 113.971
37.388901 5.53866 112.607
37.919701 6.7593799 114.048
37.942501 5.7294002 111.373
38.438301 5.6953702 109.789
38.989799 6.7866998 109.731
40.1535 7.86344 107.372
39.760101 9.4277201 109.139
39.8955 9.0533104 106.868
38.9259 8.4036598 112.427
38.3736 7.1370001 112.666
38.743401 7.3622298 111.262
39.183701 7.93717 111.184
39.583698 9.0177698 110.942
39.456699 10.021 110.601
39.1759 10.3468 110.428
38.967899 10.8501 110.15
38.374199 11.5911 109.519
37.020599 12.0761 108.863
35.388302 12.0335 108.272
34.1595 11.7381 107.903
33.251999 11.3075 107.678
32.429199 10.5829 107.483
32.079899 9.7621803 107.569
32.0975 8.8347702 107.896
32.311699 7.8221598 108.385
41.756302 6.77775 99.749001
41.329899 7.21384 101.274
40.891102 7.6612301 102.709
40.339298 8.3793802 104.863
40.549599 7.23841 105.361
41.046001 6.5454202 103.137
41.4081 6.0839801 101.669
41.829498 5.6151299 100.06
36.767799 6.19277 99.7117
36.724701 5.7618299 99.836502
37.300499 5.3316598 98.4356
37.666901 5.0915599 97.385399
38.513599 4.4478102 94.946999
38.280499 4.6930199 95.724899
37.933899 4.93786 96.717201
37.463799 6.0522299 98.196701
37.855 5.84867 97.224899
38.1357 5.7424202 96.548698
38.483501 5.5998001 95.557701
38.728401 5.42626 94.725899
36.708099 5.13517 100.039
37.2948 4.6912899 98.684601
37.665298 4.40973 97.582802
37.910702 4.2424998 96.8647
38.216702 3.9279001 95.926102
38.425701 3.61377 95.188599
38.459099 3.3171799 95.295898
38.260799 3.6361301 96.029701
37.973598 3.95502 96.953201
37.7239 4.1639099 97.695503
37.350899 4.4517398 98.789101
36.765301 4.9380798 100.125
36.095798 5.38096 101.755
36.812901 4.5134001 100.277
37.407501 3.9002299 99.0047
37.8036 3.5565901 97.951401
38.0536 3.29374 97.1381
38.3032 2.9974 96.25
38.471699 2.6740601 95.568001
38.543098 2.2997799 95.781403
38.3993 2.5975399 96.4226
38.1675 2.9033 97.275497
37.926899 3.2110701 98.1306
37.521999 3.57795 99.167099
36.9053 4.2164001 100.434
36.1908 5.03056 101.911
35.314201 5.8615799 103.651
30.225401 9.1690903 111.815
29.948099 10.4075 111.304
30.317699 11.5928 111.148
31.1152 12.5172 111.24
32.1996 13.2129 111.527
33.271801 13.571 111.861
34.858101 13.7237 112.409
36.1306 13.4133 113.009
37.167702 12.6575 113.559
37.650299 12.0222 113.903
37.7915 11.7356 114.061
38.588799 10.3132 114.739
38.514198 9.3956404 114.904
38.464001 9.0843 114.968
38.1054 7.7439499 115.155
37.798 7.0170598 115.194
38.177601 11.3818 114.276
38.239101 8.3632898 115.102
38.274502 8.7187595 115.031
42.6427 3.60937 96.767502
42.688599 4.2073998 96.6604
42.283199 1.82315 96.913696
42.174198 1.57827 96.950302
39.7141 0.641249 96.644897
39.420898 0.88255501 96.499199
40.8866 0.50388497 96.9823
39.5881 0.999964 97.319
39.314602 1.2224801 97.169197
40.772301 0.81932801 97.685303
42.597099 3.1037199 96.806198
41.593201 0.83466899 97.029602
40.1889 0.43865001 96.827797
39.971001 0.79918802 97.488297
40.000099 0.49028999 96.764297
39.465199 1.27075 98.2425
39.748699 0.89252597 97.399399
39.862202 0.55839199 96.707802
40.352402 0.74770099 97.604897
38.931301 6.4291701 94.616302
39.382198 6.87995 94.639801
40.980202 6.9157 94.847099
27.878901 13.5995 118.312
28.819 14.4879 118.854
31.214399 15.7625 119.935
30.508699 15.6895 119.722
29.982 15.4174 119.371
29.3783 15.012 119.122
31.781799 15.6401 120.173
32.153198 15.4047 120.403
32.508598 15.0525 120.728
33.055199 14.5226 120.849
33.804901 13.873 120.992
34.779499 13.1964 121.07
41.930801 -3.46983 89.087402
42.367802 -3.7433901 89.475998
41.8326 -3.47859 89.335503
41.391701 -2.8122201 89.248199
41.511101 -2.8348801 88.996902
41.148499 -1.78008 89.166
41.270699 -1.84056 88.932297
42.558399 5.4490199 94.512802
42.7327 5.3148999 93.942802
42.889702 5.1405101 93.371902
42.284199 6.0828199 93.004898
38.403599 2.5671201 93.814903
38.5816 3.41716 93.749496
38.792801 3.41837 92.742798
38.6768 2.6575501 92.807999
39.132099 3.00103 91.942101
39.0219 2.51494 92.119301
39.629601 2.3222599 91.374901
38.920799 4.1783099 92.584297
38.684299 4.4746399 93.5821
38.8139 5.5962601 93.492599
43.910301 -2.0513999 87.360199
43.604 -2.2571001 86.677299
40.120602 6.6637702 91.9617
39.920101 6.72645 92.6437
40.745998 6.80688 92.9263
40.9081 6.7594199 92.287201
41.584702 6.6272898 93.247299
41.766998 6.53581 92.633102
42.1222 6.1918402 93.537903
43.363899 3.83444 93.753197
43.305 3.4828601 94.4151
43.4338 3.1910501 93.885498
43.301102 2.65184 94.553703
43.4277 2.37203 94.012604
43.0942 1.7884901 94.7854
43.227001 1.52764 94.262802
42.722599 0.93605399 95.032898
42.778599 0.58319199 94.535202
42.110001 0.100922 95.318199
42.194599 -0.19970299 94.8396
41.542702 -0.36864901 95.482803
41.6469 -0.71635097 95.060097
40.549702 -0.83396602 95.5998
40.562801 -1.25403 95.315201
43.440201 -2.23738 91.356201
43.095402 -1.65125 92.349998
43.038399 -2.3254299 91.883904
43.246399 -2.60467 91.227097
42.894299 -2.8169401 91.584702
43.064899 -3.0206101 90.966904
42.570702 -3.3619599 91.206902
42.709202 -3.44625 90.6717
42.165901 -3.52407 90.849098
42.334301 -3.5694001 90.383102
41.778099 -3.53771 90.442703
42.027401 -3.5660701 90.123497
41.320099 -3.59219 90.088799
41.7094 -3.58547 89.8685
40.7299 -3.4680901 89.944801
41.413799 -3.4812701 89.693001
40.540699 -0.410115 95.868698
39.001202 0.134683 95.440598
38.945599 -0.47652701 95.261299
38.5914 0.997428 94.973
38.3778 0.201306 94.658501
38.415001 1.90716 94.404602
38.104698 1.26617 93.778801
38.9991 -1.6714 94.804901
38.950802 -1.02924 95.079002
38.320599 -0.51121098 94.522499
38.357498 -1.35455 94.306396
37.950901 0.071734004 93.602699
37.933701 -0.88702101 93.441498
38.092999 0.413609 92.708
38.007999 -0.49801299 92.559898
38.440701 0.48126501 91.976196
38.3675 -0.257045 91.843399
39.046101 0.44204801 91.250999
38.979698 -0.101375 91.142097
39.586498 0.21432599 90.677902
39.494701 -0.268666 90.622299
40.028801 -0.61986703 90.120499
44.166 0.203146 90.958603
43.931099 1.1705199 91.972504
43.6689 0.24877299 92.175301
44.029202 -0.4226 91.088501
44.298199 -0.92738801 90.097099
44.462002 -0.41559699 89.959297
44.191002 -1.90941 90.335701
44.196201 -1.52368 90.255798
43.838402 -1.31247 91.261002
44.334999 -1.67739 89.776604
44.9389 -0.51530999 88.957603
44.641701 -0.72544199 89.406403
44.599098 -1.07759 88.967796
43.573399 -3.10744 90.282097
43.887402 -3.0273199 90.105103
44.2784 -2.6533401 89.961403
43.766701 -2.78953 90.4674
43.898399 -2.5313799 90.501701
43.305599 -3.38061 90.151703
40.947498 4.2139301 87.941399
41.1064 4.1326599 87.665802
41.396 3.17432 87.900299
41.242001 3.21683 88.167297
42.1628 5.6357398 88.7444
42.306198 5.5095901 88.400902
41.603401 5.4962301 87.984596
41.4412 5.6120501 88.306801
41.028099 5.10075 88.013
41.1777 4.9957099 87.720299
38.049702 0.92663699 93.726501
38.637299 2.50948 92.8097
40.361801 4.5942001 89.277802
40.671501 3.45031 89.102798
40.563301 3.49628 89.323997
40.303398 4.5897899 89.411301
41.2612 0.71392298 89.233597
41.0742 0.83570999 89.509804
41.085999 1.1123199 89.510902
41.2584 0.998981 89.235199
41.8731 0.72897798 88.094299
41.892101 0.44218501 88.067101
41.760201 0.492082 88.341599
41.752201 0.786107 88.369598
41.793701 -1.34998 87.933899
41.688 -2.14588 87.948196
41.652302 -1.29512 88.187798
41.652699 2.3788199 88.050201
41.503101 2.40293 88.3703
41.0569 1.5847 89.521004
40.851002 2.56177 89.533203
41.0089 2.52636 89.241203
41.201 1.57384 89.264099
41.073601 -0.15041 89.438004
41.268101 -0.278175 89.170197
41.8978 -0.42276999 87.985703
41.750599 -0.38387799 88.272903
41.6745 1.55417 88.434196
41.7943 1.55037 88.1548
38.3265 1.59964 92.865799
38.229301 1.2489001 92.8433
38.655399 1.44608 92.121002
38.558498 1.1329499 92.100502
39.244499 1.16084 91.386398
39.145599 0.87441099 91.370201
39.779598 0.82177299 90.778801
39.6838 0.54255301 90.765099
40.438301 0.34079599 90.035301
38.999401 2.4133501 92.122398
39.606098 2.23294 91.389099
40.112801 2.0613501 90.842796
40.6063 1.33349 90.147202
40.6474 1.65745 90.153099
40.572899 2.33372 90.1166
39.865601 2.66699 91.040604
40.1362 2.15959 90.8265
39.861599 2.6352301 91.070297
39.366199 3.93136 91.532997
39.290798 3.7724299 91.701401
40.271999 5.5843701 89.780197
40.7757 6.1410499 89.999702
40.3167 5.5577898 89.663803
42.1036 0.49279499 87.3424
41.891701 5.2818398 87.369202
42.118301 5.1362 86.905403
41.749001 4.4900298 86.533096
41.481899 4.7093301 87.087303
42.497101 5.3523598 87.788399
42.6745 5.2109599 87.291496
43.0513 5.1546698 88.088303
42.715 3.00106 85.6968
41.9519 4.29913 86.233299
43.0774 0.79680401 85.930496
42.784698 2.3213799 85.791496
42.098 3.3083701 85.848999
42.7369 1.6222399 85.875702
43.451401 -0.047067001 85.895897
43.486698 -0.785501 85.964203
43.6511 -1.47893 86.132301
43.1171 -2.66785 86.7117
42.8493 -3.8916399 87.262802
42.602798 -3.8150699 87.455704
43.689602 4.4223599 88.384003
43.696499 3.9288599 88.914497
43.798302 3.92168 88.462601
43.482498 4.4488502 88.916603
43.3307 4.56425 89.436401
43.592201 3.9695699 89.521599
44.057899 3.2733099 88.9123
42.809399 5.36201 89.087997
42.979301 5.2044301 88.660301
44.042999 3.3883801 88.457497
44.3251 1.88676 89.686699
44.174301 2.47158 89.642303
43.878899 3.0952499 90.631401
44.055901 2.28754 90.7742
44.398998 2.26631 89.099899
44.4748 1.7829601 89.1903
44.609699 1.70043 88.610397
44.564301 2.15803 88.583199
44.710999 1.04276 88.151703
44.735298 1.1950099 88.652
41.398399 -0.057594001 95.890999
41.386299 6.6712298 93.770699
40.616699 6.8254499 93.530403
43.623501 1.8061399 93.079102
43.696201 2.2948699 92.971603
43.909 -1.88368 86.403198
44.136002 -1.8115 87.1735
42.9086 2.78284 85.780296
39.275902 5.0583901 91.68
39.556301 4.9341002 90.869202
39.666599 3.7614601 90.8983
39.732899 6.7944002 93.403603
39.126701 6.3762898 93.444901
39.537899 6.0430198 91.792801
39.366501 6.1504402 92.455101
40.422798 6.4355502 91.025902
39.849899 5.8541298 90.897697
40.441601 2.7901299 90.094803
40.209202 3.62165 89.937202
40.066502 4.7189898 89.863197
41.1175 5.8777399 89.115898
40.6647 5.3593001 88.916603
40.533298 4.4741802 88.840897
41.820499 2.3876801 87.344398
41.580898 3.08198 87.213898
41.9879 1.55857 87.419502
41.395901 3.8658299 87.042397
41.655201 3.5589099 86.3591
42.285 2.93571 85.9702
41.861301 2.9033599 86.447304
42.584999 2.5386 86.006599
42.0896 2.4536099 86.472603
42.5924 1.65057 86.148598
42.2999 1.59611 86.569397
42.790699 0.74868101 86.092697
42.4174 0.75669098 86.506798
40.368 -2.7497001 89.875
41.122501 -2.74312 89.539703
41.882301 -2.99156 88.062599
42.138599 -3.61291 88.311699
42.463799 -3.10865 87.089699
42.837101 -3.28175 86.856003
40.0951 -1.62105 89.937103
40.885399 -1.6796499 89.410301
42.292099 -2.49155 87.081398
42.688801 -2.5896599 86.801003
42.992401 -2.1922901 86.610298
43.289501 -1.7218 86.404503
42.6772 -1.50105 86.838898
42.469398 -2.0230601 86.929497
42.2104 -2.00316 87.2201
42.269798 -1.35645 87.283699
42.264 -0.56993902 87.339798
42.685501 -0.67138702 86.648003
43.143501 -0.76721197 86.169899
42.534302 0.23310199 86.415604
43.012299 0.01267 86.066399
43.447899 0.28377101 85.876297
42.962299 0.304088 86.000603
42.010101 0.39544001 95.793098
41.948898 -1.15494 94.301399
42.489201 -0.78895098 93.808998
43.149601 0.109312 93.387604
42.681301 -1.02622 93.376503
43.479801 -0.50746799 92.309898
42.6213 1.24454 95.550499
42.967201 2.04056 95.316299
43.428001 0.94289398 93.237999
43.155701 2.9274099 95.100098
44.250999 0.60721397 90.882401
44.638 0.079287998 89.839996
42.840801 -3.71292 89.741096
42.548599 -3.9658 88.6726
41.024502 -3.6310699 90.293404
41.563702 -3.5459099 90.704597
41.263802 6.5402999 91.364197
41.952202 6.2873702 94.069504
43.0509 4.3747301 94.799103
43.1506 3.76845 94.957001
43.683899 2.6430099 92.892799
44.009399 1.69601 91.872398
43.935799 2.0834401 91.8451
44.337898 1.14399 90.7957
44.224899 1.61128 90.832497
44.701801 0.71583998 89.671204
44.5065 1.24045 89.7332
43.6185 3.10621 92.740097
43.8377 2.67137 91.726196
43.5009 3.7537999 92.577499
43.6945 3.4277799 91.578102
44.074699 2.8022101 89.620499
43.138401 4.6547098 92.322304
43.257401 4.4093399 91.311302
43.409 4.1825099 90.431297
42.0812 6.2679601 91.693703
42.361698 5.91502 90.732803
42.596802 5.6188798 89.826302
43.087399 5.0774002 89.2939
41.594799 6.2140298 90.3815
41.895199 5.8835802 89.458
42.254398 5.0267801 86.612
44.452301 -2.24822 89.792099
44.462898 -2.10657 89.578598
44.370998 -1.70565 89.241402
44.386902 -1.15188 89.6203
44.404999 -1.3616199 89.142998
44.3288 -1.52396 88.623802
44.185799 -1.66477 87.966103
44.917999 -0.18081699 89.244499
44.9622 0.71537602 88.636703
44.6096 1.20733 89.330597
44.9249 0.727382 88.981003
44.334702 3.0334001 88.412201
44.325298 2.6417201 89.012001
44.583599 2.4324901 88.453102
44.5144 2.7014501 88.403397
44.966099 0.46452901 89.168999
43.228699 4.9605899 88.7771
43.423698 4.9006 88.248802
40.558399 -1.78025 94.982201
39.8526 -1.84017 95.015701
40.566898 -1.67796 89.625198
40.762901 -2.72857 89.722198
41.0667 -3.47312 89.845703
40.465302 -1.09118 89.724602
39.758499 -1.13833 90.250603
44.1143 -1.84708 88.028099
43.998699 -1.94076 87.374001
43.771702 -2.1382799 86.644302
43.1436 -1.9900301 86.537498
43.289299 0.44866601 85.867104
43.690498 0.493734 86.019501
44.120201 0.75968897 86.772903
44.3438 0.97667003 87.371696
44.4818 1.1908799 87.740196
43.737499 3.11625 86.388199
43.368 3.00899 85.964996
42.839901 2.8844299 85.756599
42.440701 2.7568901 86.006699
38.648499 3.9979501 93.6614
38.7323 5.1166301 93.523399
43.4659 2.8611701 93.925201
43.319599 3.1512201 94.4627
43.1675 3.4374599 95.019096
42.9072 5.20719 90.032402
42.651901 5.5373402 90.932404
42.5042 5.83991 91.923203
43.180599 4.7017899 90.244499
42.959 5.02351 91.134003
42.800999 5.3532801 92.1063
42.605301 5.6255398 93.2005
43.852402 3.33829 89.576797
43.660702 3.6106701 90.536499
43.487701 3.9028101 91.451698
43.3288 4.18887 92.457298
43.140598 4.5583801 93.568703
43.010899 4.6902499 94.131302
43.180599 4.2248402 94.2379
43.307301 4.0868001 93.694504
42.8568 4.8424201 94.711197
44.001701 -2.3438599 90.456703
43.653301 -1.79126 91.312202
43.316002 -1.07136 92.333199
42.560699 0.28762001 94.654503
42.476601 0.59854198 95.150002
42.3829 0.886401 95.6548
42.869999 -0.475247 93.444099
42.811001 -0.35932899 93.612503
42.185902 5.9821601 94.252701
42.330399 5.9022198 93.687302
42.4529 5.8456502 93.109299
42.597099 5.6918702 91.979698
42.708 5.5111599 92.047699
42.772598 5.3400502 91.012199
42.857601 5.1999102 91.068703
42.9949 5.0499101 90.100601
43.091599 4.8722501 90.176003
43.153 4.94033 89.332199
43.235901 4.7657499 89.380997
43.402599 4.6185699 88.881897
43.3237 4.9491901 88.569901
43.5765 4.4909201 88.678902
44.2556 2.8480101 88.971703
44.014999 2.98349 89.607803
44.181499 3.0262799 88.938599
43.9389 3.1628001 89.592697
43.8181 3.2711201 90.601097
43.744701 3.4421699 90.569298
43.6362 3.5913301 91.537201
43.568199 3.7502601 91.495598
43.452801 3.91892 92.534599
43.396 4.0573001 92.497704
43.262299 4.2530499 93.657501
43.208599 4.40835 93.611801
43.139099 4.3912902 94.206497
43.077301 4.54565 94.174698
43.000599 4.5401101 94.7733
42.938599 4.6979699 94.7425
44.306499 3.02882 88.661697
44.448399 2.7269299 88.679298
43.163601 3.2683101 95.047302
43.159801 3.0969999 95.068802
43.313801 2.98664 94.495399
43.307598 2.81861 94.5243
43.457001 2.6968601 93.955399
43.442501 2.53248 93.983902
43.690399 2.1249101 93.014297
43.655399 1.95187 93.049202
44.001499 1.51728 91.903603
43.9664 1.34216 91.936996
44.337601 0.97040403 90.820999
44.2929 0.77171397 90.852097
44.709301 0.49200299 89.755501
44.680199 0.31406999 89.802101
44.962399 0.26609701 89.214302
44.946301 0.055840999 89.239799
45.100601 0.256201 88.752296
45.0653 -0.218972 88.831001
42.948299 -0.17616799 93.520401
43.4342 -0.70099199 92.327599
43.379501 -0.89532602 92.334801
43.792599 -1.46469 91.284103
43.728401 -1.63225 91.301903
44.1483 -2.0675299 90.381897
44.082901 -2.1997099 90.4207
44.4161 -2.3768699 89.866302
44.357498 -2.5236001 89.918098
39.503601 -1.7792799 94.957802
39.770401 -0.42015699 95.739304
39.741001 -0.834714 95.532204
39.891499 -1.2830499 95.320999
40.059601 -1.82838 95.013298
39.4347 -0.29514399 95.6446
39.4282 -0.74857301 95.458298
39.4505 -1.21367 95.259697
39.6614 -1.81497 94.988602
40.979599 -0.252817 95.889801
40.968899 -0.67461199 95.569
41.248501 -1.57674 94.765701
41.181702 -1.01982 95.2117
42.824402 5.1247201 94.007896
42.7463 5.0796399 94.637604
43.046902 4.84373 91.187103
42.971901 5.0127802 92.210899
42.652 5.2778502 94.574898
42.890999 5.1766801 92.162003
42.794399 5.3143902 93.318703
42.699299 5.48386 93.257301
42.616199 5.49541 93.876999
42.446098 5.6167998 94.441704
42.517899 5.6369901 93.812698
43.946201 2.78795 90.685204
43.755501 3.1051099 91.641602
43.5578 3.4516201 92.646301
43.148201 5.0594501 88.727303
42.9991 5.1817398 89.222504
42.804901 5.3586402 89.955704
43.022701 4.86761 93.471901
42.922401 4.9108 94.074097
43.236698 3.9769599 94.3004
43.102299 4.0711198 94.877701
43.8447 0.86526799 92.039001
43.553398 1.49094 93.1381
43.3536 2.0355 94.112999
43.2355 2.3533001 94.6315
43.090599 2.61271 95.174698
44.105801 -2.8274 90.032204
43.217098 0.311111 93.351799
43.058601 1.11968 94.378899
42.986698 1.50842 94.869698
42.910301 1.89432 95.359802
42.968201 0.92985803 94.429703
42.827599 1.69323 95.420502
42.899502 1.3144701 94.9245
43.0485 -0.045258 93.457298
42.889 0.761944 94.475403
42.804001 1.10229 94.984596
42.698898 1.41907 95.498703
43.550999 -2.0099299 91.345802
43.221298 -1.31809 92.349403
43.895901 -1.0409499 91.207703
43.545399 -0.24579599 92.263603
43.303501 0.57102901 93.304802
43.1628 1.34387 94.317703
41.669102 -0.26785201 95.4478
41.685799 0.143539 95.8536
41.601601 -1.40096 94.564301
41.928398 -0.47315201 94.9347
41.937 -0.048234001 95.370499
41.4814 -0.83257401 95.118698
41.5606 0.048921999 95.874199
41.419601 -1.49552 94.672302
41.3708 -0.47676501 95.516899
41.322399 -0.93665701 95.171402
41.2589 -0.129142 95.894997
41.225201 -0.557042 95.5411
41.102699 -1.63138 94.827103
40.922798 -1.13009 95.260101
40.891201 -1.70784 94.914398
43.409 3.50511 93.822998
43.279202 3.6687 94.372498
40.271198 -0.86257601 95.588997
40.271099 -1.27425 95.320198
40.247299 -1.81089 95.004204
40.262501 -0.451332 95.835197
40.061699 -1.27977 95.320198
40.076401 -0.86162901 95.572098
40.064301 -0.44831601 95.8004
39.914902 -0.85794097 95.557404
39.918499 -0.43846601 95.771103
39.7076 -1.27088 95.307098
44.175098 -1.8217601 86.741997
42.724998 5.31568 88.250801
42.054699 5.47401 87.900398
42.398201 5.4335098 88.108704
42.594898 5.4229202 88.719398
42.665199 5.3705802 88.523499
43.208698 5.0696802 88.3759
43.0037 5.1833901 88.335297
42.8801 5.1869502 87.710602
42.789398 5.2625499 87.958504
43.5616 3.1291699 86.159203
40.715698 2.57217 89.805298
40.834099 2.01126 89.797096
40.748001 2.38852 89.8116
40.271301 2.5149801 90.518501
40.5172 2.56147 90.146599
40.5583 3.0859599 89.650101
40.6581 2.74575 89.764999
45.021301 -0.476818 88.718697
45.121799 -0.059434 88.630898
45.0849 -0.28291699 88.677299
45.003799 -0.30971 88.980904
45.0214 -0.39549601 88.850403
44.7798 -0.78479701 88.990997
44.923901 -0.64042401 88.806396
42.654202 0.48757401 86.208397
43.013802 0.45947799 85.951401
42.846901 0.47589901 86.045097
42.754902 0.210521 86.181297
42.717701 0.312307 86.175697
42.278 0.49175799 86.843498
42.470402 0.493516 86.431198
42.519299 1.1827199 86.3302
42.585701 0.780617 86.273697
42.384701 -0.15185 86.932198
42.3148 0.27393901 86.841003
42.200802 1.09957 86.949402
42.256802 0.695162 86.855598
43.230701 0.16158099 85.9319
42.996201 0.175247 86.014503
42.831902 -0.26029301 86.308601
42.7803 0.068875998 86.211197
41.806301 1.984 87.813103
42.043999 2.01107 86.944298
41.913799 1.9977 87.3937
41.9259 1.06862 87.818604
41.870899 1.55086 87.840698
41.694801 1.97557 88.248199
41.736 1.97684 88.105003
41.611 2.7551799 87.690002
41.7234 2.3817 87.756897
44.710098 -1.02031 88.677399
43.817101 -2.0901599 86.988098
43.9636 -2.0058999 86.935097
43.903 -2.0619199 86.952904
43.994701 -1.93768 87.727303
43.914299 -1.9835401 87.378502
43.855301 -2.14851 87.060898
43.790401 -2.1108999 87.028702
43.455002 -2.17309 86.526901
43.672199 -2.1817999 86.6744
43.621101 -1.7243 86.259499
43.4165 -1.2041 86.114098
43.5135 -1.54312 86.198799
43.824402 -1.68718 86.2117
43.736301 -1.70526 86.231903
43.5737 -2.0339301 86.4888
43.6036 -1.95163 86.455101
44.306099 -1.66752 87.502502
44.401402 -1.4745899 88.109802
44.318298 -1.59021 87.819504
44.16 -1.74544 87.522598
44.285801 -1.7427599 87.131798
42.586498 -2.33603 86.813698
43.124699 -2.4014299 86.660202
42.8522 -2.38308 86.686203
42.503201 -2.5488999 86.888
42.310501 -2.24822 87.050102
42.395699 -2.2673299 86.963699
42.747101 -2.0470099 86.726799
42.693401 -2.1331301 86.753304
41.9809 -2.2237899 87.492203
42.230099 -2.2403901 87.148399
42.404701 -1.72045 87.043999
42.331501 -1.98246 87.064301
41.971699 -1.73291 87.6045
41.9771 -2.0492499 87.5214
42.061501 -2.7297599 87.5177
42.008999 -2.42435 87.471603
41.696098 -1.7102799 88.0345
41.748798 -1.74252 87.909798
42.0462 -0.93419403 87.672302
42.0103 -1.3525701 87.626999
42.234901 -1.70533 87.251999
41.801201 -0.89085001 88.086502
41.854698 -0.900383 87.960297
42.0261 0.0080709998 87.734802
42.057301 -0.48618501 87.704399
42.496201 -1.05099 87.012299
42.286999 -0.98727697 87.317497
39.3629 0.56008601 91.021698
39.637299 0.40086201 90.724602
40.0387 0.39809999 90.403603
41.855301 0.08427 88.138603
41.9063 0.066140004 88.030899
41.967999 0.55220097 87.807899
41.979801 0.405543 87.792297
42.196301 -0.073555 87.338997
41.174301 -0.44330299 89.3228
42.5597 -3.95368 88.043999
42.732601 -4.0770702 88.269798
42.656799 -3.8813801 89.194099
42.701 -3.99389 88.812798
41.8694 -3.5243299 90.818398
42.2873 -3.4665899 91.2379
42.075401 -3.5129299 91.049896
41.742599 -3.5500801 91.017899
41.7733 -3.5281 90.942101
41.429298 -3.56936 90.373802
41.658298 -3.5344801 90.582497
42.0756 -3.54036 90.474899
41.971802 -3.53338 90.6465
42.519699 -3.31282 91.463898
42.464001 -3.37679 91.404999
42.447399 -3.4992299 90.810799
42.368198 -3.4837601 91.0243
41.1306 -2.2530501 89.325996
41.033298 -1.7295901 89.281097
41.4529 -3.1914501 89.444099
41.2757 -2.7792001 89.391098
40.8218 -2.1907799 89.567001
40.9827 -2.2098899 89.460602
41.2976 -2.3080201 89.122101
41.242699 -2.2978699 89.1978
39.523102 6.5320001 92.845299
39.321098 6.4934602 93.211601
39.434299 6.5478902 93.099701
40.2402 6.8316598 93.105103
39.833 6.7511702 92.987198
39.688999 6.4658899 92.219498
39.602402 6.49754 92.535103
39.3092 6.2220402 92.710197
43.958 0.56273401 86.3964
43.620399 2.98913 86.155296
43.8367 3.0813999 86.699402
43.7757 3.0350201 86.3993
43.121601 2.9085 85.817802
43.389599 2.9562399 85.9617
43.591202 3.0591099 86.1558
43.6399 -1.1404001 86.013199
43.738499 -1.44885 86.105202
44.011902 -1.83033 86.404198
43.364601 -2.46454 86.672203
43.584499 0.175341 85.892601
43.5495 -0.39842299 85.897202
43.562 -0.056609999 85.880699
43.4506 0.164419 85.8881
43.5616 0.386031 85.886803
43.606499 0.301873 85.890198
43.8741 0.67268401 86.349098
43.4217 0.52236098 85.8647
43.642502 0.546731 86.0009
44.196701 0.977974 87.047203
44.075298 0.83338797 86.738297
43.916302 0.61873502 86.369003
43.061298 0.63782698 85.938202
43.221199 0.58932 85.885597
43.258801 0.68203801 85.896103
43.3391 0.62030298 85.887001
43.496399 0.44825399 85.876198
43.909302 3.1744399 87.302002
43.8643 3.1289301 87.014
43.760502 3.20749 86.589203
43.7925 3.1587701 86.674004
43.147099 2.81672 85.818298
42.805599 2.6175599 85.800201
42.9282 2.73208 85.755096
43.123901 2.8558099 85.814598
42.5853 5.03859 86.557404
42.037701 4.7205701 86.417503
42.299599 4.9612999 86.474297
42.473499 5.1639099 86.898102
42.540401 5.0996099 86.721901
41.963699 4.8429899 86.629501
42.2113 5.0929699 86.757599
42.293201 5.2989998 87.314201
42.389099 5.2322602 87.093903
42.907799 5.0955 87.156303
42.7327 5.15418 87.072701
44.180901 -1.90443 88.339203
44.0863 -1.9283 88.010101
44.057999 -2.1151099 87.574799
43.999599 -2.01771 87.696999
44.048199 -1.8410701 87.688103
44.0312 -1.88039 87.719902
44.467499 1.0097899 87.650703
44.4403 0.95541799 87.5783
44.275398 0.78174102 87.121002
44.361801 0.862091 87.350998
44.164501 0.68502998 86.805801
44.238098 0.87603599 87.088699
43.694599 4.2033 88.608803
43.639 4.2463498 88.751602
43.528198 4.69664 88.466499
43.631199 4.6357098 88.164101
43.5774 4.6717401 88.321899
43.3755 4.9208798 88.410896
43.474602 4.7137899 88.600304
43.639801 4.4500198 88.533501
43.7803 4.1513 88.251099
43.7323 4.3899798 88.223602
43.329601 4.9960599 87.9832
43.487301 4.85743 88.080597
43.1404 5.09023 87.862297
43.252499 5.0492101 88.176498
43.1861 5.0747299 88.538101
42.943298 5.1308599 87.483498
43.958801 3.20994 87.541199
43.6814 -2.95123 90.390602
43.777802 -2.98962 90.261597
43.7766 -3.2358999 89.884003
43.750198 -3.09039 90.145203
43.926601 -2.79039 90.288696
43.838699 -2.8993001 90.297798
43.4949 -3.4289701 89.807404
45.07 0.41390401 88.481003
45.1241 0.192627 88.567497
45.039299 0.037772 88.986198
45.095699 -0.019957 88.779198
45.015099 0.54799402 88.875397
44.82 0.98085201 88.886902
44.9398 0.76051497 88.845001
44.8176 0.77123898 89.297798
44.9436 0.63056499 89.081001
45.047901 0.383322 88.946404
45.0518 0.48847201 88.675903
44.8521 0.87061 88.390198
44.972599 0.63071299 88.413399
44.801899 0.93240601 89.112198
44.662498 0.94310999 89.517403
44.839901 0.58584899 89.425102
44.421501 2.8819001 88.525902
44.202599 3.1770101 88.599602
44.325901 3.0383799 88.537399
44.384899 2.8914499 88.654701
44.535099 2.60798 88.509499
44.4884 2.7289701 88.528503
44.453701 2.8270199 88.2724
44.4389 2.8659699 88.403503
44.499802 2.48669 88.683296
44.528 2.5529399 88.5793
44.585999 2.5072701 88.276802
44.566399 2.5536599 88.4095
44.472401 2.3152201 88.830597
44.479 2.38537 88.775703
44.608898 2.2378399 88.3601
44.574402 2.31896 88.524696
44.411201 2.65698 88.811401
44.614498 2.3663399 88.311699
44.5998 1.87799 88.374397
44.597301 2.0868499 88.391998
44.516102 2.0283699 88.872704
44.490898 2.19209 88.855003
44.362499 2.4737201 89.052597
43.8866 3.6182599 88.6912
44.0564 3.3505399 88.667198
44.211601 3.13006 88.735199
44.2085 3.1565499 88.263
44.194401 3.19768 88.435097
44.347401 2.9947701 88.282204
43.920101 3.60537 88.247902
44.053699 3.34658 88.241699
43.9021 3.6392701 88.469398
43.7556 3.9291699 88.670998
43.847301 3.6351199 88.911598
43.980801 3.32651 87.798103
44.578701 1.1698101 87.939697
44.665001 1.38107 88.364304
44.632999 1.28503 88.128098
44.793701 0.75730997 88.0494
44.647598 0.984761 87.9711
44.516201 1.07139 87.779503
44.517899 1.41452 87.874496
44.537498 1.32222 87.901604
44.5975 1.53111 88.923302
44.658401 1.44985 88.634903
44.556499 1.74567 88.894798
44.501801 1.6519099 89.210999
44.6964 1.22006 88.936501
44.8452 0.950486 88.642899
44.824299 0.806041 88.170898
44.741199 1.12389 88.383202
44.868999 -0.48209101 89.153099
44.667301 -0.32003599 89.620399
44.779301 -0.41727799 89.371399
44.809601 -0.63776702 89.1362
44.945 -0.36272901 89.084503
45.009998 -0.205202 89.019997
44.535 -0.218593 89.910202
44.4184 -0.84728301 89.7929
44.550598 -0.57101798 89.696503
44.7766 -0.056419998 89.549896
44.457901 -1.30931 88.821701
44.496201 -1.0828201 89.3069
44.483002 -1.20892 89.072998
44.335201 -1.60167 88.950996
44.376099 -1.44638 88.8936
44.4132 -1.39685 88.577301
44.566002 -1.19838 88.739899
44.477402 -0.95553303 89.540802
44.368698 -1.46591 89.446297
44.4072 -1.26184 89.383598
44.623699 -0.92937398 89.185402
44.346199 -0.75844002 90.050201
44.289398 -1.36236 89.952301
44.346401 -1.03923 89.8582
44.2244 -1.72338 88.339699
44.195 -1.8339 88.342499
44.368198 -1.53127 89.198097
44.355202 -1.858 89.063004
44.332802 -1.74774 89.014099
44.282001 -1.66965 88.676003
44.341599 -1.41681 89.698799
44.415199 -1.88598 89.473701
44.373699 -1.6793 89.4804
44.226002 -1.31796 90.201302
44.258598 -1.7133 90.055901
44.260799 -1.58707 90.029701
44.374901 -1.99646 89.866096
44.401402 -1.92061 89.6726
44.489899 -2.1807201 89.424599
44.462299 -2.05825 89.447304
44.406502 -1.87122 89.280296
44.345001 -2.0894001 90.014801
44.504902 -2.3197 89.559196
44.461498 -2.1800699 89.695999
44.2896 -1.83073 90.024696
44.498001 -2.2369399 89.492996
44.5051 -2.39116 89.628197
44.2771 -2.88083 89.774902
44.353001 -2.7871201 89.762703
44.202202 -2.73611 89.992996
44.063 -3.0766101 89.841003
44.1745 -2.9798801 89.807404
42.4249 3.1414399 85.6688
41.818802 3.8919799 86.210297
41.8601 4.3531499 86.348297
41.9958 4.8000102 86.536903
42.126099 4.6279898 86.258499
42.0816 4.65065 86.3134
43.014301 3.0703001 85.762802
41.779499 4.9326601 86.928703
41.8941 4.8800101 86.735298
42.876099 2.5029299 85.728798
41.6534 5.7801099 88.8526
41.866699 5.6108599 88.357002
41.790901 5.6700101 88.5271
41.037102 5.5300002 88.520203
41.291302 5.7235498 88.661598
41.3349 6.0746799 89.7136
41.4911 5.9225602 89.269302
42.3867 5.62391 89.2472
42.040401 5.7437801 89.056297
40.945 6.0127101 89.545799
41.005001 6.3924799 90.679398
41.174999 6.23072 90.183296
42.1502 5.8962898 89.9925
41.764702 6.02493 89.852898
40.285198 6.0472498 90.4142
40.602501 6.2850299 90.512901
40.6497 6.6795101 91.672699
40.828201 6.5447898 91.181602
41.875099 6.2209001 90.922798
41.4548 6.3611002 90.812599
42.2575 5.7678299 89.643997
42.705799 5.4779801 89.428001
42.499599 5.5107799 88.927902
41.9841 6.0917501 90.561401
42.5327 5.6880898 90.043503
41.522701 6.5542002 91.949097
41.677601 6.4320302 91.532501
42.289398 6.0089302 90.9888
41.234501 6.7128401 92.798203
41.333401 6.6691198 92.459297
41.974899 6.3712401 92.0103
41.082401 6.6680698 91.830803
40.163601 6.8440199 93.441002
41.0993 6.7521701 93.373802
40.682999 6.8171902 93.225502
40.392502 6.8046999 92.462898
40.315498 6.8164101 92.775398
39.934799 6.3215699 91.428902
40.259602 6.56987 91.521301
40.495701 6.7680202 92.114799
42.5755 -3.6395299 90.077003
42.619999 -3.7657599 89.596497
42.222401 -3.7262599 88.9058
42.451698 -3.8492999 89.064697
43.111301 -3.7260599 89.507698
42.865002 -3.8387401 89.323502
42.9921 -3.40961 90.381104
42.782902 -3.5660601 90.2257
42.5187 -3.54057 90.519997
42.389 -3.6545999 89.9608
42.1884 -3.6484001 89.8265
42.183102 -3.5694101 90.257103
41.2929 -3.64024 90.5868
41.323399 -3.58987 90.483101
40.8041 -3.6035099 90.084
41.154301 -3.6018701 90.205101
41.710701 -3.56144 90.151001
41.569302 -3.5655401 90.2621
40.595402 -3.717 90.2174
40.6325 -3.6468201 90.152901
40.256302 -3.2179699 89.968803
40.4762 -3.49986 90.006302
41.089901 -3.5730901 89.974098
40.986 -3.5788 90.017601
41.709801 -3.5318 89.549301
41.801998 -3.5616601 89.589798
42.110001 -3.61444 89.3078
42.083801 -3.61993 89.374702
42.008801 -3.6424699 89.710403
41.878101 -3.5829799 89.983002
42.151402 -3.64802 89.191101
41.807899 -3.2471299 88.658401
41.999599 -3.5211301 88.760201
42.341999 -3.8317599 88.491203
42.257801 -3.43065 87.660103
42.368301 -3.7326601 87.8312
42.8508 -4.01967 87.4851
42.775101 -4.0256901 87.679001
43.341099 -3.57412 89.689102
43.070499 -3.57162 89.941399
43.200298 -3.21085 90.5373
42.818901 -3.1849101 91.088501
42.888699 -3.25787 90.819
42.702099 -3.00453 91.655899
42.592899 -3.2004499 91.5289
43.285198 -0.36186999 85.989998
43.249599 -0.014541 85.9636
43.252602 0.34363601 85.895103
43.229 0.27061501 85.914299
42.7761 1.1998301 86.020203
42.909801 0.84008402 86.012604
43.042301 0.55912501 85.9468
42.669498 2.06358 85.942299
42.681999 1.64042 85.9935
42.9006 1.20771 85.8657
42.860401 1.20347 85.9151
42.659302 1.19533 86.164398
42.3876 2.0833299 86.281197
42.560299 2.1078401 86.096603
42.719601 2.4117899 85.877197
42.761101 1.98151 85.785599
42.7313 2.0051899 85.834
42.8507 2.5339799 85.749397
42.688999 2.75471 85.857803
42.743999 2.6968 85.847
42.301899 2.57968 86.223297
42.526402 2.6854701 85.998901
42.578602 2.86603 85.827599
42.635101 2.8041601 85.850304
42.876099 2.83406 85.775497
42.4067 3.0451901 85.796303
41.945 3.1349399 86.095398
42.177799 3.0834501 85.891098
42.4077 3.1012299 85.714104
42.499199 2.94889 85.816498
39.682701 -0.71741802 90.382599
39.608799 -1.00986 90.394402
38.787601 0.775859 91.669701
39.096298 0.68290299 91.317398
39.4422 0.80777198 91.084198
39.411301 0.72202402 91.069199
39.2743 0.12990201 90.916801
39.313301 0.35400501 90.962097
38.307899 0.89209002 92.405197
38.501801 0.84375602 92.0457
38.8699 1.12994 91.7435
38.839401 1.01389 91.725098
38.692902 0.17964301 91.546402
38.733398 0.47753301 91.602097
38.034698 0.76785499 93.212799
38.165699 0.879592 92.783203
38.406399 1.37778 92.483101
38.372002 1.2265199 92.463799
38.183102 0.051770002 92.268402
38.238098 0.47025201 92.332397
38.1017 0.209077 94.1605
37.9916 0.54608101 93.675003
38.1297 1.31486 93.292397
38.0965 1.1528 93.271797
37.934299 -0.20169801 93.063599
37.976002 0.280265 93.136597
38.0802 -0.655626 94.003304
38.0821 -0.209365 94.089104
38.6199 -0.433025 94.922699
38.327702 -0.15636501 94.5942
38.1614 0.64371097 94.236298
38.139599 0.52846903 94.220596
38.9426 -0.64722002 95.207199
38.716301 0.225664 95.119301
38.6404 -0.165104 94.991096
38.636799 -1.09375 94.734901
38.6199 -0.78012103 94.831497
43.458 -0.38979799 85.919098
43.337399 -0.78432 86.036201
43.067501 -0.31528801 86.120102
42.965698 -1.1631401 86.450996
42.917198 -0.72174501 86.373802
42.599098 -0.209703 86.570503
42.4697 -0.63665998 86.979202
43.213501 -1.22009 86.249901
43.557499 -1.16215 86.039803
42.711899 -1.10421 86.718597
42.925201 -1.7006201 86.6605
42.961102 -1.58076 86.617302
42.463402 -1.39047 87.0504
40.775002 -0.133564 89.672997
40.101101 -1.08455 89.992302
39.921799 -1.31122 90.094498
39.8964 -0.87400597 90.184502
40.2785 -0.84657401 89.897697
40.323601 -1.4602799 89.776497
40.274601 -1.28589 89.8321
42.84 -1.88105 86.695
42.5853 -1.7841901 86.873596
41.623798 -1.7068 88.126503
41.520599 -2.44942 88.534698
41.436001 -1.99067 88.524696
42.781101 -1.98482 86.713303
42.890301 -1.77329 86.672203
43.131599 -2.0927999 86.550499
43.520401 -2.10481 86.506599
43.317101 -2.2639501 86.576698
42.775902 -2.9078 86.823997
42.922901 -2.62521 86.746597
43.3046 -2.4344299 86.674797
43.012001 -2.9787099 86.723
42.946999 -2.95485 86.762299
42.696499 -3.5697701 87.098099
42.6982 -3.22962 86.930496
42.59 -2.83535 86.894402
42.322201 -2.7764299 87.128998
42.1675 -3.0808799 87.5606
41.758598 -2.5989799 88.006302
41.650501 -2.8949599 88.584
41.364399 -2.3403499 88.952301
40.445 -2.1882999 89.770897
40.737598 -3.17014 89.831902
40.5816 -2.7317901 89.793999
39.915501 -2.24702 90.068901
40.209202 -2.2056401 89.900902
40.367599 -1.69761 89.751999
40.644001 -2.18752 89.663498
42.8531 -3.6312301 87.004097
42.810501 -3.6136401 87.035301
42.7509 -3.8556199 87.289497
42.508598 -3.5076399 87.278
41.992802 -3.3329699 88.167
41.661201 -3.1930699 89.189201
41.708199 -3.2035 89.031601
41.594799 -3.1934299 89.279099
41.616699 -3.46136 89.504204
41.0891 -3.1782899 89.710999
41.270699 -3.1849301 89.611603
40.909901 -3.1719799 89.775299
40.900002 -3.46209 89.889
40.531898 -3.18032 89.892502
42.048599 1.06108 87.393898
42.139198 1.57333 86.964798
42.363899 1.15678 86.577499
41.805698 2.7070799 86.8759
41.9268 2.3973 86.910896
42.199501 2.03619 86.546997
41.5844 3.3230901 86.735603
41.692699 2.99948 86.832497
42.176899 2.7138801 86.2341
41.9687 2.6916399 86.483498
41.704399 2.7376101 87.288101
41.338799 3.56903 87.486
41.467201 3.4581001 87.1157
41.521 4.13589 86.705399
41.516899 3.70452 86.693199
41.73 3.20929 86.379204
41.2323 4.4678798 87.3778
41.3979 4.30265 87.030602
41.614498 4.5624099 86.790604
41.6511 3.99703 86.428497
42.458698 1.62999 86.319603
42.3452 2.4453399 86.225998
42.2365 2.63468 86.225998
41.855999 3.4453499 86.092598
42.1133 2.8532701 86.211601
42.054798 2.9369199 86.177002
42.025398 3.8076 85.967903
41.959599 3.8241701 86.056702
41.171902 3.6725199 87.879501
41.229698 3.64555 87.768501
41.240898 4.01894 87.393303
41.478901 3.1387601 87.6026
40.8321 3.81479 88.462303
41.070599 3.7064199 88.0373
41.1311 2.87919 88.707298
40.977699 3.31444 88.590202
40.571899 3.98998 88.946602
40.7645 4.8077402 88.365196
40.745201 4.32972 88.3713
41.022598 4.6452599 87.775101
41.092999 4.5940599 87.657303
41.487499 5.1852298 87.532997
41.315399 4.8678598 87.429398
40.866699 5.2184 88.422997
40.939098 4.69028 87.940804
40.4109 5.0406299 89.216202
40.5644 4.9464698 88.856003
41.272301 5.3599701 87.967003
41.348801 5.30231 87.826897
41.740799 5.3952298 87.690102
41.647999 5.0450301 87.202904
41.191601 5.4158001 88.135498
40.846401 5.6816602 89.013298
41.808899 1.10233 88.249702
41.8428 1.09121 88.127197
41.9547 0.68864202 87.816498
41.502399 2.77107 88.112
41.5397 2.76578 87.995399
40.303299 4.09799 89.539299
40.424301 3.5508399 89.5662
40.775799 3.0100601 89.311996
40.709999 3.02788 89.408203
40.039799 3.19734 90.487503
40.328098 3.1512301 90.015701
39.842701 4.2631698 90.372902
40.113098 4.1752701 89.884804
40.210499 5.0908899 89.651497
40.2201 4.61027 89.561203
40.462299 4.0251899 89.239098
40.417999 4.0433002 89.327698
40.488998 4.02107 89.1567
40.435398 4.5394802 89.0812
39.8871 5.3104701 90.340401
40.1203 5.1427398 89.8256
40.2668 5.10183 89.531998
40.2439 5.06563 89.566299
40.308399 5.092 89.442299
40.480099 5.4883099 89.341904
40.397099 2.0655 90.464104
40.391499 1.81707 90.497299
40.419601 1.89103 90.459702
40.336601 2.2650399 90.479698
40.650902 2.00264 90.106697
40.048401 5.7111101 90.363998
40.100601 6.1967402 90.940201
40.479599 5.8854599 89.869202
39.485901 5.5212402 91.334801
39.657101 5.43505 90.875298
39.8153 4.8334899 90.343803
39.403801 4.4089298 91.272301
39.577202 4.3456602 90.878502
39.930801 3.68835 90.423203
39.641899 3.3048799 91.158997
39.770302 3.2727499 90.923798
40.158798 2.80077 90.531998
39.982601 2.45292 90.945801
39.834301 2.3806701 91.1362
39.473099 2.94857 91.490196
39.7052 2.5864799 91.258301
39.978901 2.4274099 90.968697
39.8946 2.2378199 91.083504
39.577499 3.26913 91.318298
39.586201 3.32284 91.272301
39.489799 3.8494699 91.236
39.336899 2.5387101 91.698303
39.3885 2.7604301 91.611099
39.0219 3.59728 92.189003
39.226002 3.33253 91.797501
