# .PCD v.7 - Point Cloud Data file format
VERSION .7
FIELDS x y z
SIZE 4 4 4
TYPE F F F
COUNT 1 1 1
WIDTH 1657
HEIGHT 1
VIEWPOINT 0 0 0 1 0 0 0
POINTS 1657
DATA ascii
-5.0763402 -21.5439 2.20263
-5.1276598 -21.3885 2.3702099
-5.23806 -21.3657 2.7773299
-5.1753602 -21.198799 2.5399499
-4.9200702 -21.3388 2.05439
-4.9547701 -21.193501 2.20839
-4.6445699 -21.1842 1.91992
-4.6880202 -21.039301 2.09358
-5.0092301 -21.034901 2.36992
-4.7671199 -20.9023 2.28756
-4.2750702 -21.1436 1.83073
-4.3598399 -21.0175 2.04546
-3.9238901 -21.235901 1.80691
-4.0492802 -21.119801 2.0379901
-4.47542 -20.8804 2.2788601
-4.1879902 -20.9706 2.2822399
-3.6945701 -21.4576 1.86681
-3.81622 -21.3372 2.0738001
-3.9474699 -21.169001 2.2804799
0.267055 -22.375799 0.228043
0.62694299 -22.3678 0.233156
0.29999599 -22.520599 0.046445001
0.65377802 -22.5159 0.057188999
-0.051056001 -22.502701 0.31340301
-0.022740999 -22.642 0.13823
0.341786 -22.6992 -0.12892701
0.37966099 -22.8762 -0.27908599
0.72589701 -22.865299 -0.27128899
0.017252 -22.8207 -0.050485998
0.060244001 -23.005501 -0.22569001
0.68941599 -22.6922 -0.117337
-0.14008801 -23.685301 1.16901
-0.260517 -23.518299 0.998685
-0.124106 -23.772301 0.992396
-0.255593 -23.6189 0.82996398
0.051835999 -23.738501 1.29804
0.074189 -23.827101 1.1168801
-0.075066 -23.8496 0.80551702
-0.016817 -23.9235 0.61189502
-0.204376 -23.8682 0.35501999
0.148119 -23.8864 0.95817399
0.241018 -23.9342 0.78252
-0.241083 -23.739599 0.599953
-0.25411701 -22.697901 0.42687801
-0.246474 -22.8512 0.25860399
-0.33747 -22.9526 0.57883501
-0.34804901 -23.113001 0.41424999
-0.22464 -23.049 0.044521
-0.17726 -23.254101 -0.170912
-0.34696901 -23.319599 0.174649
-0.30274999 -23.532499 -0.077835001
0.938384 -22.496201 0.369652
1.14568 -22.6717 0.56308299
0.96156901 -22.621901 0.216539
1.17241 -22.769699 0.43406299
0.99723703 -22.770201 0.035393
1.03827 -22.929001 -0.151062
1.26969 -23.028 0.019029999
1.21814 -22.884701 0.243706
-0.33019301 -23.250299 0.78495997
-0.33899099 -23.3853 0.62062502
-0.34259301 -23.560301 0.37142
-0.30813101 -23.7442 0.10396
1.23859 -22.814501 0.729011
1.2633899 -22.9723 0.878703
1.2719899 -22.908199 0.60711002
1.2931 -23.0842 0.74510401
1.3291399 -23.0121 0.41102099
1.39007 -23.148399 0.16873699
1.38946 -23.3239 0.32640499
1.33913 -23.1957 0.55542898
1.2545 -23.195601 1.0470099
1.1662 -23.415001 1.2205499
1.2647001 -23.3316 0.89202702
1.16126 -23.559299 1.04871
1.26805 -23.455 0.720025
1.28291 -23.565001 0.52182198
1.0997601 -23.787901 0.68518901
1.1302201 -23.684999 0.88381898
0.026495 -22.663401 2.80949
-0.073496997 -22.258801 3.1410401
0.26972401 -22.1889 3.1226201
0.113806 -22.9487 2.50739
0.38174799 -22.614401 2.80442
0.46564099 -22.9083 2.50899
0.70998198 -22.548201 2.68538
0.587587 -22.116199 2.98769
0.78921199 -22.840401 2.4030099
0.42313001 -21.5881 3.2483599
0.257947 -21.0958 3.4586799
0.13323499 -21.665899 3.39906
0.0060749999 -21.200399 3.60586
-0.184976 -21.7514 3.4335101
-0.27943799 -21.301701 3.6468301
0.49783799 -23.922899 0.78677899
0.677163 -23.8887 0.807845
0.64393198 -23.905199 0.72715002
0.48002201 -23.903299 0.89632499
0.702649 -23.8764 0.90192002
0.36576 -23.950001 0.69539499
0.48388401 -23.9415 0.69199699
0.394804 -23.957001 0.62409401
0.131679 -20.7374 3.6471901
0.035312001 -20.470699 3.8603101
-0.087513998 -20.9042 3.7547901
-0.172527 -20.681299 3.9006
0.30595601 -23.4699 1.8331
0.261778 -23.328899 2.0671101
0.57941401 -23.2514 2.06897
0.323823 -23.5944 1.59644
0.61433297 -23.387899 1.837
0.63603002 -23.518499 1.61069
0.91059601 -23.270399 1.77256
0.88000798 -23.138599 1.99159
0.93580103 -23.414499 1.5509599
0.19446 -23.160801 2.2749801
0.53023601 -23.104401 2.27772
0.84189898 -23.0152 2.1854899
0.32738501 -23.7054 1.39408
0.64943498 -23.635 1.42452
0.66766399 -23.7381 1.24979
0.35244599 -23.7971 1.21585
0.95292902 -23.5527 1.3602901
0.95493799 -23.680099 1.18461
0.93712598 -23.790501 1.00488
0.69376099 -23.825001 1.06098
0.90354198 -23.855499 0.84601998
0.41697299 -23.8633 1.04506
0.93997502 -24.138399 0.027961001
1.09541 -24.027399 0.051628999
1.16071 -24.0238 -0.060066
0.91082102 -24.121599 0.128755
1.03485 -24.0352 0.121286
0.71357101 -24.214399 0.052678999
0.70647699 -24.190901 0.15735701
0.98026001 -24.1369 -0.089047
0.73593199 -24.2162 -0.068506002
0.49353901 -24.1998 0.09843
0.49705201 -24.1626 0.20310999
0.34213901 -24.125099 0.176128
0.368981 -24.101999 0.242276
0.49627399 -24.221399 -0.036518998
0.31752601 -24.1688 0.040573001
1.0034699 -23.6304 -0.603944
1.0753599 -23.7479 -0.55443799
1.22478 -23.6236 -0.49776
0.79143798 -23.6492 -0.62795901
0.82792997 -23.8358 -0.597076
1.05463 -23.511299 -0.57447201
0.77828097 -23.4659 -0.61025602
0.490403 -23.667101 -0.60897303
0.46600401 -23.472799 -0.58404303
0.25778899 -23.504999 -0.54647201
0.517102 -23.872801 -0.596699
0.235681 -23.664101 -0.56008899
0.238323 -23.877501 -0.55607998
1.11611 -23.9077 -0.47513801
1.10001 -24.0413 -0.369297
1.27187 -23.9137 -0.31782299
0.85885203 -24.0084 -0.52221203
0.84753299 -24.1364 -0.398875
1.2856899 -23.776699 -0.41507101
0.53596097 -24.054001 -0.53073698
0.53382802 -24.175699 -0.39986399
0.23891801 -24.058599 -0.48783901
0.245997 -24.1681 -0.34405899
0.51515001 -24.224001 -0.21789099
0.792588 -24.1989 -0.23164099
0.27994901 -24.1971 -0.15015
1.0423 -24.113899 -0.23130099
1.22201 -23.995701 -0.19324601
0.86191398 -23.862499 0.73588598
1.00552 -23.852699 0.59843302
0.95729899 -23.849001 0.53661698
0.83001697 -23.865499 0.64110601
-0.78959203 -23.078199 2.53213
-0.991072 -23.151899 2.55212
-1.05442 -22.9776 2.77196
-0.75459099 -23.258801 2.3295801
-0.94395 -23.330601 2.35042
-0.82720202 -22.9002 2.74928
-1.22348 -23.194401 2.51491
-1.15864 -23.378401 2.31703
-1.322 -23.014299 2.73876
-0.873532 -22.8386 0.26314899
-0.91893297 -22.650999 0.443791
-1.13664 -22.698799 0.43027401
-0.83893001 -23.0632 0.122292
-1.0834301 -22.878799 0.25753701
-1.04457 -23.0968 0.121119
-1.29932 -22.9695 0.28161699
-1.35708 -22.7939 0.43796101
-1.25415 -23.1745 0.15585899
-1.35991 -22.3778 1.34568
-1.37707 -22.4585 1.16922
-1.19363 -22.4238 1.15924
-1.37343 -22.2593 1.5143501
-1.2006201 -22.3356 1.33331
-1.23638 -22.2094 1.4990799
-1.03746 -22.300501 1.33672
-1.0172 -22.391199 1.17181
-1.08682 -22.17 1.4921
-0.86800498 -22.7104 2.9713299
-1.13439 -22.794201 3.0133901
-1.22955 -22.459 3.3175199
-0.92761201 -22.374201 3.24951
-1.44636 -22.8248 2.99998
-1.57078 -22.476801 3.31622
-1.0415 -23.862101 1.50581
-0.82140797 -23.8305 1.52503
-0.83220297 -23.824301 1.46508
-1.06172 -23.812901 1.6110801
-0.82592398 -23.7999 1.62577
-1.02549 -23.884701 1.42968
-0.60896999 -23.7971 1.46731
-0.61675203 -23.757099 1.59964
-0.62472302 -23.7995 1.37883
-0.55436099 -24.1742 0.23846
-0.53811002 -24.2265 0.34952199
-0.38931 -24.124001 0.413387
-0.74669302 -24.236401 0.21829
-0.72960299 -24.293699 0.33310199
-0.60623699 -24.0389 0.119381
-0.80042398 -24.0977 0.106325
-0.40049499 -24.0676 0.300733
-0.44783199 -23.9426 0.17348699
-0.93901002 -24.2612 0.23368999
-0.92295402 -24.3239 0.34739801
-1.13399 -24.244699 0.279443
-1.11449 -24.313601 0.39974499
-0.99082702 -24.1264 0.127441
-1.17502 -24.118099 0.17181601
-0.65387899 -23.7897 1.3108
-0.84778303 -23.811701 1.40388
-0.67178297 -23.8001 1.2406501
-0.85323399 -23.830601 1.32488
-0.50352103 -23.8067 1.15202
-0.547373 -23.805 1.12685
-1.01508 -23.887699 1.3543
-1.12717 -23.9867 1.21525
-1.00746 -23.9097 1.26597
-1.0930901 -23.9828 1.16834
-0.91686201 -24.3585 0.68564802
-0.72079802 -24.3486 0.658104
-0.71192801 -24.349199 0.53242302
-0.934331 -24.3078 0.81355798
-0.743882 -24.2962 0.80550498
-1.08257 -24.309799 0.74546403
-1.06593 -24.282801 0.82158601
-0.90810698 -24.371201 0.56067598
-1.08556 -24.336901 0.63308197
-0.912 -24.3575 0.45168
-1.09578 -24.3417 0.51637399
-0.71811599 -24.326401 0.43181801
-0.535963 -24.2544 0.43558499
-0.405783 -24.1504 0.49679899
-0.543477 -24.2712 0.53009599
-0.43701199 -24.1548 0.58757502
-1.18261 -21.990299 1.61936
-1.3190399 -22.0362 1.64054
-1.31546 -21.7742 1.73163
-1.45599 -21.821301 1.75624
-1.4421 -22.0909 1.6697299
-1.58046 -21.8748 1.79759
-1.46199 -21.5418 1.81945
-1.60727 -21.307199 1.78628
-1.8178 -21.3297 1.8062299
-1.63537 -21.5793 1.83075
-1.0243599 -21.812201 3.61672
-1.1828001 -21.188499 3.99805
-1.34166 -21.888 3.69472
-1.48087 -21.2437 4.0563698
-0.95665401 -22.5502 0.64839798
-1.17475 -22.593399 0.62279302
-0.98319298 -22.504 0.845388
-1.1919399 -22.537701 0.81346899
-1.39689 -22.6681 0.61427498
-1.40953 -22.584299 0.79999
-1.00235 -22.457199 1.01416
-1.19522 -22.4879 0.98914701
-1.39943 -22.521 0.986543
-1.08231 -23.7402 1.76728
-0.84812802 -23.7202 1.7917399
-1.10116 -23.645901 1.95182
-0.87882 -23.608101 1.98667
-0.64887702 -23.6682 1.78572
-0.69002801 -23.5473 1.9845901
-1.12228 -23.5292 2.1345
-0.90932697 -23.4813 2.1695499
-0.72412503 -23.4135 2.1577201
-3.0092499 -22.219801 1.07205
-3.0505199 -21.992399 1.27274
-2.84288 -22.1653 1.02061
-2.8980601 -21.9391 1.22015
-2.9631801 -22.4571 0.88883501
-2.7908499 -22.4018 0.84447497
-2.6604099 -22.1248 0.99192601
-2.72421 -21.9007 1.18836
-2.6063499 -22.3591 0.82247698
-2.53284 -22.504 2.97983
-2.49596 -22.589701 2.83496
-2.68505 -22.6586 2.86622
-2.5662401 -22.379299 3.1403601
-2.72561 -22.565001 3.01386
-2.7655499 -22.431999 3.1707399
-2.9154999 -22.5977 3.0192499
-2.87392 -22.6933 2.87151
-2.96013 -22.463699 3.1694
-2.4542401 -23.389799 1.2860399
-2.4333799 -23.3741 1.18883
-2.62848 -23.398199 1.18882
-2.3312299 -23.336399 1.31006
-2.2777801 -23.3234 1.22585
-2.48207 -23.3759 1.35817
-2.39079 -23.3361 1.3472199
-2.6219101 -23.4212 1.2868201
-2.6210201 -23.4144 1.37173
-2.79369 -23.427 1.28013
-2.8229101 -23.4 1.20112
-2.98388 -23.380501 1.2458301
-2.7715199 -23.4238 1.35568
-2.9341199 -23.4044 1.29809
-2.8817201 -23.4107 1.33869
-2.8478701 -23.2075 0.92171401
-2.6677001 -23.187201 0.85266298
-2.6965699 -23.0509 0.79149503
-2.83865 -23.2978 1.01108
-2.64537 -23.288 0.94532597
-3.00999 -23.2026 0.99886
-3.00807 -23.285999 1.08731
-2.8623199 -23.081699 0.84900701
-3.01071 -23.0907 0.91889399
-2.4921501 -23.1434 0.797499
-2.4556201 -23.2558 0.89197701
-2.2929201 -23.1994 0.89344901
-2.53269 -23.0014 0.751589
-2.3366101 -23.0816 0.78828102
-2.3844099 -22.945 0.74262601
-2.56197 -23.1471 1.8502899
-2.5103099 -23.137501 1.95445
-2.7097399 -23.153 1.87617
-2.6955099 -23.1492 1.97794
-2.58219 -23.162399 1.72947
-2.7116499 -23.1686 1.75599
-2.44485 -23.150101 1.76797
-2.5000401 -23.1609 1.69381
-2.8780501 -23.1719 1.83489
-2.8873701 -23.169901 1.92985
-3.01652 -23.203199 1.74129
-2.8654499 -23.181601 1.7284499
-2.97563 -23.198 1.6859601
-2.4509001 -23.105 2.01969
-2.41401 -23.020901 2.12008
-2.68222 -23.120701 2.0479701
-2.67049 -23.046101 2.1460199
-2.8942001 -23.1397 2.0072999
-2.8905599 -23.0683 2.1117001
-2.58688 -22.201099 3.31073
-2.7976301 -22.245501 3.3512001
-2.8434999 -21.976299 3.5771999
-2.61182 -21.933201 3.52053
-3.00368 -22.2719 3.35184
-3.06514 -21.997101 3.5762801
-2.8603001 -21.5061 1.88135
-3.0046101 -21.5362 1.9062099
-2.97826 -21.5998 1.77802
-2.9211299 -21.417999 2.07025
-3.04164 -21.439501 2.0945301
-2.8106899 -21.561001 1.7473201
-3.12357 -21.563299 1.94888
-3.1449499 -21.4599 2.1333899
-3.1154399 -21.6346 1.83003
-2.97159 -21.2904 2.3108399
-3.08934 -21.3011 2.35165
-3.01792 -21.170401 2.45577
-3.1579199 -21.1576 2.5183899
-3.19806 -21.308901 2.4114599
-3.2924199 -21.136499 2.61641
-2.83516 -23.3582 1.10903
-3.0048599 -23.3424 1.17461
-2.6343999 -23.3554 1.0669
-2.4337299 -23.3316 1.04137
-2.26705 -23.2808 1.06566
-3.10498 -21.6998 1.69584
-3.0913501 -21.7661 1.55374
-2.95279 -21.7136 1.512
-2.96346 -21.655001 1.64744
-2.79076 -21.6099 1.61915
-2.78508 -21.667299 1.4877501
-3.0760701 -21.847601 1.4254301
-2.9347 -21.7936 1.37983
-2.7674601 -21.7516 1.35224
-2.4682901 -22.654301 2.7047901
-2.44313 -22.743799 2.5394299
-2.6521101 -22.813299 2.53091
-2.6594501 -22.729401 2.7130499
-2.8485899 -22.7701 2.69819
-2.84817 -22.8559 2.49507
-2.4172699 -22.8822 2.3168499
-2.6584799 -22.93 2.32161
-2.86953 -22.9636 2.2834101
-0.34248501 -21.027 3.7873299
-0.41147 -20.8132 3.91921
-1.40442 -20.698601 4.2845502
-1.65034 -20.7218 4.3112602
-1.20627 -20.6297 4.2368598
-2.6623001 -21.547701 3.79368
-2.7565 -21.059299 4.1090999
-2.9247401 -21.5972 3.8561299
-3.0336499 -21.101 4.1584101
-2.8886399 -20.5457 4.3962302
-2.64712 -20.5366 4.3410902
-3.1456599 -20.5495 4.4209099
-3.8938 -20.6451 3.48997
-3.96367 -20.549601 3.44752
-3.9136901 -20.657801 3.6521499
-3.9439199 -20.508499 3.2728801
-4.0134401 -20.4538 3.2154601
-3.82549 -20.805799 3.6558299
-3.9916201 -20.563801 3.3761001
-4.0387602 -20.470699 3.12887
-3.9598601 -20.663601 3.63504
-4.09798 -20.42 2.96299
-4.1989999 -20.3906 2.77283
-4.0516701 -20.431601 2.97961
-4.1030102 -20.446699 2.7088101
-3.96121 -20.49 2.98943
-3.9705501 -20.5319 2.6536701
-3.7615299 -20.8543 3.816
-3.8806901 -20.681499 3.8301799
-3.86097 -20.541201 4.0810499
-3.7211699 -20.6924 4.0562601
-2.3213201 -21.0734 3.55637
-2.3545001 -20.8603 3.9513199
-2.2815001 -20.834299 3.9354501
-2.36288 -21.1826 3.1905701
-2.30669 -21.020901 3.5459599
-2.3826799 -21.1264 3.17556
-2.6094401 -21.229 2.33885
-2.5220201 -21.2367 2.31464
-2.56336 -21.1765 2.00741
-2.5080299 -21.249001 2.6210699
-2.4833 -21.226299 2.6087301
-2.71383 -21.1497 2.04491
-2.3840899 -21.289301 2.29356
-2.39849 -21.258699 2.5822401
-2.39061 -21.228399 1.9857
-2.42817 -21.2339 2.8903401
-2.44313 -21.187799 2.8771701
-2.41259 -21.197701 2.8359001
-2.38095 -21.127501 3.1266501
-0.95667601 -21.084499 2.49156
-0.95373303 -21.164101 2.36342
-0.91889203 -21.0527 2.56532
-0.90020198 -21.111 2.3794701
-0.947689 -21.0114 2.74525
-0.90980101 -20.9979 2.85642
-0.77541202 -21.173401 2.1092801
-0.819134 -21.176201 2.36432
-0.89476597 -21.158501 2.1359
-0.76915401 -21.0893 1.78681
-0.93272299 -21.124001 1.81168
-1.00495 -21.217199 2.1582201
-1.10875 -21.182501 1.84621
-0.844962 -21.1478 2.5804701
-0.83342499 -21.096001 2.8904901
-0.796924 -20.9995 3.3661599
-0.80255198 -20.8207 3.8427501
-0.86988902 -20.9212 3.3473699
-0.88312799 -20.774599 3.8558099
-0.90001702 -20.9382 3.25857
-0.92289501 -20.8006 3.83022
0.72152501 -20.3323 3.0562699
0.67572302 -20.378201 2.5741301
0.59037298 -20.342199 2.60532
0.73542899 -20.2022 3.5600801
0.590437 -20.271799 3.11711
0.570189 -20.138201 3.6473401
0.45404899 -20.2628 3.1435299
0.49575299 -20.3536 2.6164899
0.398792 -20.120501 3.69824
0.496851 -20.384701 2.24894
0.44231099 -20.414101 1.98778
0.55557102 -20.349001 2.2398701
0.491983 -20.3582 1.96505
0.61015701 -20.3543 2.2182801
0.53891098 -20.3314 1.93478
0.31876799 -20.4743 1.73218
0.124592 -20.461201 1.45034
0.402592 -20.400999 1.67764
0.26375499 -20.371799 1.36291
0.470081 -20.3451 1.63001
0.37819001 -20.301399 1.28842
-0.063322999 -20.234501 4.0879798
0.142529 -20.0693 4.0842299
-0.28364 -20.406 4.09268
-0.52600902 -20.5151 4.1075902
-0.74960798 -20.556801 4.12644
-0.90643001 -20.559299 4.1452298
-1.00415 -20.555599 4.1670799
-1.08595 -20.573 4.19524
-1.67703 -21.8794 3.6814899
-1.77639 -21.2094 4.0320501
-1.89231 -20.681101 4.29919
-2.0967801 -20.6154 4.2691102
-2.2851801 -21.033001 3.51176
-2.20894 -20.8557 3.92185
-2.24141 -20.5818 4.2473998
-2.3493099 -20.572901 4.2509499
-2.4707 -20.551201 4.2857099
-3.16135 -21.612801 3.83723
-3.2727101 -21.101101 4.1258702
-3.36939 -20.519199 4.4064202
-3.5589001 -20.445101 4.3798099
-3.95523 -20.6994 3.84482
-3.96207 -20.557699 4.1203799
-3.9442101 -20.271601 4.47225
-4.0882401 -20.308599 4.5513802
-3.8422401 -20.279499 4.3983002
-3.7190001 -20.3479 4.3698802
2.8960299 -21.4524 1.79616
3.0589499 -21.4464 1.62099
3.05533 -21.6387 1.5140001
2.91243 -21.2756 1.87633
3.05673 -21.238701 1.72776
2.8824899 -21.633301 1.70108
3.1351299 -20.927601 1.73465
3.03158 -20.636299 1.95829
3.0142 -21.0082 1.87869
2.92556 -20.741699 2.0831699
3.19349 -21.1964 1.55283
2.8816299 -21.0812 2.0063601
2.80439 -20.8417 2.1954601
2.8880899 -20.324699 2.2137401
2.73386 -20.001699 2.47944
2.8011 -20.434999 2.32973
2.65483 -20.107599 2.60039
2.6977701 -20.5445 2.4282
2.5608201 -20.213699 2.69543
2.2802701 -18.982 3.3517201
2.1451199 -19.117001 3.4965601
2.4473 -19.3337 3.0327201
2.3282199 -19.447399 3.1851599
2.0036099 -19.2442 3.6039
2.2006099 -19.552 3.30282
2.5917001 -19.673599 2.7457399
2.4974599 -19.7792 2.88516
2.3911901 -19.879801 2.9926
3.17944 -22.9697 0.65986699
3.14798 -22.672199 0.75103003
3.09956 -22.9445 0.78911299
3.07177 -22.656401 0.855187
3.02459 -22.837601 0.893462
2.93206 -22.9484 0.92975098
2.98279 -22.623199 0.963337
3.1631601 -22.523899 0.78152901
3.1979101 -22.438101 0.80700302
3.0717399 -22.4977 0.89794201
3.09554 -22.3927 0.94779599
2.9595799 -22.478001 1.03172
2.9653201 -22.3899 1.10112
2.7114799 -23.062799 0.98744398
2.9730301 -22.2432 1.2043999
3.1094799 -22.229401 1.05152
2.95649 -22.0404 1.35655
3.1001201 -22.0224 1.2035201
3.2149601 -22.2938 0.88836497
3.21819 -22.0884 1.01423
3.2165 -21.443199 1.40896
3.22052 -21.6658 1.28267
2.9124 -21.8298 1.54193
3.0736699 -21.8246 1.37018
3.2196 -21.874399 1.15167
-4.0739999 -22.6113 2.2336299
-4.2615499 -22.618401 2.2353799
-4.2810898 -22.6271 2.3061299
-4.0672998 -22.637699 2.1647601
-4.2107902 -22.6432 2.16417
-4.0606499 -22.6092 2.3048799
-4.4251499 -22.622999 2.2230899
-4.3556199 -22.651899 2.1505899
-4.4649301 -22.629499 2.2938099
-4.6644402 -21.5049 3.76826
-4.5687499 -21.9877 3.4379001
-4.4404001 -21.525499 3.76824
-4.3522 -22.0063 3.4165399
-4.7664299 -20.8915 4.1693101
-4.5293298 -20.912701 4.1971698
-4.2165999 -21.5068 3.72084
-4.1407399 -21.9842 3.3618701
-4.2880702 -20.897499 4.1663299
-4.0546498 -22.591801 2.4198401
-4.0558701 -22.557199 2.5615599
-4.2860799 -22.618401 2.4289801
-4.28651 -22.5839 2.5858901
-4.4851098 -22.6224 2.4181001
-4.50176 -22.5875 2.5755799
-4.0602598 -22.508499 2.7086101
-4.2874799 -22.529301 2.7453101
-4.2909098 -22.445999 2.9194701
-4.0704098 -22.428801 2.8741801
-4.52144 -22.524 2.73645
-4.5317001 -22.4303 2.92031
-4.53297 -22.278799 3.15449
-4.30476 -22.2976 3.13709
-4.0922899 -22.2778 3.0841801
-4.3127599 -20.3472 4.6002698
-4.5668702 -20.3592 4.6144099
-4.8073401 -20.333099 4.5849099
-3.4236801 -20.975 2.59216
-3.5568399 -20.835199 2.3924201
-3.2547801 -21.040899 2.4581101
-3.3710899 -20.9275 2.24665
-3.0754299 -21.0935 2.38007
-3.15802 -21.010599 2.15165
-1.77885 -21.625 1.8721
-1.97624 -21.3643 1.84761
0.403813 -23.027399 -0.39114499
0.75243402 -23.0142 -0.388735
0.41922101 -23.1637 -0.471899
0.76807803 -23.151199 -0.478865
0.10069 -23.166 -0.36066601
0.138363 -23.299999 -0.450109
0.44002301 -23.307199 -0.53539401
0.77606398 -23.2985 -0.55444998
0.18920299 -23.4174 -0.50783801
-0.099716999 -23.4244 -0.33650601
-0.012347 -23.546801 -0.44302899
-0.19950899 -23.7017 -0.27127701
-0.072637998 -23.8095 -0.40103099
0.081533 -23.6257 -0.50865197
0.055256002 -23.8612 -0.491175
-0.21638 -23.893101 -0.107931
-0.094870001 -23.9907 -0.266036
-0.139888 -23.981501 0.143159
-0.055050999 -24.0697 -0.042613
0.039703 -24.040501 -0.39472601
0.057190001 -24.1315 -0.21518999
1.38381 -23.6429 -0.35002699
1.29629 -23.494499 -0.43851
1.42678 -23.494801 -0.244049
1.3177 -23.3563 -0.34508601
1.37616 -23.778999 -0.234979
1.4231 -23.634701 -0.100501
1.42663 -23.320101 -0.065177001
1.3061 -23.194099 -0.18930399
1.42309 -23.4764 0.094641
0.29962301 -23.966999 0.57254702
0.196537 -23.980801 0.57854497
0.275673 -23.992201 0.43908101
0.195638 -24.0308 0.39112899
0.36783499 -23.9687 0.53350902
0.34895501 -23.9928 0.429851
0.27913001 -24.046101 0.29899201
0.22517499 -24.096701 0.19615699
0.347507 -24.0439 0.32661501
0.0244 -23.9972 0.414877
0.065013997 -24.070601 0.210913
0.13642199 -24.1404 0.0060530002
1.31708 -23.8769 -0.083339997
1.3404599 -23.7665 0.090363003
1.23575 -23.9266 0.058736
1.22978 -23.857401 0.240045
1.31727 -23.6647 0.302129
1.18408 -23.8123 0.442449
1.08437 -23.8634 0.439053
0.981525 -23.8769 0.42490801
1.1242 -23.895 0.284318
1.0038199 -23.930799 0.300814
1.14305 -23.9454 0.145863
1.0288 -23.987 0.194552
1.08618 -23.368799 -0.51641101
1.0886101 -23.229799 -0.43073201
1.07095 -23.084101 -0.30993599
0.48929 -24.1024 0.31668201
0.68532199 -24.135599 0.285088
0.477557 -24.0347 0.44417599
0.65512502 -24.053801 0.440135
0.47380301 -23.9785 0.57550198
0.63599998 -23.9653 0.60056502
0.876432 -24.0758 0.23994701
0.842623 -24.002001 0.37065601
0.82413799 -23.9181 0.51438498
-0.46144101 -23.341801 0.24420001
-0.350122 -23.4629 0.44510299
-0.44020799 -23.518101 0.176899
-0.34521601 -23.622 0.34690401
-0.62171698 -23.280199 0.093313999
-0.58542001 -23.4865 0.050636999
-1.60946 -23.6108 0.28711101
-1.42993 -23.488001 0.15245301
-1.48918 -23.7959 0.195392
-1.3591501 -23.705601 0.099058002
-1.70823 -23.7766 0.44525999
-1.54808 -23.9291 0.317994
-0.445072 -23.8419 1.02127
-0.44040701 -23.905899 0.91641003
-0.51045299 -23.913601 0.957434
-0.39174399 -23.8468 1.0269901
-0.39387199 -23.9196 0.88936502
-0.52285397 -23.8391 1.04275
-0.31946599 -23.9179 0.40164599
-0.315216 -23.9951 0.53369403
-0.292824 -23.865801 0.67947102
-0.36479399 -23.7964 0.25705999
-0.29390201 -23.757799 0.52044398
-0.29103401 -23.6192 0.64414001
-0.28713799 -23.7549 0.819938
-0.350135 -24.029499 0.63910902
-0.39923701 -24.027599 0.72611201
-0.33751801 -23.9167 0.810794
-0.33127201 -23.8281 0.959472
-1.68027 -23.9711 0.600205
-1.53174 -24.0856 0.46010599
-1.55861 -24.1105 0.77029699
-1.4603699 -24.193199 0.62771201
-1.3394901 -24.183001 0.35338801
-1.36306 -24.053699 0.231324
-1.30391 -24.2649 0.498155
-1.18183 -24.0735 1.0727
-1.10724 -24.046301 1.06876
-1.1122 -24.131001 0.96795499
-1.26956 -24.097401 1.07611
-1.19488 -24.151199 0.95088398
-1.2652299 -24.176701 0.92568702
-1.17094 -24.233 0.83958799
-1.1002001 -24.217501 0.88660997
-1.2069 -24.2621 0.76697201
-1.4042 -24.1341 0.95797402
-1.3592 -24.2094 0.80607301
-1.25295 -24.2841 0.646429
-1.23343 -23.3904 0.070872001
-1.0315599 -23.3165 0.033031002
-1.1905299 -23.6318 0.035944
-0.996126 -23.563299 0.001408
-0.82045001 -23.2757 0.030103
-0.78188199 -23.5109 -0.0025539999
-0.99641299 -23.9828 1.15953
-0.97962898 -24.0938 1.0467
-0.83869499 -23.907 1.22483
-0.80913699 -24.033899 1.1018
-0.56275898 -24.2661 0.66003102
-0.47358301 -24.1402 0.70699102
-0.58855999 -24.213499 0.80346501
-0.50826299 -24.1248 0.80247301
-0.44428799 -24.010401 0.80466402
-0.50571603 -24.025499 0.875826
-0.95769697 -24.2127 0.93357801
-0.77516299 -24.179899 0.95846999
-0.61412603 -24.099199 0.9346
-0.63899702 -23.9632 1.04836
-0.66254199 -23.8568 1.15123
-3.2386601 -22.783899 0.99751502
-3.08746 -22.6978 0.87124097
-3.1591499 -22.9018 0.94566798
-3.0404401 -22.828501 0.84313399
-3.3338201 -22.902399 1.13368
-3.2300999 -23.0037 1.06051
-2.2178199 -22.5767 0.79658699
-2.0827 -22.6768 0.89965099
-2.27018 -22.708401 0.75108498
-2.1630399 -22.797701 0.82420403
-2.3987 -22.5329 0.74442899
-2.4168401 -22.675301 0.71793598
-3.13904 -23.1723 1.08451
-3.1289501 -23.0686 0.99264401
-3.1351399 -23.2558 1.1812
-3.2442601 -23.118299 1.16766
-3.2234499 -23.214899 1.27745
-3.34041 -23.0443 1.2475899
-3.2871799 -23.1675 1.3664
-2.2086799 -23.0065 0.84602797
-2.17172 -23.1224 0.979976
-2.09233 -23.040701 1.11701
-2.26192 -22.882299 0.770805
-2.10584 -22.9209 0.944049
-3.0789199 -23.244499 1.6235501
-3.07372 -23.297701 1.4978499
-3.1446099 -23.2966 1.47558
-2.98474 -23.2334 1.60537
-2.96294 -23.2971 1.50308
-3.1471601 -23.252399 1.6146801
-3.0255101 -23.356899 1.3777699
-2.9205599 -23.3671 1.40289
-3.09164 -23.3424 1.34426
-3.2165599 -23.2353 1.51071
-3.1903 -23.273899 1.39331
-3.1234601 -23.3113 1.27548
-2.92559 -22.634001 0.79324198
-2.76074 -22.5819 0.75456399
-2.8982799 -22.7757 0.77543998
-2.74371 -22.7299 0.73730999
-2.58512 -22.5417 0.73584199
-2.58038 -22.690599 0.71682101
-2.7813499 -23.378201 1.43993
-2.63397 -23.3696 1.46183
-2.81354 -23.303301 1.5326999
-2.6603899 -23.2976 1.55574
-2.2792399 -23.2675 1.39461
-2.2935901 -23.2038 1.51952
-2.18451 -23.18 1.47241
-2.3912399 -23.2875 1.41582
-2.4166999 -23.2269 1.51924
-2.19292 -23.250099 1.32579
-2.3540399 -23.1653 1.65054
-2.4616001 -23.1824 1.61684
-2.2349899 -23.1343 1.6380399
-2.0262401 -22.8158 1.05492
-2.04498 -22.9569 1.26046
-2.1596501 -23.205601 1.16695
-2.1167901 -23.129299 1.32015
-2.1217401 -23.066999 1.48736
-2.5057399 -23.3298 1.44407
-2.5330501 -23.2651 1.53935
-2.56567 -23.2031 1.62941
-2.6917601 -23.221001 1.6498899
-2.8450601 -23.228201 1.62798
-4.2593899 -22.742001 2.02776
-4.1210899 -22.726101 2.0499599
-4.0394902 -22.694 2.08481
3.0227301 -21.6898 -0.69309998
-0.151256 -21.0462 1.6513799
-0.30828801 -20.8573 1.57681
-5.6581602 -19.6987 2.80989
-5.2708001 -19.9396 2.5366499
-4.8705702 -20.126699 2.4767301
-4.5514798 -20.227301 2.5036099
1.26531 -19.1689 0.63897002
1.54435 -18.877199 0.76392102
0.96326703 -19.4848 0.64056402
1.77615 -18.612801 1.01292
0.67659998 -19.7782 0.72743201
0.42831999 -19.988199 0.84404802
-0.13441101 -20.2645 1.17452
0.05085 -20.169399 1.07135
-0.32789001 -20.415501 1.2652
0.22846 -20.101101 0.96142101
-0.858087 -20.894699 1.45499
-1.02329 -20.965599 1.48162
-0.69625199 -20.7799 1.41101
-1.22541 -21.0163 1.50736
-1.47689 -21.044201 1.543
-0.51849401 -20.6063 1.34407
-2.80756 -20.9627 1.78254
-3.0330701 -20.920099 1.84284
-2.6105199 -20.9855 1.7401
-4.3432999 -20.306101 2.47351
-4.1802201 -20.3953 2.3871
-3.99352 -20.4998 2.2983699
-3.7889299 -20.632601 2.2346399
-3.63661 -20.7418 2.20327
-3.5093801 -20.7829 2.05287
-3.2861099 -20.8517 1.92399
2.7188399 -23.678499 -0.68647099
2.90974 -23.626301 -0.72658402
2.5340099 -23.7377 -0.62616998
3.0441799 -23.591801 -0.74071699
2.4116399 -23.782101 -0.56632298
-2.8782599 -22.928301 0.79860198
-3.0151801 -22.959499 0.862023
-2.72348 -22.889299 0.75392699
-2.5650401 -22.8442 0.72696501
-2.41697 -22.8081 0.72158402
-3.10637 -22.980499 0.92530799
-2.3127401 -22.7939 0.73560202
-4.15939 -21.9723 1.3861099
-3.8155401 -22.019501 1.35495
-4.4745598 -21.9569 1.4691
-4.63486 -21.9683 1.54888
-3.6105001 -22.068001 1.38202
-1.09279 -23.898199 0.056155998
-0.90264499 -23.849501 0.028108999
-1.25896 -23.9284 0.104821
-0.697667 -23.792101 0.030277001
-0.52095699 -23.7292 0.077974997
-0.42397499 -23.678699 0.151364
-1.37734 -23.935801 0.157409
1.14236 -19.961 3.8652799
0.86540598 -20.025 3.89307
0.35441399 -19.9858 4.0608501
0.56371802 -19.9974 3.98475
0.71545702 -20.062201 3.87712
-1.7535501 -21.0446 1.59398
-1.98189 -21.0762 1.67031
-2.0912499 -21.1574 1.7513
-2.2293701 -21.0805 1.7209001
-2.4171 -21.015699 1.71631
15.8732 1.49132 106.749
15.677 2.3838201 106.279
15.8795 2.38378 105.487
15.5436 1.67167 107.596
15.3994 2.5587499 107.039
16.0627 0.66843998 107.1
15.6319 0.76212001 108.258
16.098801 1.55936 105.84
16.3071 0.80338299 106.098
16.226 1.81189 104.914
16.211901 2.31867 104.035
16.5313 1.70267 103.627
16.001801 2.5153699 104.728
16.046499 2.6823599 104.183
16.466299 1.09684 105.035
16.7029 0.29208499 105.27
16.5007 0.071524002 106.313
16.8675 -0.56185102 105.603
16.6478 -0.64643699 106.497
16.890699 0.53447598 104.065
17.0914 -0.45604599 104.53
16.244801 -0.098537996 107.308
15.9152 -0.209473 108.305
16.398001 -0.80019301 107.388
16.0271 -1.07978 108.528
8.5422802 -8.4696302 106.711
8.8984604 -8.4575195 106.385
8.5949497 -8.2409801 104.642
8.8008499 -8.6953096 108.459
9.3439102 -8.6424103 107.997
8.1358004 -8.5140305 106.865
8.2541904 -8.2102203 104.877
7.9011202 -8.2311802 105.099
9.07932 -8.4618902 105.923
9.3877697 -8.5550299 106.35
9.2105999 -8.4305096 104.428
8.9004097 -8.3099203 104.447
8.2645197 -7.9825001 102.333
8.2251701 -7.88451 102.705
7.2959399 -7.4030099 100.142
7.4036598 -7.3275499 100.812
8.3243999 -8.1564102 102.01
7.0354099 -7.5015001 98.911903
6.5328999 -6.5739002 99.405197
7.37988 -7.3253498 101.255
6.4093099 -6.70645 99.693298
6.9441199 -7.5565701 102.012
5.7588 -5.7584701 97.7967
5.7618699 -5.8791299 98.029602
6.5036402 -6.5623899 98.968002
5.7118602 -5.7632198 97.440903
7.8874502 -7.8614502 103.099
7.55615 -7.9497099 103.584
6.0229502 -6.9470201 99.917099
6.2891002 -7.6910701 101.909
5.6069899 -7.2108598 100.031
5.7144799 -6.0938001 98.136002
5.4566698 -6.3567901 98.209602
5.2578201 -5.2315102 97.040802
5.20122 -5.4151802 96.994797
4.91821 -4.1493702 96.364601
4.8533802 -4.28546 96.282501
5.2723198 -5.0680099 96.961899
4.94136 -4.0466399 96.332703
6.3719401 -6.6312199 98.278702
5.6392398 -5.78298 96.859802
6.0964499 -6.5296698 97.050003
5.46422 -5.6833301 95.919701
5.1045799 -4.9500699 95.921501
4.9761 -4.87327 95.158798
4.5892 -3.90362 94.711502
5.1655402 -4.96807 96.417702
4.7228498 -3.95069 95.405899
4.8224101 -3.96701 95.8536
4.0536699 -2.6319301 93.523201
4.27772 -2.6619401 94.499901
3.8264599 -1.4028 93.474701
4.0812402 -1.38493 94.433601
3.7892799 -2.6208501 92.312103
3.5652201 -1.51402 92.278397
4.3604202 -3.76722 93.701103
4.0644698 -3.5913501 92.452698
3.72632 -0.28330201 93.503098
3.9791 -0.198392 94.4618
3.6849599 0.73132098 93.550003
3.93558 0.88358003 94.495102
3.4244599 -0.40686399 92.332001
3.3669701 0.658539 92.416496
5.23246 -4.9748402 96.746399
4.9003301 -3.9844401 96.157898
4.4609098 -2.67624 95.176697
4.5798898 -2.62994 95.594803
4.2767701 -1.22966 95.117699
4.3993602 -1.14658 95.523697
4.6477299 -2.61114 95.827499
4.6586699 -2.64733 95.920799
4.43823 -1.14505 95.685303
4.4151902 -1.15687 95.695297
4.61624 -2.69611 95.899803
4.54498 -2.77337 95.799004
4.3615298 -1.16689 95.643303
4.2954998 -1.19627 95.551102
4.1992798 0.035751 95.582901
4.1431799 0.012329 95.515602
4.1064501 0.87274897 95.557098
4.0552001 0.83902401 95.513397
4.25072 0.038963001 95.633301
4.1547499 0.89298499 95.592003
3.7493701 1.43074 95.273003
3.64533 1.26325 95.166901
3.6993899 2.1312001 95.272598
3.6019399 2.0123501 95.243401
3.8310699 1.44949 95.329903
3.77175 2.1247599 95.259102
3.80669 0.67066002 95.195999
3.89733 0.77182502 95.3358
3.9075699 1.4628 95.3741
3.8403101 2.15222 95.249496
3.97577 1.50251 95.410599
3.9077401 2.2007599 95.247597
3.9857299 0.792853 95.436096
4.2915101 0.043056998 95.6586
4.2018099 0.91958898 95.609596
4.2772698 0.045839 95.542503
4.20292 0.953228 95.503899
4.1701798 0.0023719999 95.1576
4.1138601 0.95907098 95.151001
3.4154699 2.6080899 95.2985
3.2555101 2.47137 95.290802
3.3605001 3.3264201 95.378601
3.20292 3.16013 95.4319
3.57307 2.7662899 95.2733
3.5227399 3.5441501 95.307404
3.4507401 1.85948 95.201698
3.7996099 2.95976 95.147903
3.72891 2.8941 95.187798
3.7741101 3.80617 95.086304
3.6898 3.70631 95.145897
3.86924 3.0541601 95.121902
3.8536601 3.93873 95.033203
3.6560199 2.8498001 95.238297
3.6060901 3.6231799 95.220596
4.14182 1.6749001 95.452003
4.14609 1.7780499 95.344902
4.09551 2.72505 95.1492
4.0900898 1.59914 95.456398
4.0911798 2.54287 95.252296
4.0396399 2.38764 95.266296
4.06078 3.61694 95.035004
4.0048599 3.38674 95.089699
4.0657601 4.6596398 94.775597
3.9992199 4.3729701 94.886597
4.0794802 3.8285201 94.903801
4.1061702 4.8945899 94.636703
4.03333 1.54725 95.436302
3.9743299 2.27563 95.255203
3.9377999 3.1937101 95.108101
3.9270201 4.1245298 94.970299
3.92644 4.85215 94.844803
3.84431 4.6556902 94.9496
3.9159601 5.4256601 94.782402
3.82586 5.2440901 94.9058
4.0057702 5.1482501 94.730698
4.0023098 5.7365499 94.6745
4.0646501 1.878 95.037598
4.0275602 2.8889899 94.871399
3.9031 1.90975 94.443298
3.8922501 2.96229 94.337997
4.0380402 3.9651899 94.652397
4.1066999 4.9991798 94.443604
3.9300201 3.99787 94.222397
4.0398102 4.9935298 94.1203
4.2351198 5.9689102 94.318001
4.4091401 6.8162098 94.250603
4.3129301 6.7855201 94.462303
4.2097702 5.9393802 94.027802
4.4121799 6.78304 93.961601
4.1880102 5.8636398 94.494499
4.09163 5.5378499 94.622101
4.1185699 6.19173 94.580902
4.6259499 7.5272398 94.241096
4.56112 7.6068001 94.445602
4.8847399 8.1459503 94.274803
4.8192501 8.2271996 94.493698
4.6394801 7.4932199 93.943497
4.90381 8.0956001 93.964996
5.19344 8.7030001 94.323601
5.2175498 8.61761 94.003502
5.9595199 8.9879398 93.908798
5.1252398 8.81528 94.569702
5.72644 9.1121902 94.306099
5.4945302 9.26828 94.639397
3.7481301 4.5336399 95.044502
3.7170999 5.1575298 95.043404
3.5717101 5.1759501 95.278297
3.642 4.4420099 95.146301
3.5408199 4.34271 95.260002
3.45983 4.92804 95.437599
3.2713001 4.6937199 95.583504
3.42379 4.2130899 95.382698
3.2646799 3.97298 95.489998
3.1302099 4.4322901 95.703499
2.98773 4.2092099 95.869301
3.1085701 3.77491 95.613899
2.9695899 4.6684399 96.061897
2.8617699 4.4180398 96.2024
2.79549 4.7189002 96.503098
2.7374001 4.4654598 96.557899
3.0775101 4.9725499 95.956703
2.8460901 5.1089501 96.4842
3.22628 5.2960501 95.835503
3.0072701 5.5009999 96.235397
3.37375 5.5886898 95.686096
3.125 5.8259001 96.080704
2.84519 5.6662998 96.556801
2.74774 5.3442898 96.748596
2.69682 5.6649098 96.897301
2.6828301 5.4073601 96.910599
2.94086 6.0346198 96.399803
2.7016201 6.3316698 97.0308
9.5812397 9.0007896 93.9655
10.8005 8.6484804 94.070801
10.5495 8.9509096 94.524803
9.9925003 8.7130899 93.455299
11.0724 8.3511801 93.547501
8.2620497 9.2344904 93.987801
8.6644001 8.9778795 93.375397
9.2302303 9.2835703 94.397102
7.8603702 9.4749899 94.399498
6.9281998 9.2934303 94.124397
6.5573001 9.4814301 94.501602
7.1550999 9.1268597 93.694099
4.5820699 7.5215101 93.493103
4.3363099 6.7825899 93.498199
4.1737299 6.8305302 92.812798
4.85923 8.11129 93.516602
4.4461098 7.5743098 92.828697
4.74051 8.12992 92.848396
5.1793799 8.5767403 93.546997
6.0664601 8.8844805 93.385902
5.1378298 8.5320501 92.841003
6.0597501 8.7783899 92.648903
7.1261601 8.9910097 93.142502
6.9671502 8.8603802 92.395103
7.9004002 8.8024902 91.8964
8.1472797 8.9242096 92.791702
5.0931802 8.45576 91.837097
5.9766102 8.6549101 91.6371
4.9728098 8.37679 90.565903
5.8466301 8.5525703 90.354897
4.5388899 8.1042004 91.916901
4.2541199 8.0504303 90.714203
4.2323799 7.5770998 91.893204
3.94315 7.5313702 90.681396
3.9347701 6.8331699 91.834801
3.6333899 6.7824101 90.582298
6.5905499 8.6008301 88.604897
7.4654102 8.6219997 88.380096
7.4746099 8.6325197 89.893402
6.4470401 8.6504297 86.833603
7.4060502 8.6768999 86.593498
5.68852 8.5135498 88.824799
5.5068498 8.5335302 87.051903
6.7019501 8.6243696 90.133598
6.8184099 8.7245102 91.398598
7.53688 8.7075996 91.054199
4.8050699 8.3327303 89.039597
4.6178598 8.3173904 87.258301
3.9502101 7.9981399 89.229797
3.78282 7.9428 87.433601
6.2508898 8.7390604 84.827698
7.2611299 8.76373 84.581596
5.9945102 8.8177099 82.5653
7.0305901 8.8321304 82.332603
5.29532 8.5825005 85.030296
5.0397902 8.6266603 82.743896
4.4223399 8.3081999 85.215103
4.1965799 8.2941198 82.9011
3.63167 7.8720398 85.373802
3.4587901 7.7966199 83.0373
4.1052899 5.8984699 93.533897
3.9143701 5.89429 92.782402
3.90221 4.9201102 93.562599
3.6863899 4.8500299 92.723
3.6490901 5.8745399 91.7304
3.3398099 5.8152499 90.4217
3.40257 4.7976599 91.5924
3.0931699 4.7235398 90.230003
3.5892799 7.4568 89.206299
3.1933601 7.3552999 87.4916
3.28953 6.68855 89.094002
2.92465 6.5575299 87.399597
2.9219899 7.2312298 85.4897
2.53531 6.4050798 85.489899
2.2836001 6.2871599 83.226097
2.81583 7.10988 83.142403
3.01669 5.72155 88.927299
2.6935101 5.5933599 87.2714
2.7937 4.6484399 88.730797
2.5076799 4.5696201 87.118599
5.6054902 -6.1714201 95.3097
6.1202002 -6.9494801 96.030403
5.4113302 -6.3653002 93.764397
5.1182399 -5.4025102 94.591103
5.03512 -5.6757002 93.3983
4.6811399 -5.0211501 93.033401
2.6359401 3.5813401 88.536102
2.37218 3.5348301 86.939301
2.5420401 2.53634 88.364197
2.28492 2.5139301 86.771896
2.9184699 3.63342 90.051498
2.81565 2.5769601 89.899902
3.67314 1.75949 93.553001
3.68995 2.8474901 93.549896
3.3680699 1.70734 92.489098
3.40797 2.7459199 92.560799
3.7516 3.90237 93.565399
3.51578 3.7865901 92.639198
3.22347 3.7069399 91.448502
3.1126101 2.6577001 91.324501
3.50214 -2.6357701 90.955101
3.2893901 -1.64644 90.921898
3.2083299 -2.70189 89.464401
3.00476 -1.74287 89.433197
3.7541101 -3.46772 91.090103
3.4625399 -3.48225 89.658203
4.01649 -4.1444101 91.314499
3.74962 -4.1151199 90.049202
4.2696099 -4.7063699 91.528397
3.99301 -4.53339 90.487099
4.36027 -4.3649902 92.703003
4.5117698 -5.2437701 91.643501
4.0434799 -4.84023 90.1716
4.8237 -5.8422499 91.742798
4.2497501 -5.3517799 89.950302
3.1432199 -0.56668597 90.986603
2.86268 -0.65535301 89.517998
2.78649 0.46290499 89.646599
3.0699699 0.53415799 91.098396
3.0622301 1.608 91.210899
2.7727799 1.53488 89.771301
2.5020599 1.50903 88.228897
2.2435701 1.49909 86.6437
2.5146999 0.445896 88.101997
2.2506299 0.44999701 86.523804
2.58552 -0.67918497 87.959
2.31179 -0.65333498 86.377602
2.71715 -1.78977 87.838501
2.42834 -1.75841 86.227303
2.9147301 -2.80234 87.843102
3.2088499 -3.65049 88.180603
2.99264 -3.9783299 86.575699
2.61044 -2.8203399 86.174599
3.60221 -4.3323998 88.992798
3.62708 -4.7965698 88.321602
2.349 5.47085 85.424301
1.9155999 5.3755898 83.273598
2.20175 4.4878001 85.333504
1.79851 4.4267101 83.239502
2.08763 3.4999599 85.212601
1.7047 3.47528 83.186699
2.0074799 2.51159 85.091599
1.63595 2.51752 83.125504
2.2682199 -2.6380401 84.513
2.1185601 -1.62446 84.615402
1.95505 -2.2704599 82.657097
1.72215 -1.35769 82.790398
2.65974 -3.58301 84.460098
2.40556 -3.1345 82.5308
2.0195701 -0.57938099 84.762802
1.64177 -0.41133201 82.898903
1.60058 0.559048 82.992897
1.96868 0.474163 84.892403
1.96597 1.50626 84.992699
1.59946 1.54164 83.064697
11.429 -8.5430603 111.231
11.3661 -8.5082102 111.952
11.9953 -8.0932703 112.039
10.9751 -8.7135696 111.334
11.0439 -8.6824503 111.832
11.3194 -8.6344404 110.352
10.8406 -8.7457304 110.518
11.9661 -8.3269196 111.013
11.8315 -8.5020103 110.089
10.5242 -8.8515301 111.51
10.7347 -8.7733603 112.111
10.0298 -8.97439 111.754
10.3461 -8.8455696 110.68
9.8190899 -8.9420605 110.871
11.1739 -8.7363005 109.269
10.6853 -8.7785301 109.442
11.0465 -8.8194799 107.95
10.5411 -8.8025999 108.108
11.6812 -8.6578503 109.02
11.572 -8.7793598 107.747
10.9591 -8.85853 106.338
10.4244 -8.7982302 106.47
10.7707 -8.8577003 104.232
10.2039 -8.74895 104.307
11.5245 -8.8513899 106.196
11.3947 -8.8868504 104.198
9.8844995 -8.6830397 106.538
9.6529198 -8.5873098 104.377
10.0066 -8.7351303 108.201
10.166 -8.7944098 109.577
9.6042099 -8.8223 109.727
8.70543 -8.4141197 101.879
7.6808801 -8.1017399 99.1483
9.3594398 -8.6725798 101.841
8.4952202 -8.5148602 99.2444
10.0336 -8.8512297 101.791
10.8576 -8.9235201 101.829
10.2602 -8.9927197 99.026001
9.2972603 -8.8107204 99.275398
6.87008 -7.6341901 96.441803
6.1930799 -7.0655198 93.998901
7.7295799 -8.1921997 96.654701
7.0225201 -7.7241998 94.228996
8.5698099 -8.6174097 96.7827
9.3430405 -8.8947496 96.630096
8.6764002 -8.67486 94.545403
7.86549 -8.2759504 94.433403
5.5522199 -6.5179801 91.8283
4.92031 -5.9939799 89.879402
6.3459101 -7.2172899 91.998596
5.6986599 -6.70191 89.980301
7.1922798 -7.8635302 92.190102
6.5331898 -7.3940001 90.087898
8.0527697 -8.3873396 92.392303
7.4268198 -8.0193195 89.865402
4.2976398 -5.45155 88.061203
3.74562 -4.9119902 86.278397
5.0903602 -6.18225 88.137299
4.5248299 -5.6700301 86.3545
5.8891201 -6.8765001 88.184196
5.2671299 -6.3530502 86.373199
6.5454898 -7.4035602 87.886299
5.9007001 -6.8961201 86.191299
4.6522598 -5.8347802 84.469498
5.2564001 -6.3926201 84.341103
4.6113601 -5.84828 82.265999
3.9944799 -5.1644101 84.493599
4.0454402 -5.2849498 82.377602
3.4762499 -4.6321101 82.448402
3.3157899 -4.41749 84.454803
2.921 -3.9180701 82.479103
6.2226801 -7.0802999 83.192497
6.5100999 -7.26438 83.614899
6.2267799 -6.9774799 81.806
6.0943999 -7.0166202 83.685997
6.5640202 -7.3557901 84.9133
5.9070902 -6.7997198 81.796303
5.5771899 -6.5953498 81.941902
6.8815098 -7.4780002 83.962303
6.5893502 -7.1584401 81.874001
7.28269 -7.6758399 84.158096
6.9738402 -7.32693 81.911201
7.0110502 -7.6557999 85.709297
7.4765902 -7.9249301 86.198303
6.9179802 -7.65309 87.042297
6.3505001 -7.2344198 85.734497
7.5251098 -8.0490303 87.990196
5.7602201 -6.7927399 84.1008
5.1434698 -6.2899299 82.127899
12.2283 -8.5522604 108.619
12.7577 -8.4605999 107.901
12.5458 -8.61092 107.262
12.4102 -8.3523197 109.593
13.0231 -8.2202396 108.704
12.1256 -8.6955099 107.494
13.1989 -8.4216003 106.683
12.7154 -8.6375799 106.219
13.4799 -8.4322004 104.94
12.8301 -8.6725101 104.509
13.5933 -8.1443005 107.316
14.0103 -8.1375599 105.448
12.1352 -8.7790403 106.099
12.1036 -8.82687 104.266
13.5009 -8.4816103 102.838
12.7035 -8.7188196 102.427
13.3589 -8.5892897 100.686
12.4984 -8.8126297 100.318
14.1555 -8.1966801 103.26
14.0813 -8.3193998 101.032
13.2326 -8.70648 98.607498
12.3925 -8.9089499 98.277802
13.0487 -8.7630596 96.500397
12.2558 -8.9540796 96.210999
13.9681 -8.4465704 98.908897
13.7789 -8.4992504 96.763702
11.7901 -8.8752899 102.064
11.5003 -8.96661 99.879799
12.6944 -8.7237597 94.251999
11.9471 -8.9214401 94.006798
12.2189 -8.5991001 91.852097
11.5461 -8.8061304 91.672798
13.4334 -8.4433804 94.468498
12.9109 -8.3002005 91.9907
11.7001 -8.4112597 89.3358
11.1307 -8.16362 86.785004
10.52 -8.3427296 86.777199
12.3575 -8.10917 89.397003
11.7605 -7.8780799 86.777199
11.0547 -8.6110401 89.241096
10.4534 -8.7127199 89.122704
10.9036 -8.9222698 91.461304
9.9006701 -8.73944 88.999603
10.3103 -8.96134 91.246696
9.9632101 -8.4217596 86.753998
9.4584703 -8.4315205 86.718903
10.5521 -7.8608398 84.289497
9.9709101 -8.0144796 84.334
9.9741001 -7.5216098 81.849899
9.4221802 -7.6521702 81.925697
11.1522 -7.6074901 84.236397
10.5484 -7.3025298 81.772202
9.4513702 -8.0764503 84.366096
8.98911 -8.0762196 84.378403
8.9419699 -7.7041101 81.994698
8.5211096 -7.69874 82.030998
9.3722095 -8.7066698 88.880501
9.7504702 -8.9302301 91.045998
8.8141203 -8.5954599 88.742401
9.1524801 -8.8096905 90.8377
8.9804296 -8.39711 86.670303
8.4934301 -8.3082304 86.597397
11.2706 -9.03652 93.742599
11.4559 -9.0680799 95.878098
10.6468 -9.0751104 93.449501
10.7766 -9.1062803 95.448601
10.0827 -9.04492 93.123901
9.5149002 -8.9432001 92.827797
9.7553501 -9.0050802 94.194397
10.1909 -9.073 94.832497
11.4631 -9.0415697 97.858902
10.6168 -9.0866899 97.157501
9.9285402 -9.0331202 95.995499
9.3592196 -8.9082804 94.458298
8.5576401 -8.03971 84.365501
8.1335497 -7.9648299 84.329399
8.1255703 -7.6554699 82.017197
7.7400398 -7.5792799 81.976898
7.7053699 -7.8422799 84.266899
7.3583298 -7.4692602 81.940598
7.9812198 -8.1484203 86.464699
8.1840601 -8.3766499 88.510696
8.4375 -8.5603704 90.546402
8.8494596 -8.7418003 92.603897
17.051201 -3.9914 104.658
16.8288 -4.2435298 105.423
16.8794 -3.7992301 105.723
17.0301 -4.2915301 104.251
16.7915 -4.6229901 104.989
17.2038 -3.77333 104.108
17.160801 -4.04213 103.915
17.120001 -3.5697501 104.857
17.2402 -3.4895899 104.312
15.6331 -4.5528498 109.206
15.4039 -4.9126902 109.527
14.7003 -4.8828301 111.177
16.069 -4.22998 108.19
15.9881 -4.65064 108.118
15.4205 -4.3527098 109.858
16.0453 -3.7127099 108.508
17.236799 -3.0001299 104.776
17.384899 -3.0788 103.903
17.3601 -2.2381499 104.377
17.6243 -2.2915299 102.651
16.9475 -3.2387199 105.863
17.0014 -2.4100699 105.864
17.376499 -3.45735 103.439
17.259001 -3.9649401 103.341
17.581499 -3.0994699 102.262
17.4174 -3.81639 102.223
16.5527 -3.7140701 106.992
16.4986 -4.2083402 106.821
16.589701 -3.1466701 107.117
16.4475 -4.63099 106.564
16.3897 -5.0353899 106.226
15.7785 -5.4800901 107.836
15.884 -5.0573301 108.032
17.061701 -4.47609 103.587
16.7623 -4.9779902 104.38
17.168501 -4.5367398 102.432
16.7537 -5.3865499 103.137
16.3099 -5.4611001 105.801
15.6571 -5.9310598 107.538
16.189301 -5.9170799 105.268
15.5485 -6.3516202 107.048
15.1772 -5.3743501 109.664
14.4001 -5.6094198 111.246
14.9944 -5.8689899 109.547
14.1597 -6.2168999 111.085
13.6382 -5.8556299 112.588
13.3908 -6.5665202 112.295
12.7067 -6.8866801 113.229
13.7884 -5.0826998 112.87
12.9457 -6.10568 113.644
13.0885 -5.2463298 114.003
13.1181 -7.1985698 111.832
12.4 -7.5253301 112.721
12.8527 -7.71877 111.196
13.9402 -6.8053999 110.694
13.8123 -7.3674102 109.792
14.8291 -6.3807702 109.233
14.7759 -6.8049502 108.563
13.5362 0.28758401 113.82
13.4444 0.95882201 113.562
14.0644 0.374659 112.545
12.8746 0.84477597 114.813
12.7675 1.57332 114.492
13.5909 -0.36342099 114.013
12.9466 0.103427 115.043
14.1406 -0.235799 112.757
14.1861 -0.79230398 112.916
14.8568 -2.36133 111.69
14.8655 -2.78721 111.641
14.2681 -2.67067 112.901
15.4028 -2.3447101 110.414
15.4184 -2.78249 110.351
14.8236 -1.94257 111.759
15.3288 -1.94175 110.573
14.2549 -2.21383 112.964
14.2402 -1.75464 112.994
14.6833 -0.68924099 111.702
14.7062 -1.13343 111.856
15.1316 -1.04585 110.777
15.0462 -1.31038 111.109
14.6397 -0.15556 111.481
15.152 -0.57367402 110.454
13.6144 -0.95317101 114.129
12.9839 -0.60520703 115.18
13.6226 -1.5002199 114.169
13.004 -1.25676 115.223
14.2177 -1.28887 112.988
15.4764 -1.3433501 110.051
15.724 -1.67041 109.531
15.5904 -0.85100901 109.522
15.1916 -1.58485 110.841
14.7614 -1.53887 111.848
15.864 -2.0977001 109.242
15.9035 -2.6053901 109.142
16.2306 -1.73526 108.217
16.2927 -2.3141601 108.101
14.8739 -3.2024901 111.559
14.9491 -3.6073301 111.286
14.3683 -3.64169 112.479
15.3879 -3.2109201 110.358
15.3357 -3.52036 110.413
14.2958 -3.13396 112.768
15.8462 -3.1465499 109.211
15.6182 -3.6412301 109.671
16.254801 -2.94328 108.144
15.1485 -4.0074902 110.676
14.4983 -4.2198901 111.978
13.6329 -2.0206499 114.138
13.6507 -2.5258601 114.046
13.0493 -2.41822 115.053
13.0253 -1.85543 115.172
13.6793 -3.0415001 113.892
13.0731 -2.98733 114.887
13.7294 -3.6248801 113.635
13.1021 -3.6320601 114.656
13.7938 -4.3158202 113.254
13.1251 -4.39643 114.35
16.670799 -6.0223899 100.502
16.252399 -6.6894002 100.159
16.063299 -6.7389302 102.282
16.7395 -5.9356999 98.108299
16.253401 -6.6335602 97.830597
17.027901 -5.2758298 100.711
17.137899 -5.18015 98.318901
16.4123 -6.1596999 102.69
16.0096 -6.3800902 104.695
15.4882 -6.6799898 106.306
15.7687 -6.8076401 104.25
15.4713 -6.8833299 105.588
14.9132 -7.0445299 107.422
14.3727 -7.44349 107.952
15.1765 -7.1470799 105.891
14.806 -7.4868898 106.04
13.9507 -7.8186798 107.841
13.3147 -7.9057899 109.397
14.4336 -7.8200402 105.866
17.341101 -4.4847102 100.694
17.4555 -4.3962798 98.4132
17.5963 -3.681 100.583
17.702999 -3.58254 98.376099
12.6175 -8.092 110.445
15.4598 -7.1960101 104.037
15.0935 -7.5577598 103.889
15.6543 -7.2354798 101.943
15.1941 -7.6582198 101.654
14.6122 -8.1311798 99.200302
15.2001 -7.74336 99.498802
15.0771 -7.74927 97.265297
14.6805 -8.0133305 101.355
14.4463 -8.1645699 97.011803
14.6729 -7.8891702 103.629
15.7543 -7.2642202 99.8172
15.688 -7.2409801 97.539597
17.3538 -4.32446 95.668602
16.993299 -5.1072001 95.570503
16.886499 -4.2357302 92.599403
16.490601 -5.0223098 92.554298
17.6189 -3.50301 95.669701
17.1747 -3.40273 92.602898
16.531601 -5.86373 95.412498
15.9892 -6.5583401 95.2211
15.9935 -5.7722502 92.486298
15.4387 -6.4456501 92.400002
15.1669 -5.6328802 89.483101
14.6541 -6.2846398 89.493301
14.2403 -5.44591 86.5457
13.8128 -6.0843501 86.638199
15.6405 -4.8906498 89.454597
14.6724 -4.71561 86.441399
16.031099 -4.0975499 89.420403
15.0392 -3.9263599 86.335899
16.3228 -3.2579401 89.376198
15.3213 -3.0929201 86.226898
14.2604 -3.7449801 83.491699
13.9334 -4.5117102 83.645798
13.6814 -3.5364299 80.8825
13.3534 -4.2733998 81.044403
14.515 -2.91873 83.334801
13.9305 -2.7394199 80.717003
12.9859 -7.7210999 89.426598
12.3631 -7.5026202 86.756104
13.5739 -7.2856498 89.446602
12.9051 -7.0748401 86.728699
13.6173 -7.9222898 92.103699
14.2674 -7.4885302 92.199699
14.1241 -8.0852404 94.654701
14.7746 -7.65591 94.831703
14.1323 -6.8217902 89.476303
13.3786 -6.61443 86.695396
14.8662 -7.00841 92.299698
13.5504 -5.2242699 83.7995
13.135 -5.8557701 83.9347
12.9618 -4.9612699 81.204498
12.5279 -5.5874 81.3536
12.7011 -6.3923802 84.036201
12.2356 -6.8549399 84.112
12.0696 -6.1353502 81.482399
11.592 -6.6036501 81.591499
15.3974 -7.1535201 95.021202
11.7202 -7.26441 84.177299
11.0897 -6.9944801 81.686996
17.0994 0.72014302 102.649
16.7873 1.77135 102.22
17.0305 1.84992 100.752
17.3241 -0.30447999 103.126
17.348 0.85056698 101.033
17.572701 -0.131081 101.433
17.409599 -1.32055 103.754
17.1378 -1.40459 105.107
17.6723 -1.1531399 101.977
17.893499 -0.965873 99.905098
17.8829 -1.96892 100.297
17.9811 -0.80427301 97.598701
17.981701 -1.80476 97.939499
17.7943 0.033574 99.469704
17.872601 0.16600899 97.2621
17.7799 -2.85671 100.488
17.8832 -2.7247901 98.2127
17.581699 0.96694702 99.155403
17.6602 1.07249 96.983902
17.261101 1.92672 99.046204
17.296301 2.1393199 96.757202
