# .PCD v.7 - Point Cloud Data file format
VERSION .7
FIELDS x y z
SIZE 4 4 4
TYPE F F F
COUNT 1 1 1
WIDTH 1625
HEIGHT 1
VIEWPOINT 0 0 0 1 0 0 0
POINTS 1625
DATA ascii
-14.833 2.8718901 72.376503
-14.6827 3.49139 71.996498
-15.058 2.5158 71.606102
-14.8796 3.07617 71.5783
-15.0354 2.0996499 72.610001
-15.2967 1.70485 71.640701
-15.2405 1.23579 72.805298
-15.5141 0.81163102 71.734703
-15.1916 2.49509 70.733803
-14.8885 3.26841 71.001701
-15.2059 2.7765901 69.704697
-14.8623 3.59554 70.102798
-15.4955 1.61577 70.620598
-14.6048 3.95895 71.350098
-14.2982 4.6380901 71.754898
-14.5514 4.3614802 70.451698
-14.2335 5.10179 70.784302
-15.7418 0.65192401 70.705101
-1.41079 9.4112701 75.728302
-0.96624303 10.0367 74.374397
-2.38148 9.7948599 75.765099
-1.8516901 10.3966 74.675903
-3.5102501 10.5268 75.096901
-3.04703 11.2856 73.723297
-4.7164502 11.0064 74.477798
-4.3976102 11.849 72.813301
-5.9356999 11.2394 73.901901
-5.7464499 12.0531 72.066299
-7.1602402 11.2662 73.329498
-7.0652199 11.9916 71.442101
-8.3873196 11.099 72.740799
-8.3596201 11.7311 70.885902
-9.5674295 10.6849 72.167
-9.5748901 11.2296 70.394699
-10.6832 9.9931097 71.6353
-10.7017 10.4493 69.956703
-11.6889 9.0920401 71.140602
-11.6822 9.4646101 69.562897
-12.5555 8.099 70.6866
-13.2534 7.1315098 70.289001
-13.1959 7.3970098 68.926903
-12.5215 8.4046497 69.2145
-13.7722 6.2652702 69.9543
-13.6932 6.5225301 68.6978
-14.1565 5.48666 69.668602
-14.059 5.76474 68.491699
-13.8444 5.8671098 71.153503
-15.0817 3.2046101 68.556503
-14.7721 3.98665 69.045898
-14.8688 3.6121199 67.3452
-14.6218 4.3575101 67.887703
-14.4718 4.7421198 69.392601
-14.3555 5.06214 68.249496
-13.9155 5.3591199 72.208397
-0.72776902 10.5327 72.9692
-1.53974 11.0325 73.307404
-1.36849 11.5816 71.822197
-0.61841702 10.8761 71.7033
-2.72879 11.9581 72.110298
-2.5080199 12.4455 70.419998
-4.1322098 12.4986 70.954399
-3.90434 12.881 69.069603
-5.56355 12.6239 70.0681
-5.3861799 12.8999 68.052902
-6.9720702 12.4588 69.430496
-6.8796802 12.6356 67.386703
-8.3444004 12.0998 68.962997
-8.3348198 12.1873 66.995102
-9.6140099 11.5166 68.5979
-9.67348 11.5308 66.750397
-8.3416204 12.0144 65.100098
-6.8050098 12.5581 65.511902
-8.2704296 11.6778 63.6161
-6.7809501 12.2887 63.989498
-9.7107496 11.265 64.874496
-9.6752901 10.7932 63.2714
-5.2274399 12.9189 66.278
-3.6962199 13.0108 67.454597
-5.13412 12.7338 64.822899
-3.5578499 12.9279 66.104301
-2.31043 12.7026 69.001099
-1.2249399 11.9224 70.597099
-2.17258 12.7452 67.801498
-1.12299 12.0451 69.538696
-8.2509699 11.1392 62.331902
-9.68752 10.1609 61.988201
-9.76089 9.3362198 60.875301
-6.7618799 11.8458 62.764
-8.31917 10.3597 61.1283
-6.7735801 11.1485 61.558399
-10.8475 10.3037 64.780098
-11.7656 9.2010002 64.803398
-11.8086 8.6612597 63.4072
-10.8042 10.6185 66.516403
-11.7256 9.5313501 66.348801
-10.8668 9.7723999 63.237301
-10.7475 10.6648 68.255203
-11.6968 9.61905 67.956001
-12.5011 8.51369 67.731796
-12.4999 8.4025202 66.288803
-13.147 7.4840598 67.589699
-13.1257 7.3660402 66.337502
-13.6176 6.6243 67.506798
-13.5844 6.5283799 66.474899
-13.9471 5.9303398 67.391098
-13.8504 6.0130801 66.646301
-12.643 6.84378 62.6604
-12.7415 5.9685702 61.737202
-11.9582 7.0862098 61.233299
-13.2878 5.8141098 63.250599
-13.3892 4.9512701 62.4132
-12.5761 7.53969 63.7257
-13.2081 6.5071998 64.183899
-11.8656 7.96383 62.2342
-13.6269 6.1936798 65.599998
-13.1493 7.0331502 65.207703
-13.7215 5.65906 64.801399
-13.9678 5.6336598 66.217598
-14.1206 5.0570402 65.628197
-12.5276 8.0708704 64.945999
-12.8846 4.8892598 60.941399
-12.0996 5.9811802 60.3531
-13.0583 3.64271 60.2854
-12.2831 4.6397901 59.591202
-13.5183 3.9248199 61.695
-13.6628 2.7961099 61.117401
-10.9027 9.0875301 61.986099
-10.9838 8.22682 60.9282
-11.5386 4.0078001 58.316898
-12.4883 3.1127801 58.9781
-12.7128 1.48801 58.549099
-11.2929 5.7313399 59.087898
-10.3382 4.9195299 57.8148
-10.075 6.8031301 58.786598
-11.772 2.12095 57.750999
-10.5759 2.8059499 57.073601
-11.1153 7.1308398 59.973099
-9.8883104 8.2550201 59.825699
-12.1536 -3.51193 57.393501
-12.2166 -4.9883199 57.5009
-11.168 -5.1151199 56.750702
-13.0597 -3.4710901 58.242298
-13.0939 -4.8323398 58.3046
-12.0584 -1.59031 57.305302
-12.9824 -1.76679 58.183701
-11.0523 -3.4550099 56.576401
-10.9143 -1.33287 56.482201
-11.939 0.260703 57.423199
-10.7609 0.722835 56.642101
-12.8731 -0.127321 58.288898
-9.4403801 1.2304 56.021301
-9.2089396 3.4721301 56.568001
-7.9576898 1.69563 55.608501
-7.6704302 4.0353999 56.269199
-9.6497402 -0.99172002 55.792
-8.2298899 -0.61536902 55.299801
-10.5341 -11.1943 57.536098
-9.6719398 -11.0235 57.0187
-10.6509 -12.5867 58.033298
-9.9169397 -12.4605 57.516899
-11.3518 -11.3174 58.108501
-11.3383 -12.715 58.6003
-10.4372 -9.9154902 57.149601
-11.3527 -9.9890804 57.716702
-5.1487098 12.3155 63.437599
-3.5434799 12.6078 64.701797
-5.2091498 11.6329 62.0746
-3.6485801 11.9802 63.103901
-8.4432402 9.2702999 59.920601
-6.8407898 10.0817 60.225498
-8.6662598 7.7404199 58.663502
-7.0430899 8.49438 58.734798
-8.9424601 5.7311401 57.473801
-7.3502402 6.3926001 57.330299
-2.1545501 12.5605 66.442902
-2.2525899 12.0904 64.7687
-1.2035201 11.6501 66.517899
-1.11494 11.9623 68.234901
-5.31885 10.5977 60.6124
-3.8433101 10.9893 61.388401
-5.51583 9.0402403 58.998501
-4.0743699 9.4640102 59.570702
-5.7596502 6.91785 57.450802
-4.3766298 7.2581601 57.750999
-6.04038 4.4797802 56.232101
-4.68011 4.6856699 56.3209
-6.3780298 2.0680499 55.443699
-4.9399199 2.28985 55.477798
-6.6967001 -0.238866 55.058498
-5.1616902 0.105435 55.074902
-13.8298 4.9632602 64.012001
-13.9387 4.1160498 63.254799
-14.2694 4.3496199 64.963303
-14.3961 3.51472 64.260498
-14.8756 2.22683 64.699799
-14.4911 2.58885 63.5956
-14.938 1.31081 64.060303
-14.5585 1.63309 63.024399
-14.7646 3.12205 65.405403
-14.6066 3.9500599 66.107399
-14.413 4.6774702 66.6996
-14.197 5.3157902 67.131599
-14.2433 1.10668 61.618099
-14.1457 2.12029 62.034698
-13.8058 1.64378 60.679699
-14.3378 0.110209 61.3162
-13.9364 0.49322599 60.356201
-14.6169 0.70767999 62.5821
-14.6818 -0.18839701 62.2878
-14.9658 0.442123 63.543701
-15.0056 -0.359108 63.2411
-14.0429 3.1435201 62.5797
-15.0992 -1.20434 63.187099
-14.7625 -1.11216 62.133301
-15.2164 -2.28654 63.215302
-14.8523 -2.1656301 62.053001
-14.431 -0.90805101 61.112701
-14.0476 -0.67886603 60.124699
-14.519 -2.0197201 60.988602
-14.1609 -1.94056 60.0047
-14.6104 -3.2983899 60.967499
-14.9343 -3.4339499 62.019299
-15.0115 -4.8179898 62.040001
-14.2481 -3.3160801 60.006802
-14.6775 -4.5752702 60.985401
-14.2973 -4.56006 60.031101
-15.3053 -3.6945701 63.218498
-15.373 -5.2680602 63.245098
-14.6989 -5.8203602 60.9935
-15.0463 -6.1956601 62.041
-15.007 -7.5213099 62.008801
-14.3022 -5.7797198 60.0676
-14.6683 -7.06953 61.013901
-14.2683 -7.0188899 60.1339
-15.4167 -6.9223199 63.294102
-15.338 -8.4800196 63.212601
-13.7507 -3.4024601 59.1105
-13.673 -1.8732001 59.0793
-13.7842 -4.6724501 59.145
-13.7698 -5.9194899 59.208199
-13.0794 -6.1287899 58.402
-13.7299 -7.1621599 59.307499
-13.0483 -7.3664398 58.535
-13.5605 -0.43334699 59.191399
-13.4064 0.95314598 59.422901
-13.2415 2.31144 59.7845
-14.3946 -10.8414 61.594601
-14.2079 -12.3484 62.165901
-13.7138 -12.7849 61.462101
-14.7756 -10.3575 62.246101
-14.6704 -11.7911 62.904301
-14.4969 -9.5113401 61.2099
-14.7491 -9.4437904 61.764801
-13.9503 -11.1688 60.8895
-14.1011 -9.6732702 60.4856
-15.1034 -9.6224699 62.826401
-14.8861 -8.65903 61.890301
-15.1084 -11.1548 63.7542
-14.5908 -8.2859402 61.052898
-14.2021 -8.2994499 60.253502
-13.6795 -8.4453802 59.469398
-13.0223 -8.6073999 58.725899
-13.5925 -9.8382301 59.7374
-12.9651 -9.9508801 59.0103
-12.2423 -8.7346601 58.047401
-12.2157 -9.9991903 58.335999
-12.2426 -7.5567002 57.830299
-11.3392 -8.8048801 57.4268
-11.3064 -7.6922302 57.1852
-13.4338 -11.3668 60.154301
-13.1845 -13.0086 60.721001
-12.6175 -13.0185 59.963501
-12.8332 -11.4359 59.425201
-12.1379 -11.4054 58.738998
-12.0067 -12.8831 59.245201
-12.2392 -6.3337998 57.6506
-11.2515 -6.4946399 56.9566
-2.2639401 -4.8413501 56.7999
-2.71345 -4.9162798 56.350498
-2.0547299 -3.47471 56.596001
-2.4796801 -3.54513 56.180901
-1.89612 -4.5816202 57.174301
-1.72744 -3.26823 56.937698
-1.7834899 -1.8336 56.573898
-1.4957 -1.70312 56.904301
-1.2584 0.055865999 57.118698
-2.1912799 -1.85788 56.166698
-1.49783 0.0037700001 56.805599
-1.8544101 0.037797999 56.4189
-1.22584 1.97251 57.377102
-0.96514302 4.1765299 58.502499
-1.23694 4.4646902 58.251999
-1.0333 1.90648 57.647301
-0.81920499 3.8889 58.612099
-1.5396 2.0866699 57.016399
-0.90238899 1.96016 57.916801
-0.72012299 3.86989 58.842999
-0.828641 1.84006 58.137798
-0.659069 3.89571 59.1101
-1.09717 0.119442 57.3871
-1.01238 -0.098615997 57.619099
-1.17986 -2.3282599 57.7215
-1.36766 -3.40785 57.6413
-1.19602 -1.6995 57.421799
-1.33683 -2.71224 57.392101
-1.00091 -0.79453802 57.850101
-1.60194 -4.1162 57.464199
-1.47725 -2.96632 57.211102
-1.29966 -1.56021 57.175098
-3.2646301 -4.90276 55.871799
-3.9325099 -5.0100002 55.500702
-3.0313599 -3.5141001 55.723
-3.72068 -3.53913 55.3368
-3.7773099 2.32375 55.6394
-2.79269 2.28894 56.003601
-2.46418 4.7480102 57.0723
-4.0657802 0.2317 55.203499
-3.1303799 0.23858801 55.5098
-3.4704199 4.75841 56.582802
-2.7412 -1.78345 55.7145
-2.39045 0.14419299 55.9543
-3.4499099 -1.73299 55.312302
-2.0425601 2.1989999 56.520599
-1.72411 4.6409602 57.7076
-0.53937799 11.0528 70.753304
-0.48433799 11.0434 70.010498
-0.48068601 10.8687 69.2202
-0.54448003 10.638 67.678497
-0.709041 10.2293 65.505501
-1.4112999 11.0198 64.379799
-1.76689 9.7418699 61.749901
-0.33570701 9.2713003 65.777702
-1.00659 9.2677202 62.8297
-0.579243 8.6011801 63.284901
-2.4898701 11.2405 62.770802
-2.8077099 9.7655697 60.531399
-3.13485 7.4853601 58.307098
-2.13112 7.5171199 59.080502
-1.40175 7.2930102 59.903301
-0.94798601 6.91503 60.4352
-0.71710998 6.4300399 60.439201
-0.61215103 5.9213099 60.203098
-0.374084 7.4668899 62.336601
-0.40720099 8.00459 62.992199
-0.81651199 1.23028 58.2533
-0.64213997 3.61303 59.227299
-0.55320001 5.68857 60.216999
-0.51927298 5.68647 60.464802
-0.40189901 6.7213202 61.6394
-0.38209301 7.03475 61.887299
-0.50120097 5.7171402 60.769402
-0.34744 7.01508 62.325401
-0.19975799 8.3846798 64.778099
-0.197512 7.74191 63.630299
-0.251849 7.3768501 62.9529
-10.3566 -8.7969904 56.8577
-10.2719 -7.7416701 56.599701
-7.0121899 -2.5800099 55.0037
-7.30264 -4.8125601 55.252899
-5.8612099 -4.2617002 55.077801
-8.4933996 -2.9911201 55.315899
-8.7309198 -5.16361 55.610901
-5.5225101 -2.13065 54.937801
-9.8474598 -3.2840199 55.860699
-10.0227 -5.1813798 56.100399
-10.164 -6.5735202 56.340599
-8.9296103 -6.5362 55.8494
-4.3231301 -1.82032 55.0555
-4.5445299 -3.75141 55.1334
-4.8751702 -5.4408302 55.3396
-6.1600399 -6.0988598 55.411499
-7.5556002 -6.3726802 55.538601
-11.0962 -17.265499 60.465698
-11.5144 -15.8573 60.234699
-11.8871 -16.568899 61.206299
-10.9125 -15.6249 59.404499
-11.2644 -15.1828 59.5746
-10.5673 -18.2651 60.292301
-10.3938 -16.013599 59.043999
-11.3661 -18.635799 61.790298
-10.6679 -20.8645 61.776402
-13.2681 -17.000799 63.932701
-13.5364 -15.6047 63.471802
-14.0145 -14.7131 63.790001
-12.4233 -18.531799 63.398499
-12.9209 -16.5079 62.982201
-14.1073 -15.0195 64.230698
-13.8895 -14.0024 62.8367
-13.3647 -14.5518 62.180698
-14.3584 -13.4415 63.517399
-11.7768 -19.087299 62.652699
-11.17 -21.511801 62.925201
-12.3573 -16.858999 62.221199
-10.7737 -14.0577 58.631901
-10.168 -14.0875 58.158798
-11.3096 -14.0986 59.134998
-11.8122 -14.3759 59.784
-12.3112 -14.6987 60.5751
-12.8303 -14.7964 61.411201
-14.7581 -13.0554 64.309799
-8.7757502 -10.8159 56.570499
-9.1628704 -12.2929 57.042301
-8.4344397 -12.1707 56.6507
-7.9247799 -10.7626 56.250301
-7.26126 -11.092 56.108501
-6.9516802 -11.8759 56.141201
-7.8077998 -12.2149 56.396
-7.42556 -12.3869 56.295502
-7.5644498 -16.8957 56.966801
-7.3322601 -14.8146 56.619701
-7.9432302 -15.1436 56.904598
-6.9278202 -16.5182 56.682701
-6.7582002 -14.5557 56.452099
-7.6455798 -19.2383 57.4165
-6.9618101 -18.749901 56.962799
-8.1820898 -17.3095 57.399502
-8.2666101 -19.7425 58.044201
-6.1525798 -13.1132 56.242298
-6.5040302 -12.9659 56.238701
-6.2037501 -14.3207 56.366402
-6.2350101 -16.1507 56.5103
-6.1649599 -18.2631 56.6549
-7.0467801 -13.1247 56.327702
-7.6364198 -13.4289 56.518299
-8.2285404 -13.6332 56.7883
-8.5697403 -15.4809 57.316299
-8.8570604 -13.8009 57.166599
-9.1971302 -15.8037 57.858601
-9.5168304 -13.9865 57.6497
-9.8113098 -16.044701 58.484901
-8.8039503 -17.756599 58.0051
-8.8762398 -20.2714 58.868599
-9.4149199 -18.197901 58.775002
-9.4584398 -20.7771 59.863201
-7.5315299 -21.703699 58.004902
-8.1588697 -22.2658 58.853001
-7.8495698 -24.7176 59.5396
-6.81108 -21.1336 57.3283
-7.22297 -24.214199 58.658699
-6.4844699 -23.6276 57.772999
-5.94871 -20.5562 56.833
-5.5911598 -23.0249 57.091202
-9.9995899 -18.500299 59.6343
-10.0007 -21.133699 60.938499
-9.7551804 -23.482 61.388401
-9.2894001 -23.2108 60.6413
-9.3028402 -25.752399 61.683899
-8.91152 -25.4704 60.953201
-10.1679 -23.716499 62.220299
-9.6235905 -25.988501 62.4627
-10.5463 -23.946199 63.160301
-9.91049 -26.205999 63.321499
-8.7504997 -22.8237 59.862202
-8.4185104 -25.1152 60.2351
-2.7788601 -6.6550398 62.184101
-2.31338 -6.12643 62.251202
-1.96971 -5.4554901 61.474998
-1.63834 -3.92028 60.4188
-1.3579299 -2.3865099 60.018398
-2.43821 -11.3771 69.783203
-0.110188 5.5566702 61.991501
-0.156422 5.7669601 62.3036
-3.0969601 -24.7794 56.837002
-2.1549001 -24.546 57.057098
-2.5004799 -27.3207 57.471199
-1.58456 -27.100599 57.499199
-4.1107101 -25.141899 56.9501
-3.50317 -27.664801 57.643002
-1.8719 -29.392401 57.7626
-2.84638 -29.7391 57.9272
-2.2055099 -31.480499 58.1945
-0.97967601 -29.164 57.750401
-1.26344 -31.121901 58.026299
-0.39524901 -30.904301 58.014702
-1.32551 -24.404499 57.535301
-0.79734403 -26.948299 57.608398
-0.077344999 -26.798401 58.086899
-0.59145498 -24.317699 58.216301
-0.21226101 -29.044901 57.855099
0.46490499 -29.0233 58.057701
0.35584199 -30.818199 58.1213
1.02538 -30.847099 58.320702
-0.70173401 -32.529701 58.2812
-1.6211801 -32.879299 58.444698
0.14987101 -32.336399 58.272598
0.071330003 -24.179001 58.854198
0.64207399 -24.077299 59.627899
0.58663899 -26.7062 58.732101
1.16738 -26.6527 59.492599
1.1329499 -28.984501 58.6791
1.73016 -28.991301 59.427601
1.66315 -30.933201 58.692402
2.26528 -30.996599 59.429798
1.0985301 -24.001801 60.482201
1.4604501 -23.9519 61.381802
1.63047 -26.619101 60.315601
1.98945 -26.6 61.188702
2.19189 -24.1623 65.8713
2.10041 -24.313101 66.744499
2.68016 -26.642799 65.357697
2.62324 -26.6917 66.113602
2.20456 -24.052799 65.003502
2.6819 -26.622 64.603302
1.94288 -24.5161 67.651703
1.73638 -24.760401 68.618698
2.5176899 -26.7887 66.886497
2.3633499 -26.957399 67.694
3.0513999 -28.9445 66.2882
2.9546299 -29.1378 66.955704
3.5085001 -30.754299 65.785896
3.5026 -31.2061 66.348198
3.11639 -28.851299 65.653198
3.4479101 -30.270201 65.421799
2.1240201 -23.985399 64.122704
2.61748 -26.6092 63.825401
1.98481 -23.940001 63.221401
2.4814401 -26.5998 62.993599
1.75555 -23.931101 62.302299
2.27125 -26.5951 62.099201
2.20752 -29.0317 60.222401
2.57254 -29.0818 61.061501
2.75014 -31.1089 60.2043
3.1219201 -31.2355 61.013199
2.8508201 -29.120701 61.941601
3.0508399 -29.1325 62.806599
3.4035599 -31.338499 61.8606
3.6028199 -31.3904 62.715801
3.87274 -33.2043 61.8591
3.5870299 -33.022999 61.024399
4.0749602 -33.344002 62.737
2.15886 -32.545101 58.834702
2.7356999 -32.681702 59.467098
1.54697 -32.369598 58.574699
3.21436 -32.839298 60.2299
3.8814399 -32.138199 65.225098
4.0004201 -33.103298 65.755402
4.1229401 -33.028198 64.5103
3.60025 -30.7591 64.950203
3.7147801 -31.166901 64.2882
3.18204 -28.9202 65.010002
3.2140601 -29.037701 64.329102
3.1723101 -29.106899 63.601898
3.7131901 -31.3543 63.535999
4.1770601 -33.364101 63.646999
0.888901 -32.289501 58.379101
0.87519199 -25.5912 70.895599
1.68247 -27.9823 70.251801
1.42566 -28.513 70.858299
1.2069 -25.2656 70.382599
1.94252 -27.5704 69.453003
0.51112002 -25.9865 71.414803
2.3989301 -30.1658 69.275597
2.2077999 -30.7616 70.223602
3.08776 -32.335999 68.566803
2.90328 -32.868198 69.402199
2.5955 -29.700199 68.402802
3.24103 -31.8834 67.690002
1.49194 -25.0068 69.630898
2.1673801 -27.2183 68.552696
2.7978201 -29.379101 67.663597
3.4008 -31.5488 66.980103
3.94678 -33.674 66.405701
3.8631499 -34.1488 67.325996
3.7376101 -34.6152 68.158203
3.5739601 -35.117001 68.927299
0.49609599 -33.447399 72.320099
-0.32706299 -30.6371 72.720703
0.056837 -30.3496 72.500801
0.060718 -33.6991 72.508301
-0.71790701 -30.8435 72.889503
1.1689 -35.754002 71.897697
0.67704397 -36.0467 72.093102
0.91762799 -33.080502 72.067802
1.62884 -35.327499 71.635597
1.32111 -32.594601 71.740303
2.0529201 -34.7785 71.301903
1.68048 -32.017799 71.337799
2.41241 -34.145199 70.905197
0.430318 -29.979 72.219704
0.78960299 -29.538799 71.860397
-1.2654901 -27.616699 73.0401
-1.6413701 -27.7766 73.188301
-0.90417397 -27.4153 72.856201
-0.56791401 -27.1576 72.635498
-0.229864 -26.8221 72.347099
0.13925999 -26.4258 71.9459
1.12628 -29.0457 71.407799
1.97444 -31.3941 70.865303
2.6870301 -33.484402 70.190903
1.73401 -37.625198 71.544296
2.23453 -37.229099 71.3088
1.19107 -37.921398 71.7276
2.6863899 -36.7556 70.880898
3.06745 -36.227699 70.316399
3.35887 -35.666401 69.655602
-1.76151 -32.1689 73.057297
-1.7861201 -33.425301 72.899498
-2.8754101 -30.911501 73.214302
-1.00747 -33.363998 72.830597
-0.68118399 -35.764999 72.441399
-2.1298399 -30.221901 73.252899
-1.58682 -30.7647 73.136497
-2.6384499 -30.2834 73.285698
-2.6071301 -29.5534 73.339798
-0.41612399 -33.777199 72.6576
0.127084 -36.159 72.244797
-1.12508 -30.9317 73.020599
-2.18383 -33.885899 72.796997
-3.3441999 -31.17 73.125603
-2.7980199 -33.853001 72.697197
-3.9489801 -31.181601 72.990898
-1.26863 -36.158001 72.3703
-1.9169 -36.042099 72.3134
-2.02191 -27.8743 73.300301
-2.42277 -27.867701 73.385002
-2.8554699 -27.738701 73.445999
-3.2632401 -27.671499 73.4757
-3.61764 -27.844299 73.464897
-4.0308499 -28.0874 73.4132
-4.5767598 -28.2204 73.308601
-5.1900401 -28.261801 73.139099
0.59684402 -38.0755 71.863197
-0.035698999 -38.100101 71.9515
-0.68093997 -38.051102 71.9879
-1.3603899 -37.893902 71.982498
-3.4839799 -33.667801 72.536003
-4.2020798 -33.421001 72.291801
-5.2429199 -30.9657 72.506699
-2.63554 -35.779999 72.203003
-3.3879399 -35.472801 72.021698
-4.5906401 -31.096399 72.7883
-5.7964101 -28.258499 72.905602
-6.3892398 -28.226999 72.603104
-6.2523899 -32.6908 70.725403
-5.4373002 -34.926498 70.233704
-5.9615998 -34.8978 69.427399
-5.62359 -32.8703 71.569
-4.82024 -35.018501 70.999901
-7.1496902 -30.4238 71.212402
-6.5504498 -30.6042 71.6996
-6.7875299 -32.610699 69.841103
-7.64853 -30.366501 70.430397
-8.07833 -28.087 71.336304
-7.5616598 -28.106701 71.769699
-8.5115404 -28.117701 71.002502
-6.9828501 -28.1695 72.224602
-5.9047799 -30.7948 72.140701
-4.9278102 -33.140099 71.963097
-4.1283002 -35.198799 71.685303
-7.1758199 -32.666599 69.147499
-7.45509 -32.772598 68.525497
-8.3339195 -30.485001 68.994202
-6.38305 -34.9104 68.618698
-6.64709 -35.0271 68.052399
-8.0374403 -30.4042 69.702698
-8.8906403 -28.1854 70.208504
-9.2030497 -28.256701 69.406403
-4.7495098 -37.067001 69.836403
-5.25809 -37.061001 69.097801
-4.1606798 -37.101398 70.513802
-3.5177701 -37.181999 71.089699
-2.8255301 -37.348801 71.542999
-5.6659799 -37.063 68.337402
-5.9668002 -37.090199 67.621002
-2.0910699 -37.616901 71.859497
-7.6524801 -32.889 67.899902
-6.8340201 -35.137901 67.501999
-6.9643302 -35.226299 66.945396
-8.5399504 -30.592199 68.2761
-7.7909398 -32.987301 67.254303
-8.6794901 -30.6931 67.529602
-7.8884702 -33.0439 66.575302
-7.0546999 -35.275002 66.359001
-7.1136599 -35.272598 65.719398
-8.7726297 -30.761999 66.753197
-7.9416399 -33.056 65.855598
-8.8098803 -30.7833 65.947701
-9.4284897 -28.348 68.604797
-9.5697298 -28.455799 67.777298
-9.6411896 -28.554501 66.914398
-9.6469498 -28.6071 66.035103
-9.5693598 -28.607901 65.144203
-8.7529202 -30.8104 65.110497
-8.4509201 -31.1535 64.0811
-9.4151497 -28.529301 64.245399
-7.9166498 -33.090599 65.094101
-7.1277099 -35.254902 65.026901
-7.0487099 -35.344398 64.3302
-7.7156 -33.432098 64.324402
-6.4458699 -37.129601 64.861397
-6.4050899 -37.233002 65.513199
-6.4349899 -37.029701 64.187202
-6.3422599 -37.273998 66.095596
-6.2586598 -37.249699 66.618103
-6.1395402 -37.182999 67.116402
-6.35221 -36.981701 63.542801
-6.2439299 -36.876202 62.937401
-6.6328001 -35.948002 63.209599
-6.84971 -35.627998 63.6852
-6.17065 -36.558201 62.3568
-6.7519598 -35.377499 62.951199
-6.1824002 -35.972698 61.861301
-6.8670902 -34.681301 62.574001
-7.29386 -34.267502 63.6026
-7.5897999 -33.120998 63.279301
-9.2122002 -28.3475 63.369202
-8.4371595 -30.465099 63.2043
-8.2495804 -30.234301 62.4776
-8.9751101 -28.1385 62.560799
-7.6538 -32.4436 62.7817
-7.5329299 -32.1768 62.2244
-6.9533501 -34.027599 62.210201
-7.03265 -33.482601 61.9725
-6.34586 -35.089001 61.569099
-5.7876601 -35.611401 60.8652
-6.29491 -34.021702 60.896301
-6.7105298 -33.834202 61.517101
-7.2913399 -32.126598 61.647202
-8.0033302 -30.083401 61.8018
-6.95367 -32.071201 61.018101
-7.6801901 -29.8972 61.125301
-8.7033596 -27.937401 61.826401
-8.3584404 -27.6889 61.117599
-7.90238 -27.363899 60.390499
-7.3592901 -26.994699 59.6567
-7.2500601 -29.6269 60.406601
-6.7332902 -29.2995 59.6642
-6.7483401 -26.617901 58.953701
-6.1426902 -28.9561 58.939899
-5.4161601 -28.5662 58.333199
-6.01472 -26.1994 58.265301
-5.1162701 -25.641199 57.450199
-4.5083799 -28.098301 57.949902
-3.8188901 -30.191401 58.246799
-3.13936 -31.9653 58.525398
-4.6990499 -30.689199 58.652699
-3.98669 -32.511101 58.946301
-6.53267 -31.8741 60.326401
-5.8445001 -33.9202 60.214298
-5.3105302 -33.5336 59.787899
-6.0351 -31.5769 59.596802
-5.4337101 -31.169399 59.0709
-4.7033901 -33.044102 59.378502
-2.5280299 -33.371498 58.7701
-3.3489101 -33.943401 59.191502
-4.0475702 -34.520199 59.631802
-4.65308 -35.062099 60.052898
-5.2210302 -35.509602 60.436901
-9.02038 -32.1633 27.9764
-8.5447102 -32.0662 27.878401
-8.2049103 -32.371799 29.344801
-9.2319403 -31.821899 26.732
-8.8534403 -31.7318 26.648899
-9.4021101 -32.421902 28.0445
-9.5375996 -32.0424 26.8092
-8.7962503 -32.485802 29.4641
-9.2796698 -32.795601 29.532101
-10.218 -37.283699 27.2904
-10.5117 -36.839802 26.206499
-10.7182 -36.4515 26.396799
-9.7585602 -37.820702 27.0569
-10.0355 -37.417599 25.7656
-9.9739599 -37.750702 28.4813
-9.5228701 -38.2658 28.2848
-10.4607 -36.865398 27.4753
-10.2408 -37.310902 28.6476
-8.0075502 -32.153099 27.739201
-7.5570898 -32.4767 29.194201
-7.4745898 -32.395302 27.591499
-6.954 -32.7374 29.019199
-8.4078703 -31.7945 26.5401
-7.9219799 -32.0298 26.4303
-6.99333 -32.743301 27.462601
-6.46735 -33.072899 28.822599
-6.5411301 -33.157299 27.324301
-6.06111 -33.4538 28.6108
-7.42307 -32.4193 26.3353
-6.9109402 -32.8965 26.2328
-10.2355 -34.001099 28.0618
-9.9628897 -33.3428 28.1105
-9.94872 -33.810299 29.481001
-10.32 -33.564602 26.881399
-10.0413 -32.8965 26.9324
-10.4747 -34.695202 27.9657
-10.5816 -34.276798 26.782499
-10.2078 -34.452702 29.389999
-10.4062 -35.1166 29.272699
-10.6015 -36.415001 27.6124
-10.4128 -36.847 28.814199
-10.6604 -35.901402 27.732
-10.5073 -36.325901 28.980801
-10.826 -35.999699 26.5175
-10.8459 -35.477402 26.608101
-5.0173302 -35.472698 26.637199
-5.15975 -34.985802 26.7337
-5.3076901 -34.804001 25.766899
-4.81743 -35.733002 27.7778
-4.9278998 -35.2276 27.9226
-4.92416 -35.970501 26.5383
-4.7477999 -36.260201 27.6415
-5.1332898 -35.271099 25.7008
-5.0236301 -35.742599 25.622299
-4.8769498 -36.492699 26.431601
-4.7224002 -36.810799 27.532101
-4.91712 -37.1185 26.309
-4.7871399 -37.4426 27.431601
-4.9747 -36.2444 25.512501
-5.0111799 -36.8573 25.374201
-10.6214 -35.333 27.8503
-10.5084 -35.748001 29.1353
-10.7648 -34.9137 26.689699
-9.6979303 -32.812302 28.097
-9.7902498 -32.388699 26.8943
-9.6506395 -33.247299 29.5345
-5.3757801 -34.5196 26.8384
-5.5659299 -34.339802 25.8466
-5.6876101 -34.063 26.9751
-5.9292102 -33.870701 25.958
-5.0981398 -34.757401 28.059099
-5.3488102 -34.310101 28.2097
-6.0925798 -33.605499 27.150499
-5.68187 -33.872101 28.3979
-6.3948998 -33.3895 26.098499
-11.0806 -35.608601 25.535101
-11.078 -35.033298 25.6304
-11.3455 -35.270599 24.709
-11.3223 -34.641499 24.8241
-10.9728 -36.118198 25.395201
-11.2276 -35.848499 24.5301
-11.5955 -35.014702 24.059401
-11.5369 -34.3806 24.1814
-11.4927 -35.609402 23.8486
-10.7704 -36.513302 25.2195
-10.9959 -36.2915 24.378099
-10.4837 -36.893799 24.912399
-10.6685 -36.713001 24.190399
-11.2361 -36.098801 23.7244
-10.859 -36.578499 23.5921
-10.3995 -37.152901 23.348
-9.8799 -37.7761 23.149099
-10.2541 -37.235199 23.9809
-9.7450199 -37.827702 23.8904
-5.2382698 -37.006699 23.365101
-5.3550801 -37.607201 23.266199
-5.3601999 -37.744099 23.793699
-5.1145701 -36.375099 23.465599
-5.2237301 -37.156898 23.903299
-5.1010399 -36.5158 24.026699
-5.0173502 -36.072201 24.795799
-5.0703101 -36.6637 24.634399
-5.0189199 -35.9398 24.1966
-5.0605302 -35.565399 24.930799
-5.0523901 -35.408501 24.355
-5.0050802 -35.801102 23.606199
-5.0271902 -35.241299 23.7596
-5.2048898 -35.076599 25.0131
-5.24582 -34.8713 24.4501
-5.4308 -34.600498 25.063601
-5.5407901 -34.363602 24.496799
-5.2670498 -34.654598 23.862499
-5.6347799 -34.1091 23.917801
-5.7262902 -34.145599 25.115499
-5.8759499 -33.917198 24.528299
-6.1208801 -33.686501 25.180401
-6.2897401 -33.472198 24.5478
-6.0212898 -33.654701 23.9464
-6.4580698 -33.199402 23.943399
-6.62817 -33.192001 25.2575
-6.8195601 -32.958599 24.559299
-7.1879201 -32.652 25.343201
-7.4011102 -32.369999 24.5888
-6.9966202 -32.642502 23.9109
-7.5820198 -32.022301 23.8948
-7.7300801 -32.100601 25.427
-7.9481101 -31.780899 24.6611
-8.2315102 -31.662901 25.5166
-8.4361095 -31.335501 24.7775
-8.1259098 -31.455299 23.966499
-8.6030302 -31.0485 24.1106
-8.6869297 -31.441099 25.621599
-8.8702297 -31.132 24.9079
-9.0828896 -31.4119 25.720301
-9.2438402 -31.1285 25.0233
-9.0180397 -30.8668 24.2764
-9.3736801 -30.868799 24.4231
-9.4104004 -31.5114 25.7997
-9.5532799 -31.242201 25.113001
-9.6780796 -31.723499 25.877001
-9.8107204 -31.466101 25.1891
-9.6753197 -30.9862 24.5333
-9.93717 -31.218399 24.615601
-9.9126196 -32.060299 25.9547
-10.0438 -31.818899 25.241301
-10.1591 -32.5546 25.9643
-10.2939 -32.305401 25.184601
-10.1828 -31.585699 24.6486
-10.4462 -32.0751 24.528299
-10.4411 -33.197899 25.864401
-10.5835 -32.895599 24.991899
-10.725 -33.867401 25.736
-10.8871 -33.502602 24.8263
-10.7447 -32.645699 24.240601
-11.0579 -33.2295 24.0334
-10.9522 -34.467201 25.673
-11.1539 -34.068699 24.814199
-11.3405 -33.7911 24.0907
-10.2186 -37.238899 24.547001
-9.8230495 -37.680901 24.705999
-9.1129704 -38.3466 24.791901
-9.1113005 -38.410801 23.9338
-8.2372198 -38.934601 24.759399
-8.2427797 -38.9519 23.8986
-9.1504698 -38.318199 25.7491
-8.2446299 -38.991199 25.593
-9.0229101 -38.532001 26.8085
-8.1554604 -39.170601 26.5679
-8.8397102 -38.886002 28.0382
-8.03088 -39.436199 27.7743
-5.9931102 -38.8848 23.1325
-6.4748201 -39.178101 23.2404
-6.5232201 -39.1889 23.8584
-5.6901398 -38.494701 23.104
-6.0145602 -38.923 23.7453
-5.7060099 -38.554401 23.6852
-6.0111198 -38.955898 24.378
-6.5758801 -39.2229 24.511
-6.6026802 -39.306099 25.274
-5.65729 -38.5728 24.2306
-5.9825201 -39.0191 25.1399
-5.4886098 -38.398701 24.952801
-5.0948901 -37.877701 26.1714
-4.9927702 -38.172001 27.3281
-5.4350901 -38.624699 26.0793
-5.3575702 -38.876202 27.2596
-5.1625299 -37.606998 25.2111
-5.2009201 -37.355701 24.473301
-5.36831 -37.962299 24.282
-5.4942198 -38.087101 23.162201
-5.5106802 -38.182598 23.7015
-5.49827 -38.273102 24.0814
-9.3212404 -38.337601 23.1462
-8.7907896 -38.763699 23.195601
-7.3452001 -39.238201 24.6535
-7.2618899 -39.2295 23.982401
-7.36976 -39.321098 25.427099
-7.14606 -39.277699 23.3634
-7.8456602 -39.194801 23.3507
-8.38447 -39.044102 23.079
-5.9365501 -39.176201 26.0984
-6.5739698 -39.469601 26.203699
-6.5102901 -39.694801 27.3682
-5.8731098 -39.405102 27.2703
-7.3203301 -39.4879 26.360001
-7.2361102 -39.718102 27.5415
-3.1993001 -43.6315 67.454697
-3.2156999 -43.865501 67.167801
-3.53844 -43.441799 66.9814
-2.9605999 -43.686798 67.810402
-2.86128 -44.1068 67.568604
-3.38254 -43.288799 67.4702
-3.1289999 -43.217201 67.982399
-3.13223 -45.162701 65.854103
-3.62063 -44.743301 65.287102
-3.7934401 -43.942501 65.726196
-3.04616 -45.790798 65.363503
-3.5113699 -45.4217 64.909599
-2.6540101 -45.537701 66.357803
-2.59183 -46.127998 65.776802
-3.19942 -44.644001 66.308098
-2.7213199 -45.030899 66.845299
-3.2223699 -44.2145 66.759903
-3.6472099 -43.664299 66.455803
-2.7899401 -44.552799 67.246902
-1.07937 -34.012501 58.6707
-0.17829899 -33.689701 58.518002
0.65478498 -33.529099 58.512798
3.97242 -34.558998 61.065102
4.2568898 -34.819801 61.898201
4.45963 -35.062302 62.793201
2.6103201 -33.888 59.060902
3.14448 -34.126999 59.518799
2.01984 -33.6525 58.809299
3.6068699 -34.324299 60.273998
4.46173 -34.982601 64.940697
4.56039 -35.204899 63.766201
4.8737302 -36.881901 63.742401
4.8568902 -37.137501 64.661697
5.1133299 -38.309502 63.591801
5.14078 -38.694302 64.515602
4.7748799 -36.615898 62.820499
5.02143 -37.977402 62.7901
5.2846899 -39.420399 63.344501
5.3950801 -40.164501 62.974998
5.4972801 -40.7953 63.785801
5.1950002 -39.060001 62.679001
5.2986598 -39.7164 62.571701
5.3527598 -39.9175 64.236504
3.9472101 -35.678299 60.3111
4.3035898 -35.972401 61.108398
4.2737398 -36.9249 60.390598
4.6022301 -37.270802 61.174999
3.4965799 -35.422001 59.556801
3.86499 -36.564499 59.7775
4.5577798 -38.078499 60.468498
4.8516798 -39.226002 60.626099
5.1034598 -39.522202 61.378399
4.19379 -37.6334 60.014999
4.5278201 -38.741299 60.285599
4.8518701 -38.4342 61.228298
5.05586 -38.751598 61.977901
5.2449002 -39.694 62.078999
4.8491402 -37.627499 61.980598
4.5798898 -36.297901 61.9431
2.9911001 -35.067799 59.249401
2.4122 -34.771198 59.001202
2.8282199 -35.793598 59.2425
3.3843601 -36.141201 59.489498
3.73788 -37.173302 59.730701
4.0929799 -38.254002 60.001202
3.2041399 -36.788101 59.487801
3.5750301 -37.825699 59.756401
5.4393802 -40.5495 62.434799
5.57447 -41.3741 63.144798
5.3828402 -40.632 61.7244
5.6181402 -42.032398 62.333698
4.47646 -39.429298 60.312698
4.8961902 -39.963402 60.6101
4.8559198 -40.611801 60.629002
5.2518001 -41.233002 60.953098
3.9660101 -38.930599 60.052399
4.3621101 -40.022499 60.342602
5.1858301 -40.461899 60.923199
5.5000901 -41.793598 61.288799
5.1505299 -41.601299 60.878502
5.4946499 -42.3172 61.2323
5.2509699 -42.145699 60.966599
5.47089 -42.7491 61.253899
4.7038002 -40.9445 60.569901
4.8929601 -41.527901 60.678101
-0.948322 -42.128101 70.606003
-1.2809 -41.4347 70.728798
-0.993613 -40.130501 71.270203
-1.13477 -42.869499 70.186203
-1.5545599 -42.258301 70.254402
-0.55196702 -42.030602 70.750198
-0.53965598 -43.612499 70.0951
-2.5771201 -43.7313 68.343697
-2.4305201 -44.245701 68.118599
-2.0980699 -43.6856 68.949203
-1.89354 -44.2812 68.744003
-2.77596 -43.168598 68.542503
-2.3564 -43.0564 69.131104
-2.31305 -44.781399 67.835602
-2.2344601 -45.3358 67.434097
-1.72866 -44.925098 68.479797
-1.54096 -45.7854 68.096199
-2.2062299 -45.8811 66.883003
-2.19958 -46.4641 66.221603
-1.7409 -46.343102 67.349602
-1.80633 -46.8965 66.655701
-1.56818 -43.4468 69.583199
-1.25718 -44.145901 69.396301
-1.92169 -42.7896 69.713799
-1.021 -44.963402 69.106697
-0.786834 -45.847198 68.790199
-0.25115299 -44.977001 69.577003
-0.038546 -46.000801 69.151802
2.904 -49.363998 61.214199
3.24243 -48.751801 60.7467
2.72667 -48.2906 59.152599
3.2153699 -49.406502 62.495701
3.6958699 -48.719501 62.350101
2.5327699 -49.890499 61.5751
2.77108 -49.9361 62.624901
2.4542301 -49.058399 59.804699
2.1775401 -49.701 60.4571
4.8337402 -46.398201 65.708801
4.7931199 -46.8573 64.8172
4.5046701 -47.3894 64.874298
5.1250801 -45.615299 65.659302
5.0745001 -46.2542 64.709801
4.777 -45.932598 66.581001
5.0619898 -44.671799 66.767799
4.5178099 -47.039398 65.708504
4.4635501 -46.648602 66.508904
4.1448002 -48.146999 63.9995
4.42451 -47.697102 64.072701
4.3443499 -47.869801 63.477501
4.1858401 -47.897099 64.910797
3.7982199 -48.688099 63.854
3.8320799 -48.443802 64.938904
4.13272 -48.187099 63.116501
4.1712599 -47.576698 65.768898
4.1221199 -47.172199 66.567902
3.80142 -48.113899 65.863098
3.6893401 -47.598301 66.894501
4.6721101 -47.276299 63.974899
4.4897399 -47.6325 63.190601
4.9362998 -46.800701 63.763
4.7226901 -47.214901 62.804501
1.85078 -48.335602 58.1716
1.03467 -47.213501 56.2369
0.67263597 -48.620602 57.2187
2.08441 -47.214699 57.4277
1.30725 -45.8214 55.664299
1.652 -49.295898 59.104
-4.2841001 -45.954399 59.445702
-4.68643 -45.426899 59.1604
-4.35958 -45.480099 59.996201
-4.1561098 -46.440899 59.149101
-4.9777398 -45.480301 57.976002
-3.9421799 -46.300598 60.071701
-3.5620201 -47.178799 60.1092
-2.98803 -46.5271 64.669296
-2.55883 -46.819099 65.026001
-2.60499 -47.419201 64.0299
-3.42642 -46.219398 64.316704
-3.04475 -47.048 63.6049
-3.53215 -46.516201 63.175999
-3.59899 -46.695999 60.824501
-4.0612202 -45.652199 60.759701
-3.8535399 -45.870602 61.4893
-3.1508601 -47.635601 60.948399
-3.3567801 -46.986698 61.620602
-2.7767701 -47.9958 61.9063
-3.1901901 -47.113899 62.5228
-2.7144201 -47.751701 62.961899
-3.69507 -46.209999 62.250999
-2.2065699 -47.116798 65.439796
-2.24635 -47.730301 64.504097
-1.85795 -47.495201 65.873199
-1.90167 -48.063801 64.9981
-2.2940199 -48.189999 63.507599
-2.2373199 -48.574902 62.6353
-1.90378 -48.538799 64.088799
-1.8236901 -48.948101 63.213902
-1.00228 -47.6991 54.6381
-1.76452 -46.311199 52.178902
-2.3127601 -46.638 52.381599
-0.37042001 -47.052601 54.406898
-1.27179 -45.651901 51.992901
-0.30150399 -48.9198 56.997898
-1.72086 -47.8997 54.771702
-1.14818 -49.1679 57.4734
2.39502 -46.266399 57.106701
3.00332 -47.537102 58.703201
3.29603 -46.836601 58.480301
1.68656 -44.709099 55.5453
2.79316 -45.556198 57.181702
2.3092201 -43.939701 55.867901
3.51476 -48.106499 60.209801
3.7492001 -47.426998 59.7416
3.9245 -48.140202 61.444801
4.1308298 -47.542599 60.8311
4.2454901 -47.930302 62.397099
4.4521799 -47.456902 61.827499
5.7017298 -43.0494 61.616901
5.7731199 -43.645401 62.341702
5.4970398 -43.376701 61.257301
5.4390202 -44.299301 61.1357
3.9232399 -44.060799 58.360001
3.6157701 -44.519798 57.9436
3.8696499 -45.4771 58.502399
3.8958499 -43.405399 58.279701
3.5125501 -43.6213 57.6866
4.2085199 -43.813499 58.8018
4.2329302 -43.208 58.8638
4.0778599 -44.8172 58.653702
4.21209 -44.3283 58.8288
4.4941902 -43.698601 59.3027
4.4005799 -44.379002 59.183201
4.69559 -44.4137 59.7089
4.5652399 -43.0961 59.468601
4.80616 -43.643398 59.851002
4.8874898 -42.9758 60.085098
5.1372199 -43.527599 60.458401
5.0352101 -44.3573 60.313599
5.1964302 -42.810699 60.729801
0.060922999 -45.8988 54.0331
-0.81197101 -44.8409 51.848701
0.447752 -44.6688 53.787998
-0.299036 -44.1007 51.811798
0.97884601 -43.914001 53.813
0.28195301 -43.345501 51.939701
1.53461 -43.223099 53.987
0.906739 -42.619202 52.1847
2.6130099 -36.512798 59.299801
2.98894 -37.481899 59.5606
1.9390399 -36.3834 59.187199
2.3064001 -37.2649 59.433701
2.2229099 -35.570099 59.0564
1.5439 -35.498199 58.950901
1.3784 -33.522202 58.618301
1.78581 -34.5942 58.816101
1.08579 -34.564098 58.716301
0.28655401 -34.690399 58.724201
0.76696903 -35.5872 58.948101
-0.58063698 -34.978901 58.869202
-0.079801001 -35.836498 59.0723
1.16287 -36.420399 59.172001
1.5127 -37.2076 59.397999
0.32483 -36.618 59.273899
0.66532898 -37.314301 59.4702
5.1262102 -42.212799 60.872398
4.86413 -42.277901 60.381302
4.8813801 -41.740002 60.6586
4.7196598 -41.6912 60.552799
4.4737802 -41.244099 60.442501
4.4036598 -41.295502 60.382401
3.8259599 -40.769798 60.283401
3.8636999 -40.901699 60.251701
4.4043598 -40.957802 60.428101
3.69717 -40.429001 60.2402
2.8968599 -40.321701 60.187401
1.83846 -39.9356 60.121799
2.04954 -40.152901 60.082802
2.7344601 -39.938202 60.116001
1.68174 -39.562199 60.0499
3.0745101 -40.533901 60.177399
3.3796301 -38.498199 59.838799
2.68294 -38.164501 59.688202
3.0711501 -39.052799 59.9286
3.78374 -39.500599 60.105499
1.86019 -37.963299 59.619999
0.982517 -37.931499 59.652199
1.26987 -38.516899 59.813301
2.2020299 -38.701199 59.824799
4.15628 -40.365398 60.315102
3.43363 -39.8447 60.121399
2.50477 -39.3867 59.993999
1.50282 -39.079201 59.946201
-5.1895499 -44.716801 58.959099
-5.6417098 -44.594002 57.799301
-6.1061702 -43.799702 57.7742
-4.8031802 -44.7682 59.9053
-5.6507602 -43.907001 58.8647
-5.2518702 -43.8437 59.9081
-5.4842501 -42.624001 60.207199
-5.2490201 -43.274799 60.4478
-5.27104 -42.4967 60.7603
-5.20859 -42.9669 60.760601
-5.5752401 -41.849998 60.199902
-5.2193599 -41.886299 60.826302
-5.7097602 -42.839001 59.582199
-5.9131899 -41.925098 59.531101
-6.0323701 -42.978001 58.7743
-6.2705102 -42.020401 58.760799
-6.4658799 -42.9161 57.7696
-6.6936498 -41.987499 57.834801
-6.9868898 -42.577599 56.5378
-7.2048602 -41.698002 56.678299
-7.5462399 -41.986401 54.980801
-7.7699399 -41.136902 55.148201
-6.6352201 -43.431702 56.450802
-7.1835098 -42.848701 54.8452
-6.1722598 -44.212799 56.350601
-6.7048202 -43.653301 54.642399
-5.65065 -44.901501 56.156502
-6.1577702 -44.343601 54.336601
4.45154 -35.750599 66.071404
4.38276 -36.304699 67.047401
4.8403502 -37.644299 65.836098
4.7705102 -38.242298 66.802803
5.1345 -39.271 65.591003
5.0683198 -39.942902 66.508499
4.2844 -36.829201 67.853996
4.1496301 -37.362 68.585403
4.6821399 -38.850101 67.586899
4.5522499 -39.443501 68.292397
4.97787 -40.651798 67.259598
4.8359499 -41.2915 67.925797
5.3856401 -44.710201 65.433296
5.3285599 -43.661301 66.231598
5.4772801 -42.653099 65.621803
5.36024 -45.532398 64.521599
5.58389 -43.668499 64.989502
5.6131902 -44.615002 64.219299
5.19315 -42.277 66.837502
5.3036098 -41.418598 66.126801
5.0199299 -42.964298 67.463898
5.3660302 -40.6082 65.246902
5.5423102 -41.6614 64.790604
5.6640401 -42.490101 64.239998
5.7450199 -43.413601 63.675098
5.2288599 -46.220501 63.494598
4.9872899 -46.669601 62.393501
5.5092301 -45.510201 63.18
5.2250099 -46.023102 61.950401
3.9744401 -46.704102 59.422501
3.59848 -46.156502 58.432701
4.1688299 -45.949799 59.234798
4.3295498 -46.851299 60.359901
4.4936199 -46.09 60.005501
4.6743898 -46.848999 61.335201
4.85882 -46.1409 60.886101
5.7204199 -44.643799 62.830299
5.3825498 -45.2626 61.484798
4.9728899 -45.3241 60.501301
4.6132102 -45.2943 59.7808
4.31072 -45.182701 59.161301
3.2292299 -45.0126 57.524101
3.04107 -43.827599 56.986698
2.7593999 -39.212601 70.816002
2.2325201 -39.538399 71.115799
1.66278 -39.812099 71.326302
2.55705 -41.440399 70.635696
2.79617 -43.219398 70.137604
2.2806699 -43.459999 70.266197
3.07932 -41.1707 70.390602
3.28462 -42.925701 69.929398
2.0011101 -41.682301 70.797699
3.64099 -38.414799 69.927101
3.2379 -38.845402 70.4291
3.57305 -40.849899 70.054901
3.78075 -42.568802 69.619698
4.00425 -40.4589 69.590103
4.2389798 -42.185398 69.170303
3.94366 -37.906799 69.294601
4.33358 -39.987999 68.979797
4.5963202 -41.785999 68.579201
4.7609701 -43.3195 68.1017
4.39504 -43.553299 68.688301
4.7795401 -44.5886 67.638199
4.4481602 -44.607899 68.2276
3.9285901 -43.899502 69.128304
3.44435 -44.319401 69.4095
4.0246501 -44.884499 68.637199
3.5975599 -45.347 68.849197
3.00419 -44.7197 69.562302
2.5294499 -45.0271 69.655899
3.2379 -45.8741 68.879997
2.81674 -46.524899 68.7883
4.0844598 -46.671902 67.244797
4.36971 -46.2258 67.191597
4.0675998 -46.154999 67.760399
4.2788601 -45.926399 67.623001
3.7936299 -46.838001 67.549103
3.8598299 -46.3745 67.884003
4.6240301 -45.552299 67.320702
4.3801899 -45.412701 67.859398
4.0593801 -45.602299 68.190201
3.7456 -46.0289 68.293198
3.50824 -46.589401 68.146202
3.3083601 -47.2481 67.848099
1.05115 -40.004299 71.442703
0.40988901 -40.080601 71.481697
-0.247639 -40.057701 71.450798
0.066428997 -42.005699 70.864197
0.74447799 -42.005402 70.898499
1.0240901 -43.734699 70.348999
0.31055301 -43.694199 70.311996
0.51336902 -45.0718 69.787102
1.24393 -45.174198 69.806099
1.4170099 -46.345901 69.267502
0.701096 -46.187401 69.2929
1.39588 -41.891701 70.878197
1.6888601 -43.650299 70.330002
1.93172 -45.174801 69.7444
2.10762 -46.440498 69.128304
-4.1856599 -38.944599 69.504402
-4.6631598 -38.957699 68.820801
-3.64818 -38.936699 70.115601
-2.4614799 -39.113098 70.997299
-3.0771599 -38.973499 70.619698
-2.81674 -40.337898 70.251701
-3.2934599 -40.362598 69.787102
-2.5847099 -41.305199 69.999298
-2.97931 -41.441502 69.532204
-2.3199201 -40.451599 70.570198
-2.2846501 -41.190899 70.295601
-3.0412099 -42.478001 68.742104
-3.3680301 -41.592098 68.959801
-3.3803899 -42.5965 68.142998
-3.723 -41.721401 68.334702
-2.6612599 -42.3195 69.320396
-3.66065 -42.684898 67.557701
-4.03264 -41.788399 67.706802
-3.8831601 -42.766998 66.984596
-4.2961302 -41.802399 67.088799
-3.74898 -40.442001 69.207901
-4.1606102 -40.516899 68.560501
-5.0513 -38.9575 68.106003
-5.35045 -38.9468 67.394897
-4.50945 -40.544201 67.891296
-4.79422 -40.5275 67.226997
-1.79233 -39.410801 71.2304
-1.79008 -40.797298 70.731796
-1.96798 -41.641201 70.295097
-2.2790101 -42.085201 69.839302
-5.8389201 -38.882801 65.250504
-5.8901901 -38.702 64.625
-5.9015298 -38.486401 63.958099
-4.7769299 -42.269199 63.852798
-5.0825801 -41.2066 64.1119
-5.0221 -41.459301 64.711502
-4.7648802 -41.945202 63.210701
-5.0788798 -40.9006 63.464298
-4.5240898 -43.224499 63.585701
-4.50876 -42.912998 62.944901
-4.7064099 -42.532902 64.450798
-4.4470701 -43.466499 64.1884
-5.4460802 -40.0355 64.365303
-5.3915901 -40.263699 64.974297
-5.4532299 -39.7603 63.7071
-4.32336 -44.078098 63.308498
-4.2771401 -43.6726 63.006302
-4.14257 -44.719898 63.3312
-4.1304598 -44.2043 63.068199
-4.24927 -44.256302 63.9188
-4.09728 -45.004002 63.626099
-5.7686901 -38.976101 65.800697
-5.68012 -38.9897 66.291801
-5.56107 -38.9533 66.7621
-5.3045301 -40.400501 65.512901
-5.1938901 -40.4491 65.9953
-4.7416902 -41.701401 65.8004
-4.9042902 -41.621399 65.251801
-5.0257502 -40.4837 66.570801
-4.5246701 -41.778702 66.465897
-4.54493 -42.703201 65.003998
-4.2453098 -43.632198 64.774498
-4.2939901 -42.8307 65.718201
-4.0380201 -44.394699 64.542397
-3.9032199 -45.085499 64.258904
-4.0738502 -42.844002 66.389198
-3.77507 -45.882301 63.9067
-3.9899001 -45.481602 63.552799
-3.94382 -45.718498 63.010399
-4.1560202 -45.101799 63.051601
-4.1005902 -44.933498 63.279999
-4.1189198 -44.3643 62.999401
-4.25069 -44.576099 62.9869
-4.25844 -44.114899 62.763302
-4.4716401 -44.926899 60.7374
-4.2332602 -45.155701 61.509499
-4.8112898 -44.239601 60.792999
-4.5493798 -44.479301 61.556702
-4.0811701 -45.4203 62.257099
-4.3477201 -44.771801 62.293701
-4.4809299 -44.1637 62.393799
-4.48983 -43.648602 62.445499
-4.7248902 -43.876701 61.676701
-4.7653499 -43.320099 61.837002
-4.9805102 -43.6409 60.982601
-5.0260301 -43.102001 61.202599
-4.6935301 -41.590401 62.5406
-5.0142002 -40.5784 62.7859
-4.53439 -41.0952 62.199699
-4.8900499 -40.2537 62.084099
-4.4028702 -42.4189 62.616901
-4.25774 -41.8386 62.317699
-4.1884599 -43.111198 62.7244
-4.0647402 -43.608101 62.778801
-3.9322801 -42.999298 62.493099
-4.0577698 -42.492001 62.425701
-5.4001298 -39.483601 63.023602
-5.2824898 -39.2066 62.309399
-5.74754 -38.064899 62.595798
-5.8530502 -38.282902 63.2854
-5.5969801 -37.759602 61.869499
-5.3878102 -37.103298 61.095901
-5.0801001 -38.873798 61.6269
-4.6441202 -39.772999 61.759399
-4.27005 -39.2346 61.401798
-4.7097402 -38.3652 61.261902
-4.0550299 -43.795101 62.7234
-4.17658 -43.645199 62.534
-3.97826 -43.2155 62.328098
-3.89674 -43.258999 62.470699
-4.3023 -40.543098 61.882401
-3.91857 -39.948799 61.522099
-4.03827 -41.225498 61.999599
-3.6427901 -40.5718 61.635799
-3.8405499 -41.849998 62.115898
-3.69628 -42.381699 62.206902
-3.2802701 -41.6698 61.858101
-3.43835 -41.149601 61.754601
-3.6138699 -42.729 62.227299
-3.6301701 -42.804401 62.138199
-3.1149199 -42.233501 61.8619
-3.16081 -42.060101 61.9053
-4.40418 -43.2701 62.257801
-4.6893902 -42.801201 61.962799
-4.4753499 -42.487701 61.802502
-4.1792002 -42.921299 62.086899
-3.7762401 -42.601501 61.9375
-4.06217 -42.205799 61.666698
-3.4628999 -41.857601 61.489899
-3.1960499 -42.153301 61.7169
-5.0012698 -42.574001 61.337799
-4.8343701 -42.049198 61.470699
-4.4704599 -41.725101 61.376301
-3.92855 -41.420898 61.214901
-4.9512 -41.328999 60.9543
-4.5067201 -40.926399 60.9263
-1.9723901 -34.487202 58.979
-2.7835901 -35.060699 59.3885
-1.4515899 -35.421902 59.159199
-0.93712199 -36.236801 59.3316
-2.2553401 -35.979401 59.550999
-1.73909 -36.760399 59.694
-2.9546101 -36.5947 59.9879
-3.5850599 -37.219898 60.431
-3.1092 -38.006302 60.558601
-3.4777999 -35.665298 59.830502
-4.09268 -36.255699 60.2658
-2.45152 -37.365002 60.1147
-0.50919902 -36.961102 59.498901
-0.15795299 -37.577801 59.656799
-1.28517 -37.431301 59.825001
-0.91466498 -37.985199 59.945
-1.98774 -38.002102 60.219299
-2.6658299 -38.641201 60.656601
-2.30651 -39.1581 60.7439
-1.6098599 -38.518101 60.312599
-3.3418901 -39.3064 61.105301
-3.7371099 -38.640701 60.996601
-3.0257001 -39.8666 61.205299
-2.8082299 -40.3717 61.311699
-2.0701399 -39.599499 60.834099
-2.6523299 -40.827999 61.4039
-1.91304 -39.988201 60.907101
-2.52544 -41.190701 61.4468
-1.78555 -40.307701 60.933498
-2.4479499 -41.405899 61.424198
-1.69444 -40.531601 60.914001
-4.6880999 -36.780399 60.6777
-4.1877699 -37.813301 60.8592
-2.4767799 -41.450401 61.3354
-1.67855 -40.655102 60.8592
-2.73945 -41.326199 61.186199
-1.87514 -40.5938 60.704498
-2.8115699 -48.222401 60.790298
-3.26438 -47.768002 59.996201
-2.7014201 -48.464298 60.123402
-3.0810699 -48.074799 59.7682
-2.42576 -48.602901 61.355
-2.2534201 -48.899101 60.476799
-2.0279901 -48.991798 61.831299
-1.82371 -49.312 60.7831
-1.63033 -49.360199 62.3573
-1.2589 -49.801998 61.2658
-5.1185699 -45.481499 55.8246
-5.5771699 -44.901699 53.948101
-4.5399599 -45.9916 55.460701
-4.94872 -45.371601 53.5425
-4.5545502 -46.1591 57.473499
-3.98769 -46.9865 57.227901
-3.81146 -46.768101 55.195202
-4.2672701 -45.787102 53.181099
-3.08007 -47.384499 55.024101
-3.5404699 -46.337799 52.876099
-3.3308699 -47.713799 57.150501
-2.6554301 -48.310001 57.164902
-3.86499 -47.091702 58.877102
-3.4379699 -47.723301 58.7766
-2.9072101 -48.311901 58.869598
-2.3429999 -48.8372 59.053799
-1.79976 -49.289799 59.2449
-2.0004399 -48.766201 57.218498
-1.23602 -49.714401 59.520199
-2.40031 -47.777699 54.895401
-2.8922801 -46.647499 52.614498
-1.12553 -38.8992 59.422401
-0.291581 -38.877399 59.321701
-0.109086 -39.382 59.660999
-1.35408 -38.321602 59.054501
-0.53105402 -38.301498 58.962898
-1.9106899 -38.9515 59.537998
-2.1406801 -38.3811 59.1749
-0.95749003 -39.435101 59.780499
-1.75656 -39.508999 59.903702
-1.64926 -37.681198 58.673801
-2.00071 -36.932301 58.2453
-1.1668 -36.869801 58.160599
-2.4449999 -37.761101 58.804199
-2.81216 -37.042702 58.3862
-0.82576501 -37.647301 58.585999
-0.86219603 -39.862598 60.1054
-0.84082699 -40.063499 60.3354
-0.000432 -39.726299 59.943501
0.017031999 -39.814499 60.1152
-1.70303 -40.0359 60.2715
-2.4976699 -40.041698 60.3158
-2.7697899 -40.542599 60.6581
-3.5160999 -40.216 60.476398
-2.4721701 -39.545898 59.989799
-3.16698 -39.8312 60.2202
-2.96035 -39.539398 60.0238
-4.53582 -38.485001 59.4319
-5.1459398 -39.006401 59.3969
-5.6668901 -38.660099 58.678101
-4.1066699 -39.014702 59.758598
-4.65062 -39.330101 59.9744
-3.89502 -38.164101 59.2169
-3.5269699 -38.7355 59.548599
-5.02666 -38.059399 58.703899
-4.3270202 -37.564999 58.684299
-3.1974599 -37.921101 58.992901
-3.58623 -37.2206 58.584999
-2.87135 -38.518398 59.3465
-2.6164501 -39.048302 59.674
-3.2026601 -39.213699 59.8321
-3.6786101 -39.472 60.022701
-4.13585 -39.789501 60.236801
-2.4014499 -36.139599 57.557201
-3.23809 -36.308601 57.669498
-3.7179899 -35.541801 56.577999
-1.55576 -36.076801 57.405899
-2.8533599 -35.3512 56.4552
-1.9881999 -35.250198 56.299599
-4.0485802 -36.582199 57.7444
-4.5629601 -35.813099 56.6558
-4.8315001 -36.979301 57.794998
-5.39082 -36.267101 56.608601
-3.3001001 -41.026299 60.977699
-3.9897399 -40.590302 60.7211
-5.44169 -41.159401 60.301201
-5.8927302 -41.1119 59.620701
-5.63873 -40.413101 59.785599
-5.0991001 -40.5811 60.4291
-4.6265502 -40.117199 60.450401
-5.1911502 -39.8237 59.925201
-5.70051 -39.610199 59.294498
-6.21383 -39.403702 58.5112
