# .PCD v.7 - Point Cloud Data file format
VERSION .7
FIELDS x y z
SIZE 4 4 4
TYPE F F F
COUNT 1 1 1
WIDTH 1754
HEIGHT 1
VIEWPOINT 0 0 0 1 0 0 0
POINTS 1754
DATA ascii
16.706301 -7.0114698 128.97099
16.719 -7.5465398 128.61301
16.6731 -7.5204701 128.759
16.8645 -7.2469802 128.36501
16.778 -7.5649199 128.41299
16.2129 -9.3266296 127.474
16.0982 -9.53617 127.289
15.9777 -9.6677399 127.558
16.315599 -9.1782398 127.301
16.226101 -9.3483601 127.063
16.2992 -9.1458902 127.631
16.3783 -9.0322704 127.511
16.114799 -9.4310904 127.691
16.2237 -9.2225103 127.798
16.954901 -7.66259 127.279
17.036699 -7.3933601 127.06
16.9778 -7.6154399 126.894
16.9767 -7.5283799 127.45
17.069 -7.2132502 127.253
16.867201 -7.91114 127.444
16.878 -7.8171601 127.609
16.914 -7.8221002 127.14
16.8599 -7.9669099 127.311
16.9266 -7.26542 128.101
16.8311 -7.5876698 128.19299
16.9664 -7.3194199 127.853
16.8675 -7.6357002 127.975
17.0089 -6.9004698 128.02499
17.0578 -6.9607 127.728
16.844999 -6.60917 128.745
16.700899 -6.7209301 129.097
16.6819 -6.4786801 129.209
16.9692 -6.5534401 128.36
16.844601 -6.3456502 128.815
16.987 -6.2744999 128.381
17.063499 -6.55829 127.977
17.121799 -6.62497 127.626
17.094801 -6.27318 127.951
17.1604 -6.34477 127.553
17.143 -6.7507601 127.323
17.076799 -7.0675302 127.472
17.1308 -6.9281201 127.065
17.1828 -6.48739 127.206
17.1665 -6.69379 126.912
16.9821 -7.41014 127.638
16.881599 -7.7164202 127.782
17.089001 -7.15239 126.845
17.0154 -7.4282899 126.657
17.115999 -6.9576101 126.667
17.0298 -7.2792802 126.462
16.9088 -7.7564702 126.509
16.890699 -7.88379 126.768
16.777 -8.1193705 126.421
16.780399 -8.1845798 126.698
16.907801 -7.6554899 126.297
16.7591 -8.0679102 126.198
16.8484 -8.0240097 127.05
16.8078 -8.1157598 127.309
16.7614 -8.2585802 127.01
16.736401 -8.3049498 127.302
16.628201 -8.4937096 126.414
16.6537 -8.4975996 126.696
16.465 -8.8621702 126.486
16.5142 -8.8081598 126.762
16.5926 -8.4927397 126.188
16.4107 -8.9085798 126.266
16.6593 -8.5060797 127.018
16.653099 -8.5036001 127.315
16.5462 -8.75282 127.072
16.5611 -8.7011499 127.355
16.2924 -9.2067499 126.63
16.367599 -9.0999298 126.886
16.124399 -9.5018902 126.839
16.2176 -9.2936697 126.422
16.0282 -9.6242905 126.653
16.4286 -8.9829102 127.167
16.4671 -8.8811598 127.422
15.9718 -9.72857 127.107
15.8301 -9.8878899 127.425
15.8553 -9.8825302 126.953
15.6968 -10.0648 127.311
15.694 -9.98491 127.78
15.8595 -9.7513304 127.861
15.5728 -10.0127 128.155
15.7539 -9.7806301 128.17599
15.5482 -10.1718 127.713
15.4148 -10.1986 128.13901
16.016899 -9.4991503 127.942
16.144199 -9.2737598 128.011
15.9286 -9.5285101 128.201
16.067699 -9.3035603 128.231
15.4779 -9.9683504 128.528
15.6739 -9.75033 128.48199
15.4113 -9.8680801 128.877
15.6216 -9.6710501 128.76199
15.3053 -10.1462 128.57001
15.2243 -10.0328 128.974
15.8603 -9.5178699 128.439
16.000099 -9.3173199 128.425
15.8187 -9.4681997 128.64301
15.9449 -9.3292303 128.561
15.3709 -9.7312202 129.186
15.5936 -9.5571499 129.009
15.3552 -9.5635204 129.455
15.5858 -9.4141302 129.23
15.1739 -9.8784103 129.328
15.1548 -9.6893101 129.632
15.8058 -9.3791599 128.81799
15.9708 -9.24263 128.636
15.8101 -9.25914 128.983
15.9908 -9.1322498 128.754
15.3625 -9.3667603 129.689
15.5943 -9.2451897 129.42999
15.3882 -9.1489601 129.88699
15.6154 -9.0584602 129.605
15.1651 -9.4676905 129.892
15.1983 -9.2214003 130.11
15.8218 -9.1165705 129.14799
16.005699 -9.0068197 128.896
15.8406 -8.9573898 129.30299
16.023001 -8.8652401 129.039
15.432 -8.9161997 130.048
15.6495 -8.8599997 129.75101
15.4985 -8.6676598 130.16499
15.6992 -8.6503 129.85899
15.2517 -8.9570999 130.284
15.3321 -8.6745501 130.409
15.8666 -8.7891302 129.433
16.045099 -8.71527 129.159
15.9019 -8.6169205 129.53
16.071501 -8.5676899 129.24899
15.5921 -8.4022703 130.231
15.7684 -8.42873 129.923
15.7122 -8.1254301 130.237
15.859 -8.1985397 129.937
15.4455 -8.3742104 130.47701
15.5887 -8.0631199 130.47501
15.9467 -8.4440603 129.593
16.0945 -8.4299097 129.323
16.006001 -8.2736301 129.616
16.103001 -8.3238401 129.39301
15.8557 -7.8461299 130.175
15.9723 -7.9653201 129.896
16.019699 -7.5734901 130.047
16.1085 -7.7351999 129.79401
15.7551 -7.7509699 130.39799
15.9396 -7.4461298 130.25
16.0889 -8.1037998 129.584
16.172501 -8.2417698 129.32001
16.1971 -7.92765 129.5
16.2654 -8.1125603 129.23
16.198099 -7.3164902 129.86301
16.2633 -7.5155802 129.634
16.3771 -7.08321 129.64101
16.422001 -7.3152299 129.438
16.135201 -7.15692 130.048
16.328699 -6.8929 129.80701
16.3258 -7.7473202 129.366
16.3764 -7.9590402 129.112
16.4608 -7.5749102 129.201
16.494499 -7.7993302 128.97301
16.545 -6.8817301 129.39101
16.570801 -7.1437602 129.22099
16.510401 -6.66398 129.535
16.584999 -7.42273 129.03
16.600599 -7.6446199 128.845
16.623899 -8.4309902 127.818
16.667999 -8.29461 127.88
16.714899 -8.2352505 127.75
16.5602 -8.5781202 127.814
16.6387 -8.4465504 127.695
16.5637 -8.6155596 127.699
16.6469 -8.4777203 127.537
16.7229 -8.2940397 127.534
16.5648 -8.6558704 127.559
16.7985 -7.9397302 127.877
16.782801 -7.8604898 128.07001
16.733999 -8.0877705 127.942
16.7166 -8.0093498 128.134
16.7957 -8.0385199 127.698
16.6819 -8.1888304 128.005
16.662901 -8.1238699 128.179
16.7925 -8.1133299 127.518
16.457701 -8.6538296 128.11
16.420601 -8.6385002 128.27
16.393801 -8.7770004 128.129
16.3519 -8.7707005 128.28999
16.4828 -8.6744099 127.971
16.429701 -8.7646704 128.013
16.3442 -9.0427103 127.724
16.402399 -8.94872 127.676
16.303499 -9.0666704 127.857
16.384001 -8.9168501 127.862
16.4814 -8.8140802 127.611
16.4837 -8.7664099 127.748
16.4874 -8.7159796 127.858
16.4128 -8.8223696 127.96
16.1266 -8.9331102 128.709
16.112101 -9.0538797 128.564
16.2038 -8.8790398 128.578
16.213699 -8.9906797 128.364
16.1413 -8.7982502 128.854
16.213499 -8.7536602 128.728
16.2335 -9.1041803 128.061
16.2953 -8.9793196 128.097
16.1567 -9.1371498 128.27699
16.3437 -8.8782396 128.123
16.290701 -8.8766403 128.31599
16.078199 -9.1712904 128.465
16.1658 -8.6505003 128.967
16.2439 -8.6055498 128.82899
16.192699 -8.5032797 129.056
16.305201 -8.4055901 128.88901
16.3011 -8.5878801 128.702
16.268499 -8.7189102 128.625
16.3459 -8.5934601 128.57201
16.308399 -8.6905003 128.552
16.3631 -8.43155 128.71899
16.406099 -8.4533701 128.577
16.202801 -8.3701897 129.155
16.299101 -8.2598495 129.03999
16.383499 -8.6149998 128.429
16.449699 -8.4727402 128.42
16.3223 -8.7346001 128.44501
16.2649 -8.8187904 128.493
16.5149 -8.3351002 128.39999
16.5697 -8.2154503 128.38
16.475 -8.3146496 128.549
16.5285 -8.2209902 128.50301
16.6134 -8.1060104 128.37199
16.665001 -7.9832101 128.35001
16.5387 -8.1528101 128.548
16.568701 -8.0180798 128.60201
16.7397 -7.8215899 128.284
16.682501 -7.8030901 128.494
16.4095 -8.1070299 128.92
16.430599 -8.2034903 128.782
16.527 -7.9374499 128.789
16.4487 -8.2721004 128.66701
16.6327 -7.7617002 128.675
16.834 -6.1177902 128.886
16.6535 -6.2666302 129.32001
16.6001 -6.0007701 129.46899
16.992901 -6.0325899 128.408
16.802299 -5.83178 128.98199
16.981701 -5.7276201 128.44501
17.1117 -6.0231199 127.934
17.1831 -6.0952301 127.495
17.1138 -5.70402 127.912
17.192301 -5.7698398 127.417
17.2073 -6.2487702 127.108
17.188101 -6.4776402 126.778
17.2194 -5.9278102 126.973
17.195999 -6.1764302 126.588
17.129101 -6.7747798 126.504
17.0303 -7.1367502 126.276
17.122999 -6.5111599 126.262
17.0037 -6.92592 125.989
16.893801 -7.5563698 126.094
16.729799 -8.0150204 125.984
16.844999 -7.4085398 125.774
16.659599 -7.9362998 125.645
16.5476 -8.4884501 125.971
16.3489 -8.9502697 126.056
16.4569 -8.4809399 125.629
16.237 -9.0101805 125.726
16.1378 -9.3741598 126.226
15.9308 -9.7357302 126.479
16.0033 -9.4921999 125.925
15.7747 -9.8988304 126.216
15.7428 -10.0179 126.81
15.5729 -10.216 127.207
15.569 -10.2119 126.594
15.3862 -10.4294 127.048
15.416 -10.3305 127.654
15.2728 -10.3587 128.129
15.2194 -10.5542 127.56
15.0662 -10.5845 128.104
15.1491 -10.3039 128.60699
15.0553 -10.1825 129.05299
14.931 -10.5233 128.644
14.8286 -10.3871 129.14
14.9996 -10.0126 129.439
14.9837 -9.8028698 129.767
14.7729 -10.1949 129.562
14.7659 -9.9579601 129.916
15.0028 -9.5581703 130.04601
15.0471 -9.2862301 130.27901
14.8003 -9.6828499 130.215
14.8622 -9.3774099 130.468
15.1101 -8.9935799 130.466
15.2003 -8.6802797 130.601
14.9396 -9.0485697 130.67101
15.0421 -8.69559 130.82201
15.3252 -8.3483105 130.67599
15.4814 -8.0069904 130.67799
15.1787 -8.3218803 130.911
15.3449 -7.9416699 130.92599
15.6609 -7.6666799 130.599
15.8583 -7.33253 130.444
15.5322 -7.5676098 130.85699
15.7396 -7.19804 130.70399
16.0665 -7.0111299 130.228
16.272499 -6.7179899 129.97
15.9628 -6.8345098 130.474
16.1859 -6.5013299 130.192
16.4669 -6.4679999 129.67599
16.396099 -6.22296 129.867
0.58999199 -22.8589 126.284
0.54442197 -22.842501 126.443
0.68450701 -22.795799 126.484
0.48127899 -22.893499 126.248
0.421864 -22.8818 126.4
0.63288099 -22.867599 126.151
0.53894401 -22.893299 126.152
0.72240299 -22.815599 126.319
0.76468903 -22.826099 126.175
-0.60202003 -22.987301 126.678
-0.59325403 -23.0382 126.417
-0.95168602 -23.062799 126.356
-0.310527 -22.9531 126.711
-0.27621701 -22.9928 126.509
-0.56432498 -22.924299 126.915
-0.34759 -22.919701 126.856
-0.94095302 -22.998501 126.692
-0.876688 -22.917801 127.005
1.61989 -22.531 125.843
1.70804 -22.468201 126.079
1.96892 -22.3451 125.991
1.4160399 -22.6127 125.967
1.48015 -22.563999 126.15
1.48347 -22.5979 125.644
1.3099 -22.6658 125.828
1.8580199 -22.4214 125.697
1.68647 -22.503201 125.439
-0.070354998 -23.060499 125.383
0.106929 -23.0229 125.267
-0.075182997 -23.037399 124.995
0.164795 -23.018499 125.582
0.235502 -23.0035 125.459
-0.22432899 -23.0853 125.534
0.052370001 -23.0361 125.733
-0.319206 -23.0888 125.128
-0.52227497 -23.121201 125.295
-0.55182302 -23.0744 126.152
-0.91194302 -23.107599 126.028
-0.47474399 -23.093901 125.909
-0.82400101 -23.1318 125.736
-0.234621 -23.025 126.288
-0.166649 -23.0438 126.075
-1.2634 -22.987499 126.724
-1.53169 -22.965099 126.764
-1.4271899 -22.8592 127.185
-1.28816 -23.0646 126.324
-1.56824 -23.0536 126.313
-1.1771801 -22.893299 127.099
-1.25012 -23.118799 125.937
-1.53237 -23.115801 125.877
-1.15072 -23.147499 125.592
-1.42354 -23.1474 125.486
-0.99432898 -23.150801 125.305
-1.24541 -23.149 125.157
-0.78860003 -23.1313 125.072
-1.00618 -23.1248 124.891
-0.69170898 -23.135799 125.494
-0.36270899 -23.097099 125.706
-0.066812001 -23.0466 125.892
-0.53771102 -23.0914 124.884
-0.71228302 -23.0779 124.684
-0.23638999 -23.028999 124.737
-0.36226901 -23.006201 124.527
0.115214 -22.943899 124.639
0.04025 -22.9093 124.42
0.49614701 -22.8442 124.608
0.473059 -22.7971 124.384
0.212732 -22.9674 124.91
0.52821499 -22.884001 124.887
0.32278201 -22.9709 125.209
0.56726402 -22.906401 125.204
0.38775 -22.9681 125.478
0.58199298 -22.917601 125.501
0.880373 -22.737499 124.659
0.90902799 -22.678301 124.44
1.2507401 -22.624599 124.789
1.32704 -22.5527 124.583
0.84923297 -22.7931 124.934
1.1612 -22.696301 125.049
0.82029098 -22.8335 125.251
1.06818 -22.7547 125.345
0.78454101 -22.8585 125.544
0.98361403 -22.793501 125.616
1.59009 -22.507401 124.989
1.70666 -22.421101 124.802
1.87279 -22.396099 125.247
2.02372 -22.295 125.089
1.44848 -22.5968 125.22
1.29537 -22.6738 125.478
1.1625299 -22.727501 125.713
2.08005 -22.2987 125.554
2.2602 -22.184401 125.433
2.21469 -22.2097 125.902
2.41436 -22.085699 125.825
2.2838099 -22.122999 126.278
2.4892199 -21.992599 126.249
2.2816999 -22.0452 126.664
2.4814799 -21.9081 126.688
2.0290201 -22.2691 126.312
2.0334101 -22.2008 126.638
1.75669 -22.4051 126.346
1.76565 -22.348 126.614
1.5147901 -22.5133 126.374
1.52728 -22.4639 126.603
2.2065899 -21.985201 127.037
2.39379 -21.8386 127.118
2.07669 -21.944201 127.378
2.2465799 -21.7876 127.512
1.978 -22.15 126.945
1.87474 -22.118401 127.217
1.7357399 -22.304001 126.855
1.66866 -22.278601 127.055
1.5261 -22.418699 126.803
1.52832 -22.379499 126.945
1.9128 -21.9209 127.671
2.06162 -21.757099 127.85
1.72069 -21.9144 127.919
1.84523 -21.7484 128.13
1.73868 -22.103701 127.452
1.57502 -22.1028 127.654
1.5633399 -22.274099 127.219
1.42693 -22.282101 127.368
1.43243 -22.403299 127.006
1.30896 -22.4231 127.107
1.50155 -21.9238 128.12601
1.59875 -21.760599 128.36
1.26394 -21.945101 128.29401
1.33047 -21.788099 128.543
1.38659 -22.113001 127.831
1.18217 -22.131001 127.981
1.26768 -22.294901 127.513
1.09263 -22.311501 127.646
1.16857 -22.438601 127.232
1.01208 -22.4547 127.355
1.0138 -21.978701 128.42101
1.04716 -21.8288 128.679
0.75026298 -22.0285 128.50101
0.74805802 -21.8894 128.761
0.96813202 -22.157301 128.09801
0.74539798 -22.194099 128.175
0.910501 -22.3319 127.752
0.72721702 -22.357401 127.825
0.849388 -22.472099 127.453
0.69190198 -22.4909 127.523
0.472574 -22.0982 128.526
0.43373501 -21.9748 128.78101
0.187169 -22.1866 128.487
0.112762 -22.081699 128.729
0.51363999 -22.2442 128.205
0.276384 -22.309601 128.18401
0.54596698 -22.3888 127.862
0.369932 -22.4307 127.859
0.546049 -22.506001 127.578
0.43335101 -22.5096 127.634
-0.096086003 -22.2911 128.379
-0.203714 -22.203699 128.599
-0.368036 -22.4102 128.20399
-0.50760502 -22.3374 128.39999
0.039554998 -22.3915 128.105
-0.190192 -22.490299 127.963
0.197708 -22.490601 127.8
0.022306001 -22.569401 127.684
0.353421 -22.561701 127.545
0.226566 -22.629999 127.432
-0.62022197 -22.5394 127.974
-0.79155302 -22.478201 128.146
-0.845186 -22.6682 127.71
-1.04654 -22.616199 127.859
-0.40552199 -22.6028 127.764
-0.59848601 -22.7178 127.531
-0.15414 -22.663 127.518
-0.320243 -22.760799 127.322
0.076851003 -22.710699 127.286
-0.077623002 -22.795799 127.118
-1.03453 -22.7868 127.424
-1.26212 -22.7432 127.546
-0.759552 -22.823999 127.282
-0.46461901 -22.8493 127.123
-0.227106 -22.870501 126.963
0.65902799 -22.874399 126.036
0.68668199 -22.877899 125.915
0.46480399 -22.9356 125.936
0.81068403 -22.827299 126.055
0.86016601 -22.8228 125.945
0.513403 -22.909401 126.076
0.73437297 -22.8729 125.761
0.91545498 -22.8137 125.812
0.54628098 -22.927401 125.729
0.150976 -22.998899 126.019
0.26863599 -22.9884 125.855
0.295984 -22.958401 126.108
0.052832998 -22.994801 126.203
0.199045 -22.9524 126.29
0.39378801 -22.9245 126.187
0.31242299 -22.9165 126.352
0.36306301 -22.974701 125.686
0.862535 -22.7651 126.367
0.89573503 -22.7777 126.229
0.98797399 -22.7176 126.407
0.98509598 -22.739599 126.287
0.83339399 -22.743299 126.527
0.96808302 -22.6922 126.57
1.29962 -22.6555 126.042
1.31239 -22.6318 126.181
1.20665 -22.697701 125.979
1.15632 -22.695499 126.16
1.07367 -22.754101 125.89
1.0111099 -22.765499 126.02
0.94872302 -22.775101 126.122
1.04957 -22.7237 126.243
1.10438 -22.5306 127.025
0.95432299 -22.5452 127.152
1.0577101 -22.587601 126.882
0.91702503 -22.5987 127.014
1.24045 -22.514799 126.898
1.1902699 -22.5875 126.682
1.3335 -22.5881 126.395
1.34962 -22.5382 126.619
1.2005 -22.639099 126.409
1.0932699 -22.6786 126.418
1.0756 -22.646 126.614
1.37029 -22.4839 126.817
0.794245 -22.5646 127.244
0.637146 -22.5839 127.312
0.75725698 -22.6227 127.094
0.54785901 -22.6672 127.124
0.74800003 -22.6642 126.96
0.58609998 -22.7099 126.953
0.76321501 -22.6957 126.828
0.618743 -22.740299 126.811
0.88864899 -22.638599 126.902
0.86466497 -22.6674 126.823
0.49446499 -22.589199 127.394
0.388585 -22.6605 127.258
0.79640901 -22.720501 126.685
0.91841298 -22.6749 126.721
0.65072697 -22.7693 126.653
1.00177 -22.632401 126.784
0.51084799 -22.8165 126.611
0.478394 -22.790001 126.759
0.38972801 -22.855301 126.572
0.38571399 -22.8279 126.698
0.278337 -22.8857 126.547
0.312691 -22.834999 126.733
0.15464 -22.920799 126.505
0.17101 -22.855301 126.768
-0.004987 -22.969999 126.414
-0.040711001 -22.9331 126.626
0.23998 -22.7404 127.11
0.075195 -22.8244 126.949
0.34795001 -22.7577 126.981
0.426139 -22.7715 126.875
-0.096404999 -22.8978 126.805
-1.76411 -22.9368 126.811
-2.0548699 -22.883801 126.878
-1.9209501 -22.752199 127.399
-1.81138 -23.035601 126.313
-2.11637 -22.994801 126.317
-1.64644 -22.819 127.274
-1.77978 -23.1033 125.832
-2.0934899 -23.0681 125.776
-1.6662199 -23.136499 125.399
-1.9804 -23.1017 125.286
-1.4727401 -23.1369 125.031
-1.77626 -23.0996 124.863
-1.20671 -23.1084 124.733
-1.48361 -23.0632 124.513
-0.87546998 -23.053699 124.503
-1.10727 -22.9932 124.236
-0.48148099 -22.971399 124.329
-0.653404 -22.8913 124.025
-0.03241 -22.8629 124.21
-0.13589001 -22.764299 123.884
0.448809 -22.7395 124.17
0.417714 -22.625299 123.836
0.93431801 -22.6103 124.231
0.97545302 -22.4835 123.904
1.3983001 -22.474001 124.388
1.5060199 -22.335199 124.084
1.81596 -22.3305 124.628
1.9795001 -22.178801 124.36
2.1624701 -22.192801 124.941
2.36763 -22.028999 124.719
2.4203601 -22.0732 125.32
2.65202 -21.900499 125.15
2.5867 -21.969 125.753
2.8320501 -21.7917 125.642
2.66448 -21.8734 126.224
2.91344 -21.694401 126.18
2.65363 -21.7845 126.712
2.8979599 -21.6029 126.737
2.5597 -21.7057 127.191
2.79197 -21.518499 127.278
2.4013901 -21.6453 127.627
2.6145501 -21.4533 127.762
2.1984701 -21.6112 127.995
2.3861201 -21.4202 128.16299
1.9591 -21.6057 128.29601
2.11658 -21.423 128.485
1.68722 -21.6259 128.53999
1.8113199 -21.4571 128.744
1.39103 -21.6632 128.73399
1.4785 -21.51 128.952
1.07778 -21.7115 128.87801
1.12676 -21.57 129.106
0.74653798 -21.7792 128.966
0.753865 -21.6469 129.203
0.399133 -21.873199 128.989
0.36270699 -21.749201 129.233
0.046528 -21.989799 128.935
-0.030903 -21.8727 129.188
-0.299081 -22.1215 128.799
-0.41208401 -22.009501 129.05701
-0.63261402 -22.264 128.58701
-0.78203702 -22.1581 128.842
-0.94840503 -22.4125 128.31599
-1.13974 -22.3155 128.55099
-1.23176 -22.557899 128.007
-1.4619401 -22.4709 128.211
-1.46716 -22.6929 127.668
-1.72378 -22.6152 127.837
11.6796 -5.3741598 141.834
11.6239 -5.3467202 142.23599
11.1144 -5.6403499 141.995
11.0588 -5.5941901 142.40401
-2.7731199 -19.0772 140.01601
-2.55146 -18.566099 140.31
-2.82616 -19.0779 140.411
-2.6268201 -18.566 140.71001
12.1529 0.82995701 129.81799
12.3392 0.50912499 130.15199
11.787 0.401528 131.304
12.4647 0.769633 128.858
12.7811 0.476549 128.94299
11.817 1.0477 130.129
12.0233 1.22891 128.57899
12.9264 0.526829 127.651
12.6341 0.78365201 127.342
13.0262 0.36138901 126.314
13.2234 0.30729201 127.71
13.2821 0.177811 126.484
13.5383 0.024742 126.513
13.3792 -0.197505 125.369
13.6139 -0.33424199 125.368
13.303 -0.68110597 124.32
13.5309 -0.82540101 124.304
13.1555 -0.038304999 125.294
13.1086 -0.514979 124.297
10.3862 2.9065299 124.823
10.7526 2.53354 124.571
11.298 2.0819099 125.736
9.9305897 3.1949 123.77
10.324 2.8044801 123.468
9.9977198 3.25948 125.06
9.5506001 3.5297599 123.999
10.8138 2.5877099 126.059
10.4046 2.9809201 126.285
11.1759 2.2104499 127.468
10.7141 2.6824999 127.662
11.3854 1.83567 128.952
10.903 2.3607199 129.092
11.702 1.69102 127.159
9.5834398 3.6058099 125.295
9.1594105 3.84501 124.225
9.1514797 3.9456699 125.531
8.7605896 4.1422801 124.452
9.9746199 3.3675799 126.501
9.5191498 3.7552199 126.725
11.3532 1.47127 130.32201
10.896 1.99353 130.388
11.1967 1.0154099 131.45599
10.9909 0.661102 132.409
11.4206 0.000205 132.627
10.4971 2.47613 130.453
10.4727 2.8454599 129.213
10.1302 2.93101 130.547
10.0508 3.31058 129.355
13.2001 -1.35473 123.367
13.03 -1.1671799 123.363
12.8572 -2.21965 122.281
13.4173 -1.49464 123.361
13.0537 -2.22506 122.51
13.2503 -2.34254 122.537
12.8108 -3.2494199 121.788
12.9776 -3.3575699 121.843
12.4959 -4.4349999 121.315
12.6363 -4.5594902 121.379
12.6816 -3.30705 121.649
12.4036 -4.38275 121.217
7.8757401 -14.0793 124.469
7.81042 -14.028 124.136
7.5911698 -14.2321 124.214
8.1128397 -13.8365 124.137
7.9823098 -13.8657 123.982
7.94979 -14.1188 124.821
8.2630901 -13.8286 124.41
7.6222901 -14.3111 124.582
7.64748 -14.3845 124.958
8.0021696 -14.1641 125.207
8.3686104 -13.8582 124.763
8.0462799 -14.2046 125.606
8.4572401 -13.8947 125.143
7.66398 -14.4499 125.346
7.6729698 -14.5077 125.74
12.1403 -5.7785201 121.079
11.7396 -7.2550902 121.1
11.8948 -7.4145999 121.214
12.0485 -5.6657701 120.972
11.6154 -7.12679 120.975
12.2756 -5.9303498 121.163
11.2951 -8.8064003 121.442
10.8479 -10.3082 122.073
11.0862 -10.3628 122.216
11.1183 -8.7016001 121.283
10.6198 -10.2662 121.914
11.4882 -8.9322701 121.577
7.7764602 -13.9384 123.779
8.0194798 -13.736 123.67
8.0202703 -13.5529 123.223
7.5541101 -14.1456 123.837
7.7386398 -13.8115 123.372
7.5013299 -14.0379 123.43
8.3003101 -13.562 123.661
8.3826103 -13.2483 123.077
8.5657902 -13.4524 123.801
8.8786602 -12.729 122.835
8.7473097 -13.4459 124.076
9.1484499 -12.7444 123.195
8.8825998 -13.4841 124.396
9.3117399 -12.7886 123.457
9.5915699 -11.6437 122.226
10.0887 -10.2579 121.368
9.9189997 -10.2521 121.08
9.7535696 -11.6832 122.458
10.2453 -10.2466 121.572
9.4208498 -11.5411 121.868
8.1061001 -14.3795 127.347
8.1375399 -14.2848 126.589
7.6770802 -14.625 126.67
8.5192604 -14.1656 127.406
8.7565002 -13.9281 126.185
8.04142 -14.4756 128.26199
8.3467503 -14.2971 128.179
7.6691098 -14.7003 127.365
7.6407299 -14.7788 128.27499
8.1023502 -14.234 126.031
8.5774899 -13.9101 125.538
7.6770301 -14.5626 126.156
8.8375397 -14.0413 127.778
8.4109802 -14.2653 128.875
8.50807 -14.1079 130.14799
9.2447796 -13.7639 126.409
9.1927996 -13.9162 128.194
9.6638298 -13.6425 126.596
10.4373 -11.6284 122.946
10.1706 -11.6603 122.793
9.7488403 -12.736 123.831
10.7213 -11.5972 123.095
10.0509 -12.652 123.983
10.3855 -12.5564 124.127
9.6533098 -13.338 125.13
10.0466 -13.2179 125.265
9.3060999 -13.4367 124.944
9.0522299 -13.4876 124.692
9.5016899 -12.788 123.663
9.9407501 -11.6847 122.636
10.4181 -10.2455 121.748
7.97156 -14.5164 129.358
7.81003 -14.4605 130.742
7.5626702 -14.8292 129.412
7.3801899 -14.7925 130.789
10.2481 -5.3935399 144.50101
10.1965 -5.28581 144.802
10.7444 -4.9149899 144.82401
9.7772903 -5.7197399 144.55299
9.8502903 -5.5753298 144.759
10.2875 -5.5100799 144.17101
9.7453499 -5.8594699 144.252
10.8213 -5.06603 144.448
10.8848 -5.2056298 144.06
6.3775201 -13.4945 136.604
6.1175499 -13.3331 137.42799
6.5630498 -12.9446 137.507
5.9348798 -13.8836 136.548
5.69137 -13.7117 137.368
6.6323099 -13.6728 135.767
6.1866298 -14.0624 135.711
6.8348098 -13.1092 136.67
7.0948701 -13.29 135.834
7.3215299 -12.7125 136.73399
7.0565801 -12.5296 137.575
7.5672798 -12.1146 137.59399
7.5783901 -12.8955 135.914
7.8013 -12.3153 136.79201
8.0522499 -12.4815 136.032
8.1494398 -12.0085 136.84399
8.4446001 -12.0363 136.3
8.0658598 -11.7541 137.47701
8.6795597 -11.4406 137.041
7.24155 -7.3025298 145.479
7.323 -6.9352999 145.784
7.6275201 -6.8693299 145.621
6.9895701 -7.2769299 145.722
7.1090598 -7.0172 145.882
7.1096401 -7.6369901 145.23801
6.82587 -7.6217198 145.51801
7.5016098 -7.3058901 145.28
7.3707199 -7.6561298 145.01801
4.7565198 -12.1362 142.21001
4.12816 -12.5459 142.084
3.8980401 -12.3372 142.47099
4.9770298 -12.2602 141.83299
4.3234 -12.7173 141.71001
5.4492502 -11.842 142.446
5.6531701 -11.9249 142.056
4.4282398 -11.9989 142.592
5.0532999 -11.6774 142.94701
11.306 -4.3691502 145.286
11.388 -4.5950198 144.84599
11.2253 -4.12643 145.701
10.6498 -4.7504902 145.207
10.5428 -4.57936 145.577
11.465 -4.7930002 144.407
11.5243 -4.9614201 143.963
10.0955 -5.2002902 145.10699
9.6830597 -5.6409502 144.92599
9.4966602 -5.6891098 145.177
9.9625502 -5.1223898 145.42
8.4504099 -3.1793699 147.88499
7.4030099 -3.8693199 148.034
7.2364802 -3.50984 148.33099
8.5871696 -3.5074601 147.661
7.55656 -4.2054901 147.78799
9.5434599 -2.4972899 147.742
9.6658697 -2.83075 147.54201
8.2960596 -2.8374901 148.133
9.4017601 -2.16219 147.94299
10.4688 -1.8023601 147.67999
10.327 -1.4578201 147.83099
10.5971 -2.1607599 147.511
6.71558 -7.1841102 146.05499
6.9931102 -6.8201599 146.16901
6.4619298 -7.03895 146.429
6.8339701 -6.5706601 146.536
6.4965901 -7.5746002 145.88699
6.2020798 -7.4731798 146.30299
7.3532701 -6.4964199 146.18401
7.7898502 -6.2860198 146.063
7.33079 -6.0778699 146.591
8.0722303 -5.5016398 146.571
9.4054098 -5.9909601 144.666
9.1158199 -6.19028 144.86301
9.2687101 -6.2298698 144.332
8.7938604 -6.6777902 144.427
2.3048 3.2349401 147.561
1.56455 3.0659299 147.49001
2.3759201 3.0095799 147.989
1.29654 2.7014599 148.009
0.64852899 2.7721801 147.492
0.41847599 2.4333501 147.938
-0.110696 2.2490101 147.877
0.82282001 3.0759001 147.019
-0.120017 2.4058299 147.604
-0.102081 2.62638 147.22501
-0.93608999 5.2888699 137.33099
-1.68001 4.9388299 137.06
-1.9077899 4.8120399 135.76401
-0.55989999 5.4186301 138.522
-1.40909 5.0233302 138.256
-0.226447 5.5799699 137.612
-1.18212 5.1530199 136.29401
-0.38307601 5.4948802 136.60201
10.281 3.1182101 127.839
9.8375597 3.5422201 128.03101
-2.8197701 -5.1317201 152.328
-2.38814 -4.7581 152.298
-3.1889 -4.6638999 151.73199
-2.7716401 -4.2964401 151.707
-3.289 -5.5514798 152.317
-3.64428 -5.0854301 151.72
-3.53426 -4.2434301 151.03101
-3.14622 -3.8913901 151.043
-3.92609 -3.7495999 150.149
-3.54931 -3.41642 150.228
-3.95632 -4.6532898 151.007
-4.3249798 -4.1419401 150.108
6.5561199 -4.4676299 148.185
6.3874602 -4.09308 148.52499
5.9376798 -4.9534402 148.34399
5.7659202 -4.5696001 148.72501
6.70894 -4.78936 147.916
6.0916901 -5.2569098 148.03799
5.50177 -5.3356099 148.537
5.3203402 -4.9626498 148.952
5.1971898 -5.66119 148.80099
5.0037298 -5.2973599 149.23199
5.6737499 -5.6395798 148.174
5.3878198 -5.9689002 148.383
4.05233 -11.871 143
3.6698101 -12.1348 142.892
3.4723799 -11.9709 143.349
4.3910999 -11.6559 143.272
3.7381001 -11.7608 143.44099
3.9884601 -11.5847 143.657
3.3913901 -11.5696 144.563
3.1622901 -11.7651 144.496
3.44279 -11.607 144.26601
3.22123 -11.7937 144.19099
3.61025 -11.409 144.679
3.6568999 -11.4508 144.405
6.41713 -8.9375601 144.664
6.19943 -8.9349003 144.948
6.4387898 -8.4523001 145.11501
6.1171999 -9.4388399 144.548
5.9526401 -9.4029999 144.814
6.6540399 -8.9707403 144.438
6.3127699 -9.5271997 144.336
6.7045298 -8.4316301 144.825
6.9658799 -8.4390097 144.591
5.9035401 -9.7824497 144.48599
5.7550302 -9.8074102 144.683
5.9874101 -9.9846802 144.297
5.63835 -10.2923 144.40199
6.3137398 -7.9863 145.71201
6.1438398 -8.4214697 145.54401
5.8422298 -8.2835197 146.26601
6.6455302 -8.0108604 145.31
6.0221 -7.8741498 146.20799
3.5446701 -11.6713 143.888
3.3225501 -11.8598 143.80701
3.7632599 -11.5123 144.064
4.8264999 -6.7599502 150.888
4.8366098 -6.70821 150.571
5.0613799 -7.1172099 150.42999
4.68191 -6.4966102 151.12199
4.6445098 -6.3297901 150.797
4.92066 -6.94911 151.01801
4.7463999 -6.6745801 151.399
5.39642 -7.5664701 152.50999
5.6168399 -7.8366098 152.125
5.1952701 -7.3497601 151.82401
5.3964 -7.6280999 151.41901
5.1224599 -7.3204598 152.89799
4.9590201 -7.0780101 152.21899
5.0403099 -7.1514401 151.323
5.2259202 -7.4215298 150.87601
4.83392 -6.86443 151.729
5.8062601 -8.1513796 151.688
5.9615102 -8.5014601 151.228
5.5830202 -7.93083 150.923
5.7266598 -8.27915 150.091
4.8277402 -6.5200901 150.104
4.6283498 -6.1259899 150.40199
4.6621599 -5.8735199 149.979
5.0258498 -6.8663902 149.77699
4.8569899 -6.2473998 149.61099
5.0503502 -6.5724602 149.233
4.9812598 -5.9590998 149.16299
4.7853498 -5.5964098 149.578
5.1764002 -6.27248 148.752
6.93538 -7.9980102 145.02
7.2033701 -8.0091105 144.78999
11.3827 -6.35707 119.899
11.6451 -5.7347298 119.991
11.5511 -5.7537198 119.623
11.4474 -6.4138498 120.19
11.695 -5.8179798 120.297
11.1861 -6.8302598 119.902
11.2904 -6.7597098 120.127
11.2584 -6.4281602 119.53
11.0349 -6.94523 119.556
11.9782 -4.8943 120.23
12.0101 -4.9924598 120.5
12.3213 -4.0342002 120.84
11.9215 -4.8480902 119.914
12.2963 -3.93275 120.615
12.2656 -3.83885 120.365
12.5121 -3.01649 121.089
12.5469 -3.12867 121.272
12.6597 -2.54215 121.602
12.4797 -2.8916399 120.882
12.6391 -2.3015101 121.565
12.5672 -1.94205 121.436
10.986 -7.33007 119.959
11.1711 -7.1223898 120.217
10.6815 -8.0485802 120.077
10.8856 -7.8605099 120.349
10.8067 -7.47544 119.618
10.4829 -8.1837397 119.739
9.22645 -11.3667 121.362
8.7586298 -12.3076 122.016
9.0268698 -11.1927 120.835
8.5836201 -12.0367 121.405
9.7178698 -10.2188 120.701
9.5065203 -10.1943 120.327
8.3165598 -12.9419 122.451
7.94345 -13.3515 122.72
8.1666203 -12.6797 121.865
7.8101702 -13.144 122.204
7.65906 -13.6564 122.914
7.4215102 -13.8949 122.978
7.5374398 -13.4746 122.425
7.3094602 -13.7126 122.493
10.2308 -9.0554504 120.297
10.4355 -8.9544401 120.588
10.0235 -9.1346397 119.971
11.3747 -6.7599101 120.368
11.6464 -6.12077 120.483
11.0985 -7.5507998 120.519
11.4217 -6.9106002 120.655
11.9939 -5.1862602 120.664
12.3339 -4.1361499 120.987
11.9654 -5.4168501 120.764
12.336 -4.25352 121.06
10.6262 -8.7968798 120.793
10.8016 -8.6508799 120.943
10.9595 -8.6290703 121.109
11.5094 -7.0219698 120.834
11.984 -5.5715699 120.863
12.3503 -4.3490901 121.12
11.2668 1.7107 122.905
10.9755 2.0852101 123.08
10.9083 2.12696 122.852
11.4528 1.5233001 123.241
11.1482 1.94041 123.47
11.5963 1.20645 122.635
11.7499 1.06007 122.967
11.1148 1.8464 122.673
11.4561 1.31686 122.393
12.863 0.196252 125.104
12.6757 0.63594598 125.945
12.3081 0.92234498 125.484
12.8909 -0.27488801 124.211
12.5414 0.46472701 124.836
12.6517 0.0054259999 124.071
12.4963 -0.82829702 122.064
12.643 -1.38291 122.035
12.6875 -0.97367603 122.624
12.4595 -1.16998 121.576
12.2701 -0.159881 122.175
12.2118 -0.37260699 121.658
12.5189 -0.50603402 122.613
12.3032 0.011714 122.638
11.9522 0.55327201 122.376
11.8458 0.58768201 122.077
12.0389 0.54791701 122.746
12.4981 -0.139809 123.232
12.4119 0.279796 123.89
12.1715 0.56213301 123.652
12.693 -0.497803 123.309
12.284 0.23009899 123.14
12.2486 0.71971899 124.531
11.9718 0.98355198 124.155
12.0026 1.16992 125.054
11.7113 1.43299 124.595
12.1012 0.53214401 123.064
11.9411 0.84260201 123.334
11.6964 1.26706 123.691
11.4096 1.7084 124.024
12.2541 1.1417 126.648
11.9117 1.43972 125.854
11.7598 1.52833 125.35
11.4538 1.8279901 124.999
11.0938 2.13466 124.308
10.8182 2.33253 123.584
12.8686 -0.85829598 123.353
12.8175 -1.42489 122.611
12.7355 -1.8389699 122.028
12.7337 -2.3775899 121.862
10.6873 2.39627 123.074
10.7303 2.2904899 122.749
10.352 2.6842 122.843
10.4874 2.4742 122.532
10.9509 1.97566 122.479
11.304 1.43809 122.178
10.7563 2.1134 122.246
11.1324 1.57393 121.947
11.7011 0.72027701 121.834
11.5355 0.90132898 121.618
11.8469 0.240431 121.229
12.0113 -0.025372 121.406
8.74403 -7.2435999 143.211
8.8393402 -7.2983298 142.858
8.5419397 -7.70011 142.896
9.0638704 -6.8697701 143.20399
9.1715803 -6.9123802 142.834
8.6606998 -7.2127099 143.508
8.96311 -6.8345499 143.547
8.4860401 -7.57688 143.256
8.4824495 -7.4725199 143.47099
8.2588701 -7.8624301 143.38
8.3583698 -7.5668402 143.651
8.0654802 -8.0704803 143.61099
8.2142696 -7.65803 143.92599
8.2464895 -8.1322803 142.96001
7.9053702 -8.6603804 143.11301
9.4640999 -6.4837198 143.19299
9.9395199 -6.1211901 143.134
10.0292 -6.1849198 142.735
9.3646498 -6.4308901 143.561
9.8539696 -6.0507498 143.517
9.56954 -6.5360098 142.80499
8.5511398 -7.2104101 143.828
8.8593502 -6.7912798 143.929
8.4195404 -7.2346902 144.177
11.5935 -5.2898798 142.63901
11.5758 -5.2079802 143.06
11.022 -5.5278602 142.804
10.9858 -5.44175 143.214
9.2779703 -6.36165 143.94701
9.7804499 -5.96591 143.897
10.3439 -5.62111 143.79401
10.4077 -5.7206802 143.396
10.9402 -5.3333402 143.64101
10.4691 -5.8035798 142.99899
10.5296 -5.8727102 142.59801
11.5581 -5.09974 143.507
5.3900099 -12.7625 139.959
4.9236302 -13.1614 139.87399
4.6617398 -12.9695 140.689
5.6259699 -13.0026 139.05701
5.21175 -13.3732 138.981
5.8769002 -12.3559 140.10201
6.0711198 -12.5969 139.188
5.2083101 -12.5312 140.784
5.7613802 -12.1347 140.944
7.66921 -9.6499596 142.23199
7.57303 -9.4605103 142.927
7.37538 -10.2654 142.14999
7.2939801 -10.1466 142.821
7.7827501 -9.8694296 141.49001
7.4748201 -10.4005 141.408
7.98276 -9.0009098 142.327
8.1030302 -9.2565603 141.604
7.0704799 -10.8115 142.103
7.0142102 -10.7613 142.73199
6.7052002 -11.2752 142.00101
6.6737499 -11.2574 142.573
7.1236701 -10.882 141.353
6.7150798 -11.3311 141.27499
6.3578701 -11.9223 140.27
6.5531902 -12.141 139.339
6.8271699 -11.467 140.41299
7.0452099 -11.6656 139.465
6.2607498 -11.7463 141.12801
7.2593198 -11.0126 140.507
7.5017099 -11.2076 139.547
7.63867 -10.5515 140.595
7.9002399 -10.7537 139.63901
7.9611602 -10.0574 140.718
8.24965 -10.2565 139.799
8.2883902 -9.46064 140.87399
8.5787001 -9.6573 140.008
8.6564302 -8.7583599 141.034
9.0193596 -8.0769596 141.16
9.28477 -8.2118397 140.43201
8.46486 -8.5848703 141.718
8.8275604 -7.9542899 141.806
8.9370403 -8.9316597 140.23399
8.3255997 -8.3776398 142.381
8.6641903 -7.8277001 142.399
9.3370104 -7.52249 141.246
9.5876102 -7.61518 140.577
9.6410999 -7.0736799 141.304
9.8783903 -7.1265998 140.67599
9.14571 -7.4426398 141.849
9.4577303 -7.0201001 141.867
9.6866903 -6.5899701 142.36099
9.3028498 -6.9647002 142.383
9.8215103 -6.6384001 141.869
10.1262 -6.2431998 142.3
10.2419 -6.2878098 141.827
6.7964501 -12.3439 138.437
6.3049202 -12.7878 138.328
7.3116999 -11.8885 138.498
5.8687801 -13.1853 138.22301
5.4622302 -13.5518 138.155
7.8128099 -11.4583 138.481
8.2708998 -11.0232 138.48
8.6643496 -10.5139 138.63699
9.1661901 -10.7907 137.356
9.0142803 -9.8823605 138.927
9.54772 -10.1085 137.744
9.9341698 -7.7249298 139.79401
10.3914 -7.8414202 138.897
10.1571 -8.5360699 138.576
10.2105 -7.1783299 139.964
10.6415 -7.2267699 139.13499
9.6630497 -8.3702602 139.55701
9.3524504 -9.1301098 139.252
9.8768101 -9.3268003 138.17101
9.9887304 -6.6739101 141.33701
10.2186 -6.6905499 140.742
10.3974 -6.3078899 141.31599
10.6281 -6.2909298 140.75
10.5483 -6.6803899 140.07401
10.9642 -6.6447101 139.304
10.9502 -6.2242098 140.11099
11.3478 -6.0996099 139.388
8.9773903 -7.3667898 142.396
11.3986 -5.8076301 140.091
11.7669 -5.6193399 139.424
11.0926 -5.9183002 140.68201
6.2581 -11.6598 141.81599
6.2227702 -11.6268 142.33
5.7226701 -12.0001 141.589
5.0984001 -12.3736 141.396
4.4788899 -12.8384 141.284
10.6009 -5.9293799 142.175
10.7027 -5.9654198 141.718
10.8587 -5.9672699 141.22099
11.9457 -0.69457901 132.80499
11.5988 -0.88151097 133.89301
12.537 -1.37688 132.91701
12.086 -1.5059 134.088
12.3765 -0.42216599 131.59
13.0475 -1.12466 131.636
11.3815 -1.02535 134.836
11.8041 -1.62019 135.099
7.50418 -14.2935 132.334
7.0760398 -14.64 132.32401
6.7339001 -14.432 133.744
8.03685 -13.9457 132.267
7.16153 -14.0701 133.791
7.6466398 -13.7054 133.82401
10.6611 -11.3479 134.114
11.1476 -11.3837 133.34599
10.8415 -12.1189 132.455
11.0068 -10.5632 134.80701
11.4421 -10.5904 134.10699
10.1722 -11.2202 135.06
10.5617 -10.4606 135.63499
10.2952 -12.049 133.38901
9.7537203 -11.8717 134.548
12.225 -2.26299 135.36301
12.6105 -2.93503 135.65401
12.5634 -2.1674299 134.283
12.9742 -2.8604701 134.535
6.87745 -13.861 134.892
6.4407001 -14.2389 134.838
7.3428602 -13.4853 134.957
8.6841602 -13.574 132.16701
8.1945801 -13.3167 133.845
8.76019 -12.8923 133.929
9.24403 -13.7425 130.196
9.3353996 -13.1531 132.256
10.1199 -13.313 130.23
11.354 -9.7237196 135.39999
11.7624 -9.7584496 134.70799
11.6644 -8.8909101 135.86501
12.0692 -8.9263897 135.16
10.9224 -9.6295795 136.19299
11.2216 -8.8047199 136.664
7.8398299 -13.0908 135.035
8.3456097 -12.6642 135.15601
9.86728 -12.653 132.709
10.5166 -12.7462 131.47501
9.2864199 -12.4199 134.159
12.8216 -0.056510001 130.321
13.4931 -0.67972898 130.332
13.2513 0.057688002 128.98801
13.8628 -0.47207299 128.976
13.6559 -0.00048700001 127.717
14.2095 -0.417229 127.711
13.9142 -0.19626001 126.508
14.4035 -0.52185798 126.507
13.9525 -0.52757603 125.354
14.3943 -0.81266803 125.358
13.8497 -1.01996 124.287
14.2587 -1.29012 124.302
13.7125 -1.68515 123.354
14.0878 -1.9416 123.38
13.5172 -2.5216899 122.552
13.8606 -2.76104 122.595
13.2149 -3.53215 121.885
13.5316 -3.76004 121.945
12.8495 -4.7372799 121.429
13.1449 -4.95926 121.495
12.4785 -6.1194301 121.229
12.761 -6.3431301 121.316
12.1014 -7.6006699 121.315
12.3819 -7.8109798 121.437
11.7094 -9.0727701 121.696
12.0012 -9.2354498 121.853
11.3378 -10.4265 122.354
11.657 -10.5143 122.539
9.7406902 -13.7183 128.297
10.1364 -13.4989 126.687
10.4072 -13.4748 128.24899
10.666 -13.3313 126.781
10.4588 -13.0956 125.388
10.7408 -12.4671 124.276
10.914 -12.9757 125.551
11.1471 -12.398 124.463
11.0203 -11.5747 123.247
11.3809 -11.578 123.441
11.9345 -8.0837698 136.233
12.3533 -8.1086798 135.51199
12.186 -7.2849102 136.521
12.6265 -7.2972002 135.76801
11.4695 -8.0263996 137.036
11.6993 -7.2748499 137.332
12.9037 -3.6057999 135.983
13.0273 -4.2837601 136.32899
13.2599 -3.56182 134.86099
13.3903 -4.2621498 135.243
8.8224096 -12.1894 135.383
9.2624102 -11.648 135.728
9.6777802 -11.0302 136.14301
10.0761 -10.3066 136.617
10.4236 -9.4954596 137.12399
10.706 -8.6832104 137.58299
10.9323 -7.9457598 137.946
11.1598 -7.2607098 138.22701
12.9458 -4.9780898 136.616
12.5484 -5.1283398 137.634
12.7178 -5.70012 136.75999
12.2474 -5.7961702 137.66
13.3535 -4.9682298 135.614
13.1707 -5.7004099 135.85699
12.4454 -6.4758501 136.714
12.904 -6.4802999 135.896
11.9534 -6.5212302 137.556
11.4421 -6.5869098 138.44099
11.7784 -5.9418898 138.55
12.1471 -5.3713298 138.60001
13.4588 -9.7709303 122.821
13.7932 -8.5628099 122.327
13.2272 -8.2994204 121.922
14.0872 -9.8755198 123.342
14.4274 -8.8126698 122.893
13.1539 -10.7853 123.506
13.7638 -10.7551 123.96
12.893 -9.6113005 122.422
12.5999 -10.7357 123.141
14.1413 -7.2480698 122.099
13.5903 -6.9005098 121.717
14.5051 -5.9690099 122.162
13.9791 -5.5601001 121.825
14.7574 -7.6352401 122.67
15.086 -6.4676099 122.7
15.8377 -2.17785 125.655
15.9177 -2.0116601 126.703
15.4557 -1.44291 126.584
16.277201 -2.8770001 125.879
16.340599 -2.7295301 126.851
15.6717 -2.56305 124.678
16.143999 -3.2408099 124.965
15.3822 -1.64382 125.497
15.204 -2.0529201 124.494
15.8639 -2.06615 127.793
15.3593 -1.45576 127.73
15.7021 -2.30165 128.916
15.1434 -1.6527801 128.933
16.306999 -2.7960601 127.849
16.1744 -3.03053 128.85899
15.479 -2.66921 130.062
14.887 -1.99628 130.222
15.2611 -3.19315 131.158
14.4806 -2.6837699 131.78
15.9621 -3.3787899 129.854
15.7057 -3.8147099 130.75999
15.043 -3.96223 132.024
14.5033 -3.7202201 132.716
14.8278 -4.7287698 132.674
14.4006 -4.5337601 133.355
15.4438 -4.33113 131.51199
15.1853 -4.9541898 132.09801
14.6051 -5.4418502 133.14799
14.2399 -5.2653499 133.83299
14.3627 -6.1121202 133.464
14.0173 -5.9539499 134.14999
14.9326 -5.6223202 132.541
14.6833 -6.2691898 132.84599
14.0903 -6.7583899 133.63499
13.7389 -6.6386299 134.30901
13.8068 -7.4091201 133.67799
13.4456 -7.3480501 134.32401
14.426 -6.8819399 133.00999
14.1629 -7.4791598 133.054
13.5302 -8.0823002 133.59599
13.1607 -8.0826197 134.19099
13.2669 -8.7910995 133.37601
12.8843 -8.84974 133.918
13.9061 -8.08953 133
13.6486 -8.7629299 132.82001
13.0052 -9.5493097 133.013
12.6135 -9.6337004 133.515
12.7476 -10.2965 132.536
12.3319 -10.4293 132.985
13.4037 -9.4668503 132.507
13.1848 -10.1299 132.092
12.545 -10.9344 131.991
12.3891 -11.4918 131.347
11.8889 -11.7695 131.60201
13.0171 -10.6954 131.617
12.9041 -11.1879 131.05901
12.0927 -11.1416 132.355
12.2729 -11.999 130.564
12.2204 -12.4068 129.632
11.6221 -12.7444 129.64
12.842 -11.6391 130.381
12.8285 -12.0182 129.567
11.7137 -12.3254 130.69901
12.2522 -12.6456 128.56799
11.6591 -12.9541 128.45399
12.3532 -12.6826 127.432
11.7903 -12.939 127.228
12.8632 -12.2682 128.62801
12.9478 -12.3437 127.603
12.4987 -12.5102 126.3
12.6788 -12.1379 125.246
12.147 -12.2726 124.973
13.0826 -12.2211 126.554
13.2636 -11.9116 125.566
11.9598 -12.71 126.054
12.8947 -11.5702 124.316
12.3552 -11.6217 124.001
13.4885 -11.4287 124.7
14.8761 -4.8492098 122.5
14.3757 -4.3983798 122.217
15.208 -3.9140799 123.065
14.7245 -3.4372499 122.828
15.419 -5.42383 122.98
15.7219 -4.5356698 123.477
15.4661 -3.14906 123.803
14.9889 -2.6561999 123.596
15.9623 -3.80178 124.152
15.3812 -8.0198803 123.435
15.9102 -8.3099499 124.283
16.1747 -7.4902301 124.302
15.0733 -9.0121002 123.629
15.6297 -9.10882 124.437
15.6768 -7.0170102 123.453
15.9711 -6.0918298 123.684
16.241301 -5.2842398 124.105
16.431 -6.7093801 124.494
16.6647 -6.0103302 124.837
16.4589 -4.6114702 124.682
16.612801 -4.0984998 125.378
16.852699 -5.42378 125.297
16.9781 -4.974 125.849
16.705299 -3.76404 126.161
16.731501 -3.6183801 126.997
17.0347 -4.6731 126.471
17.0245 -4.5211601 127.145
16.682301 -3.6533201 127.861
16.5453 -3.83182 128.739
16.9484 -4.5072198 127.859
16.7976 -4.6108298 128.60201
16.3244 -4.1101799 129.603
16.057899 -4.4594898 130.381
16.575899 -4.8076501 129.343
16.321699 -5.0743999 130.00999
15.7861 -4.86971 131.015
15.5203 -5.35217 131.522
16.0707 -5.4008002 130.54601
15.8184 -5.7996898 130.97701
15.2595 -5.9051299 131.93201
15.0063 -6.4815202 132.22501
15.5552 -6.2712898 131.341
15.2987 -6.76931 131.61501
14.7613 -7.0402098 132.37801
14.5192 -7.59341 132.414
15.0668 -7.2528 131.76401
14.8514 -7.7351499 131.804
14.2789 -8.1672096 132.36301
14.0508 -8.7645502 132.215
14.6429 -8.2384996 131.759
14.4522 -8.7517405 131.632
13.8476 -9.3652 131.957
14.292 -9.2504396 131.422
14.1564 -9.7164001 131.142
13.6708 -9.9293699 131.612
13.5319 -10.4219 131.21001
13.444 -10.8541 130.739
14.0433 -10.1375 130.80901
13.9708 -10.512 130.41701
13.4127 -11.2442 130.16901
13.4303 -11.5766 129.48
13.9539 -10.842 129.948
13.9924 -11.12 129.37601
13.4878 -11.8136 128.67101
13.5876 -11.9084 127.774
14.0787 -11.3248 128.69299
14.2054 -11.4184 127.931
13.7331 -11.8298 126.847
13.921 -11.5862 125.967
14.3662 -11.371 127.144
14.5566 -11.1858 126.398
14.149 -11.192 125.197
14.4245 -10.6344 124.545
14.777 -10.8725 125.742
15.0351 -10.4217 125.191
14.7441 -9.9014702 124.012
15.3289 -9.82691 124.748
15.2592 -10.5159 126.233
15.4903 -10.1482 125.778
15.057 -10.7695 126.776
14.876 -10.9154 127.392
14.7137 -10.9492 128.043
14.5746 -10.8716 128.679
14.4728 -10.7052 129.254
14.4222 -10.4767 129.735
14.4271 -10.1992 130.132
14.4814 -9.8793297 130.466
14.5679 -9.5230799 130.75
14.6692 -9.1377602 130.983
14.7945 -8.7238798 131.158
14.9528 -8.2881403 131.265
15.1355 -7.8520498 131.297
15.3329 -7.4310999 131.245
15.5517 -7.0125399 131.09399
15.7949 -6.58918 130.84399
16.0413 -6.1948199 130.52499
16.2717 -5.8660798 130.15401
16.4974 -5.60323 129.69701
16.7265 -5.3973999 129.131
16.931101 -5.2597098 128.50301
17.0786 -5.2087898 127.88
17.1633 -5.2575798 127.294
17.190001 -5.4147902 126.757
17.156 -5.6863899 126.275
17.059601 -6.0729499 125.855
16.907499 -6.5663099 125.502
16.714001 -7.1476402 125.231
16.496099 -7.7868199 125.074
15.7498 -9.6650295 125.421
16.015301 -9.0865202 125.175
16.264299 -8.44695 125.055
11.141 -12.6077 130.875
11.0048 -13.0431 129.662
11.377 -12.0053 131.903
14.7972 -0.90931499 127.705
14.9387 -0.94651198 126.523
14.5189 -1.0510499 128.951
11.6246 -11.3091 132.778
11.9003 -10.5238 133.504
12.1881 -9.7218199 134.078
12.4795 -8.9046097 134.50999
12.7644 -8.0999298 134.83099
13.0501 -7.3133998 135.02901
13.3413 -6.5387702 135.077
13.6129 -5.80057 134.964
13.8021 -5.0865202 134.66499
13.8835 -4.3608298 134.226
14.2075 -1.33279 130.30099
13.7556 -1.80665 131.664
13.8421 -3.5941 133.716
13.6075 -2.8088601 133.27299
13.1339 -2.06738 133.028
13.1292 -6.6012301 121.47
12.7546 -8.0449896 121.632
13.5229 -5.2297502 121.619
12.399 -9.4223604 122.097
12.0876 -10.6299 122.811
14.8899 -1.19135 125.401
14.7246 -1.63563 124.371
13.9229 -4.04356 122.047
14.2699 -3.06199 122.683
14.5229 -2.2629399 123.461
11.0553 -13.2226 128.30701
11.2259 -13.1477 126.981
11.838 -11.6077 123.702
11.6271 -12.3449 124.705
11.4245 -12.8545 125.788
7.4353299 -9.3582602 143.47501
7.7077498 -8.6951704 143.65601
7.2224398 -9.2630396 143.884
7.5180898 -8.6426497 144.041
7.1389799 -10.0621 143.358
6.89183 -9.9353399 143.76401
7.9120798 -8.1565399 143.933
8.0778399 -7.7126899 144.233
7.7355299 -8.1423101 144.269
7.8992901 -7.7276402 144.537
6.8428602 -10.7021 143.22099
6.5606899 -10.5529 143.619
6.5016198 -11.205 143.015
6.2093902 -11.0407 143.418
8.8833504 -6.2979398 145.138
9.3066502 -5.6954498 145.46899
8.6146297 -6.3081002 145.463
9.0478601 -5.63446 145.81
8.53339 -6.8197899 144.80099
8.2919798 -6.8688998 145.11099
8.2696505 -7.28407 144.509
8.06738 -7.3266201 144.81
9.80863 -5.0297399 145.733
10.4226 -4.4018402 145.914
9.5951796 -4.89326 146.078
10.2754 -4.1965799 146.248
10.9317 -3.31621 146.718
10.8058 -2.95859 147.028
10.0737 -3.9556999 146.599
9.6688604 -3.75929 146.98599
11.0478 -3.60906 146.395
6.0390701 -11.5693 142.74001
5.7567501 -11.4025 143.164
11.1405 -3.8762701 146.067
7.7934599 -7.3228598 145.063
7.9728599 -6.86379 145.39101
7.6485701 -7.6971502 144.797
8.2393799 -6.2580199 145.797
8.6621399 -5.5143499 146.188
9.2840204 -4.7067599 146.455
8.8449697 -4.6127601 146.8
6.2343702 -10.2827 143.98399
5.88625 -10.7328 143.86
6.5871401 -9.7261105 144.084
5.4946299 -11.095 143.685
5.31463 -10.7351 144.244
5.0446601 -11.3275 143.584
4.9964499 -11.0117 144.15199
6.9400201 -9.1052799 144.19299
7.2545099 -8.5300198 144.345
7.4851298 -8.0721502 144.552
-4.3899798 -3.0992401 149.037
-4.86408 -2.4040401 147.709
-4.2927399 -1.77272 147.85001
-4.8020802 -3.4934599 148.987
-5.2862902 -2.81515 147.66499
-3.9712701 -2.7590201 149.21001
-5.2570701 -1.82658 146.265
-5.5304699 -1.38035 144.89301
-5.03725 -0.80094099 144.93201
-5.6670699 -2.2328 146.231
-5.93748 -1.77284 144.855
-4.7862 -1.21245 146.25301
-6.4203401 0.87714303 134.44
-6.3899498 1.0430599 133.495
-5.99265 1.5485801 133.58299
-6.7871199 0.48679599 134.386
-6.78865 0.61060601 133.433
-6.42032 0.70761698 135.40601
-6.7727699 0.34604499 135.36
-6.0188398 1.37176 134.526
-6.0034599 1.19591 135.48399
-5.50071 1.96513 134.64301
-4.8881102 2.6142299 134.765
-4.7691102 2.5599899 135.745
-5.5280499 2.08917 133.685
-5.0086598 2.64217 133.785
-5.4450998 1.8331 135.608
-4.2439198 3.2544501 134.85001
-4.4734101 3.1819601 133.856
-3.9335799 3.66236 133.845
-4.0513401 3.2794299 135.84801
-3.6017399 3.81657 134.851
-3.33956 3.90816 135.875
-6.3723898 0.56036901 136.44
-6.7484198 0.185443 136.403
-6.2844801 0.40127301 137.558
-6.7038202 -0.0079429997 137.524
-5.9278698 1.06881 136.498
-5.8073001 0.941347 137.60001
-5.3473802 1.74405 136.604
-5.2139902 1.64871 137.685
-4.6427898 2.5210299 136.739
-4.50104 2.4554501 137.80499
-3.88639 3.2906699 136.86
-3.72891 3.2510099 137.933
-3.1333799 3.96737 136.92999
-2.9514101 3.95948 138.035
-6.1814198 0.193353 138.74899
-6.6323099 -0.23903 138.70799
-6.0718498 -0.068553999 139.98801
-6.5335102 -0.50548899 139.94099
-5.6775599 0.75766301 138.795
-5.55127 0.50829899 140.04601
-5.0716 1.49491 138.871
-4.9330502 1.27186 140.12601
-4.3517299 2.32758 138.974
-4.2038698 2.12904 140.217
-3.57197 3.13837 139.088
-2.7751901 3.86814 139.18401
-2.6152201 3.68875 140.366
-3.42114 2.9491799 140.304
-5.7095599 -1.0144 143.655
-5.8387899 -0.68741298 142.465
-5.3147802 -0.110728 142.53
-6.1297798 -1.41026 143.61099
-6.2782898 -1.09935 142.42
-5.1967702 -0.442343 143.717
8.21033 2.40183 148.505
7.9510198 2.74404 148.356
7.0889502 2.1628201 148.827
6.8108702 2.5977001 148.59599
8.5221596 1.9935499 148.617
7.42805 1.65862 148.987
8.8749304 1.49812 148.66901
7.79918 1.0883 149.065
9.2264099 0.946778 148.64101
8.1671305 0.48519599 149.039
7.7274699 3.0753701 148.158
6.6051002 2.97614 148.319
9.5299702 0.40065399 148.52901
8.49685 -0.100787 148.908
9.7607803 -0.077698 148.384
8.7598801 -0.61677498 148.72701
9.9218702 -0.45921001 148.25301
8.9491501 -1.03765 148.55
10.0504 -0.78645301 148.127
9.1015501 -1.41348 148.366
5.1338 -4.5382199 149.407
5.5900502 -4.1420698 149.16499
4.91535 -4.0605001 149.892
5.3805499 -3.6564701 149.63499
4.8007798 -4.8747001 149.681
4.5675602 -4.4054999 150.159
8.1268396 -2.44382 148.41499
7.9449 -2.01686 148.698
7.0542498 -3.09219 148.67999
6.8471498 -2.6290801 149.041
9.2515202 -1.79477 148.158
6.2088299 -3.66681 148.929
5.9965301 -3.1831999 149.356
5.7399998 -2.6838801 149.759
5.3954201 -2.1579399 150.12199
6.3087502 -1.65545 149.688
5.11128 -3.13923 150.08701
4.7339602 -2.5959101 150.48199
6.6104898 -2.1589601 149.37601
7.7480202 -1.58839 148.955
7.5035901 -1.12081 149.19901
10.1838 -1.1165299 147.983
5.31599 2.9474399 148.414
3.88696 2.8584599 148.493
5.5021601 2.4904799 148.83099
4.0829701 2.31795 149.045
2.4379101 2.58973 148.599
1.17114 2.2460201 148.603
2.5875499 1.9888999 149.25
1.03316 1.41301 149.41701
5.7814798 1.95103 149.173
6.1152201 1.34269 149.42101
4.7582202 0.95688999 149.842
4.4023499 1.66833 149.496
-0.92896599 2.32025 147.02699
-1.58369 1.71384 147.3
-1.80834 1.92647 146.63901
-0.80278999 2.12217 147.481
-1.35515 1.54819 147.78999
-0.153043 2.8599 146.759
-1.08376 2.5543301 146.41299
-0.27849299 3.1072099 146.164
