# .PCD v.7 - Point Cloud Data file format
VERSION .7
FIELDS x y z
SIZE 4 4 4
TYPE F F F
COUNT 1 1 1
WIDTH 1775
HEIGHT 1
VIEWPOINT 0 0 0 1 0 0 0
POINTS 1775
DATA ascii
12.2978 -3.07899 144.77699
11.7708 -2.5109899 145.927
11.5743 -2.18297 146.39
13.3387 -0.118884 138.29601
13.3709 -0.294332 139.71899
13.3519 0.29572499 139.153
13.3714 -0.91053802 140.233
13.3524 -1.57962 140.78
13.2978 -2.25962 141.355
13.1699 -2.88204 141.951
12.8164 -3.40996 142.758
12.5637 -3.2792101 143.946
13.1093 2.3619399 151.34801
13.0303 1.94523 151.145
13.1852 2.7809501 151.509
12.9471 1.53627 150.896
13.4754 8.7150602 151.004
13.5227 8.3826599 151.22301
13.578 7.97364 151.425
13.6219 7.4521198 151.614
13.6401 6.8515902 151.75301
11.6441 10.2739 150.04601
13.4449 9.0387096 150.745
12.5621 9.8031502 150.28999
13.4123 9.4160004 150.423
13.6267 6.2478399 151.813
13.5862 5.7319198 151.82001
13.5324 5.3505602 151.813
13.4864 5.0464902 151.80099
13.4594 4.73664 151.782
10.7234 10.7846 149.67
13.2602 3.1956899 151.62601
9.7026596 10.5977 137.09
9.8771496 10.685 137.429
9.5607004 10.4354 136.638
9.5759096 10.9115 137.67799
9.2709198 11.185 138.10001
9.0025997 11.4474 138.575
8.5037203 12.0185 147.104
8.4660997 12.1248 146.42999
8.4544201 12.2498 144.924
8.4496202 12.2013 145.71201
8.5369101 12.2645 143.09801
8.4773197 12.2741 144.05
8.6321297 12.2113 142.10001
8.7005501 12.1171 141.112
8.6862202 11.9766 140.161
14.0405 2.29477 134.405
14.0815 3.0604601 134.285
14.0559 3.8938601 134.17999
13.9535 4.7471299 134.092
13.7709 5.59128 134.03799
13.4886 6.40485 134.037
13.0489 7.1624098 134.088
9.3246603 9.7951698 134.707
12.3989 7.8578901 134.179
11.5328 8.5278902 134.30701
10.4854 9.1923504 134.476
9.4082699 9.9199495 135.216
9.4637203 10.0694 135.70599
9.4987097 10.2469 136.17599
13.9575 1.6234699 134.532
13.3576 0.429005 137.577
13.3304 0.884642 138.439
13.4075 1.4569401 137.39301
13.4477 0.758793 136.716
13.6306 0.71460199 135.73
13.634 1.33206 135.851
13.4064 1.18678 139.411
13.6235 1.38445 140.382
13.6893 1.91445 139.92101
13.4404 0.60422301 140.007
13.634 0.84419101 140.86099
13.4388 1.7683001 138.814
12.5128 11.3489 146.892
12.5716 11.2609 147.338
12.1254 11.2728 147.623
13.0034 11.3086 146.592
13.0408 11.2384 147.067
12.4641 11.4165 146.44
12.9792 11.3566 146.15401
12.0329 11.3785 147.192
11.9398 11.4672 146.726
11.5219 11.407 147.496
11.365 11.5205 147.00301
10.8855 11.453 147.80701
10.6503 11.5947 147.272
11.6716 11.2723 147.946
11.1443 11.2719 148.304
10.0642 11.5333 148.12399
9.73526 11.7063 147.537
10.4997 11.2848 148.685
12.671 -2.63377 145.396
12.8989 -2.7978699 144.83099
13.2856 -2.4098899 145.409
13.4566 -2.4920499 144.92799
12.4532 -2.41257 145.86099
13.0946 -2.27777 145.834
12.2734 -2.16008 146.28101
12.9278 -2.1094999 146.211
13.5241 -1.19214 141.60201
13.4991 -0.57240999 141.04201
13.781 -0.86711198 142.342
13.7194 -0.292813 141.81599
13.5212 -1.8065701 142.183
13.8237 -1.41901 142.884
13.4509 -2.3594501 142.76199
13.8121 -1.91236 143.407
13.3048 -2.74018 143.40601
13.7279 -2.28456 143.91
13.1129 -2.8649001 144.13699
13.5982 -2.4746799 144.41701
13.4733 0.023526 140.53
13.6693 0.28310299 141.33
11.839 11.1141 148.35699
11.4571 11.0431 148.76401
12.1291 10.9484 148.66901
11.9182 10.7848 149.136
12.2178 11.1458 148.02901
12.3092 11.0355 148.33
12.6305 11.1406 147.802
13.0933 11.1255 147.605
13.1553 10.9465 148.215
12.6551 10.9891 148.29601
12.6193 10.7973 148.83
12.5703 10.5296 149.373
13.2209 10.6799 148.87
13.2895 10.3121 149.493
12.5569 10.178 149.868
11.7546 10.55 149.605
13.3582 9.8635702 150.01401
11.06 10.9399 149.19901
10.5313 10.1994 137.138
10.4817 10.4458 137.56
11.3925 9.7809801 137.28
11.2862 10.1095 137.741
10.5424 9.9660997 136.702
11.4821 9.4714804 136.828
10.3087 10.7298 138.01801
11.1001 10.4605 138.28
10.8305 10.828 138.877
10.0494 11.0454 138.541
12.2141 9.4143896 137.502
13.0875 9.0931396 137.944
12.9021 9.5602798 138.433
12.3559 9.0249796 137.03
13.2552 8.6147699 137.48
12.0661 9.80937 137.98801
14.0864 8.8062601 138.69099
15.0613 8.6342802 139.58299
14.8252 9.2376604 139.979
14.2431 8.2382803 138.283
15.2103 7.9965401 139.258
13.8757 9.35322 139.147
11.8484 10.2142 138.569
12.647 10.0087 139.02299
12.3413 10.4208 139.65199
11.5612 10.6155 139.202
13.5793 9.8370399 139.707
14.4972 9.7352896 140.48199
14.1396 10.1203 141.009
13.2446 10.2426 140.29401
12.9408 10.5715 140.81599
13.8242 10.4171 141.466
13.5748 10.6477 141.849
12.0391 10.7768 140.23599
12.7013 10.8312 141.27699
11.7927 11.063 140.77699
11.2499 10.9864 139.81799
10.9862 11.291 140.42
10.2622 11.491 140.12601
10.5229 11.188 139.49001
9.76367 11.3663 139.11501
9.5296602 11.649 139.76199
12.5386 11.0317 141.72501
11.6417 11.2744 141.32401
12.4581 11.1814 142.202
11.601 11.4172 141.91
13.3902 10.8308 142.202
13.2668 10.98 142.56599
10.8319 11.5064 141.04401
10.8018 11.6451 141.718
10.0824 11.8378 141.561
10.117 11.7014 140.811
12.4456 11.2909 142.73
11.6496 11.5075 142.552
12.4558 11.3779 143.304
11.7192 11.5696 143.23399
13.193 11.1048 142.97301
13.1421 11.2115 143.43401
11.0319 11.7588 145.293
11.098 11.701 145.88
10.2999 11.807 146.07401
11.7654 11.648 145.138
11.7983 11.611 145.67999
11.0068 11.7917 144.666
11.7555 11.6506 144.55901
10.2213 11.8793 145.44501
10.1931 11.9346 144.771
10.8657 11.732 142.451
10.9496 11.7812 143.216
10.1585 11.9768 143.211
10.1136 11.9299 142.37399
10.993 11.7997 143.967
11.7514 11.6199 143.91701
10.1823 11.9731 144.02299
12.4153 11.5299 144.994
12.4156 11.5163 145.483
12.9965 11.4059 144.88
12.9708 11.4128 145.30499
12.429 11.5083 144.472
13.0397 11.3681 144.42599
11.2151 11.6196 146.45599
10.4475 11.7119 146.687
11.8582 11.5468 146.215
12.4313 11.4745 145.968
12.9665 11.3931 145.728
12.449 11.4534 143.89999
13.0914 11.3011 143.933
9.4286299 11.8533 140.517
9.4055901 11.9885 141.36
9.3807697 12.0817 142.25999
9.3528996 12.1301 143.177
9.3370199 12.1257 144.05499
9.3355103 12.0852 144.86
9.3527002 12.0269 145.58501
9.4096203 11.9484 146.257
9.5244904 11.842 146.91
10.5638 9.3476801 135.08099
11.6306 8.7122297 135.002
11.6656 8.9240999 135.685
10.602 9.5277996 135.673
10.5805 9.7369404 136.217
11.5948 9.1805801 136.302
14.3964 7.67308 137.85001
15.3065 7.3875499 138.95399
14.5755 7.06253 137.47
15.3749 6.7894602 138.69701
13.4526 8.1168203 136.929
13.6558 7.4823298 136.138
12.5552 8.0507402 134.96201
12.6298 8.2927103 135.755
13.2886 7.3323898 134.94701
12.5307 8.63484 136.461
14.2034 4.8872099 135.026
14.0677 5.7147598 134.94701
14.4854 4.9569502 136.069
14.43 5.7332401 135.99699
14.2044 4.0685401 135.15601
14.3703 4.1989198 136.215
13.7829 6.5402298 134.93201
14.1989 6.5349798 136.004
14.7607 6.3740702 137.27299
15.4107 6.16713 138.537
14.8571 5.6617498 137.23
15.3579 5.53158 138.478
14.0862 3.28104 135.325
14.1128 3.4676199 136.43401
13.9062 2.566 135.535
13.8086 2.7948 136.72
13.7331 1.936 135.76199
13.5579 2.18469 137.05499
14.7965 4.96702 137.27699
15.1699 4.9033799 138.51401
14.5787 4.2792001 137.414
14.8696 4.2755098 138.64301
14.2445 3.5950501 137.644
14.5152 3.64221 138.867
13.887 2.9446599 137.95599
14.1652 3.0274899 139.164
13.6007 2.34547 138.334
13.8744 2.4544401 139.51401
14.2644 8.1163101 151.203
14.3385 7.7246799 151.381
14.8271 8.0249004 151.136
14.9881 7.6191702 151.31
14.1963 8.4286203 151.021
14.6398 8.2839499 151.01601
14.1665 8.7343502 150.798
14.7456 8.4816799 150.86099
14.1332 9.1237097 150.50101
14.7843 8.8751698 150.57899
14.3825 7.2276402 151.56
14.4004 6.6533699 151.702
15.0551 7.1051998 151.49899
15.0685 6.51682 151.659
16.6674 4.5457101 141.13901
16.1224 4.6320801 140.476
15.7171 4.0608902 140.645
17.1035 5.1564102 141.03
16.5049 5.2508001 140.38499
17.429001 4.4879699 141.621
17.878 5.0764298 141.50999
16.244801 3.98822 141.30499
17.0086 3.94643 141.77299
14.2079 4.0615702 151.793
14.9087 4.1413298 151.84599
14.8538 3.7224901 151.83
14.2357 4.4345698 151.799
14.9049 4.5116701 151.84399
14.1488 3.6526 151.76801
14.0845 3.2414401 151.714
14.7895 3.3034201 151.78999
14.7236 2.88867 151.717
14.0173 2.83149 151.621
13.9396 2.41359 151.483
13.8469 1.98352 151.29201
14.6453 2.46315 151.59801
14.5476 2.01652 151.41901
24.171499 0.88243502 149.035
23.453899 0.473625 148.69
22.900801 0.55651897 148.92599
25.063801 0.914819 148.89999
24.323 0.43004799 148.425
24.7015 1.36116 149.41
25.538799 1.38714 149.26801
23.503599 0.92924702 149.224
23.994699 1.3832 149.577
25.896799 3.89886 150.20799
25.117701 3.9491601 150.444
25.201799 4.5343299 150.478
25.7775 3.3541901 150.133
24.992599 3.3796999 150.35899
26.7283 3.8483801 149.97301
26.624599 3.3278301 149.91299
25.9702 4.4601302 150.244
26.780001 4.38695 150.009
25.6047 2.8308799 150.03
26.4515 2.8227601 149.83099
26.212299 2.33389 149.714
24.827801 2.83813 150.23199
25.378099 2.32967 149.89101
24.621 2.3303499 150.071
25.089399 1.84471 149.696
25.9121 1.85909 149.537
24.3571 1.85176 149.86301
13.995 1.57004 141.272
14.5037 1.73833 142.02901
14.6438 2.2044201 141.68201
13.9647 1.05995 141.685
14.4388 1.24821 142.416
14.1061 2.06303 140.88901
15.1506 1.85906 142.608
16.0056 1.93165 143.004
16.139 2.3408401 142.681
15.0702 1.39246 142.987
15.9157 1.49716 143.369
15.2924 2.2981999 142.272
22.531601 0.181275 148.483
22.1915 0.30351999 148.786
21.4597 -0.080967002 148.34599
21.172501 0.051624998 148.761
22.860701 0.08884 148.159
21.4118 -0.18188301 147.87801
15.9267 3.52005 141.502
16.698299 3.4932799 141.955
15.6896 3.1115201 141.724
16.479 3.1030099 142.164
15.383 3.5569401 140.85699
15.1082 3.0994301 141.099
15.479 2.7126 141.979
14.8558 2.6547599 141.37399
16.2985 2.7275901 142.40401
18.5469 4.4346199 141.963
18.1528 3.91658 142.11099
19.629 3.9546499 142.347
18.948 4.99401 141.85001
19.9422 4.4377398 142.196
20.201401 4.9429498 142.08501
17.8451 3.47211 142.28799
19.3465 3.5153201 142.52699
17.619801 3.0861399 142.489
19.115101 3.1224699 142.726
21.041599 3.66238 142.675
21.251801 4.1040702 142.489
22.657499 3.85116 142.731
22.753599 4.3080902 142.535
20.826 3.2497301 142.883
22.469999 3.40886 142.95799
21.226801 5.33883 142.151
21.561399 5.5882802 142.15401
20.551399 5.9033399 141.98
21.3906 4.99438 142.228
22.289301 5.1748199 142.27901
20.3923 5.4369001 142.01601
21.4004 4.5510101 142.341
22.663 4.74366 142.392
23.58 4.9779701 142.355
22.832701 5.4457998 142.25301
24.1752 5.33922 142.27
23.133801 5.82022 142.2
23.9708 4.5019398 142.496
25.181801 4.7523198 142.397
17.4426 5.77528 141.002
17.649401 6.40519 141.045
16.8946 6.5430298 140.498
18.2498 5.6624298 141.44901
18.490801 6.2477899 141.437
16.7647 5.88905 140.39799
19.2703 5.5524802 141.77901
19.473 6.0988998 141.742
17.715401 7.0721898 141.149
17.6115 7.8007598 141.326
16.813999 7.9281702 140.845
18.57 6.87146 141.48801
18.448999 7.59552 141.647
16.916201 7.2204399 140.653
24.0044 3.98961 142.714
25.160101 3.98754 142.689
23.8188 3.50491 142.968
24.897301 3.4679899 142.968
21.7819 5.94909 142.132
20.599701 6.3927798 141.968
21.907 6.3773198 142.12199
20.469999 7.1311998 142.06599
19.513399 6.6747799 141.75301
19.326 7.3894 141.87801
15.9144 10.6365 144.295
15.8293 10.5202 143.70799
16.7054 10.2376 143.57401
15.2456 10.7964 144.282
15.2384 10.6868 143.78799
15.9027 10.7428 144.89799
15.0786 10.9278 144.911
16.7164 10.4564 144.373
16.697901 10.5777 144.993
13.5147 11.2527 146.29401
13.4931 11.2817 145.875
13.9944 11.1926 145.59399
13.5435 11.2074 146.789
14.0455 11.1764 146.008
14.0848 11.1574 146.52499
14.6023 11.0766 145.74899
14.6696 11.0794 146.315
15.2218 10.9546 145.565
15.3058 10.9796 146.185
14.4831 11.088 145.297
15.9274 10.8177 145.515
15.9994 10.866 146.15199
16.700899 10.6719 145.601
16.748301 10.7344 146.222
16.9069 7.3221002 151.24699
16.890699 6.5791702 151.51401
16.302099 6.5069399 151.575
17.4723 7.3548698 151.16701
17.48 6.6571202 151.437
16.8654 8.1259699 150.841
17.428101 8.1073399 150.776
16.3232 7.2456799 151.33099
16.1469 8.13696 150.908
26.003799 5.0230298 150.233
26.7966 4.9353499 150.011
25.9865 5.5562801 150.17999
26.774401 5.4607201 149.97501
25.240101 5.1146898 150.451
25.222601 5.6594 150.379
25.9104 6.03333 150.097
25.785801 6.4532499 149.99699
26.559099 6.3343801 149.83299
25.1458 6.14535 150.28
25.026501 6.5751901 150.16
26.699301 5.9299898 149.908
22.5797 7.2263498 150.38901
23.368 7.1550002 150.26601
23.4772 6.7392001 150.448
22.5044 7.6465502 150.14799
23.259701 7.5522599 150.047
21.7572 7.2872601 150.513
21.708099 7.7392902 150.248
22.6646 6.79177 150.58501
21.8204 6.8315701 150.72301
18.060301 7.3719702 151.07899
18.6866 7.3780899 150.98199
18.7237 6.7747798 151.244
18.014 8.0758305 150.705
18.6441 8.0283604 150.62801
18.0884 6.7213998 151.347
19.356899 7.3757701 150.87399
19.319599 7.9654698 150.543
20.062201 7.8944702 150.45
19.3974 6.8227401 151.127
20.096201 7.3621602 150.759
20.1394 6.85361 150.99899
20.9118 7.3330698 150.63699
20.8757 7.8207102 150.35001
20.9613 6.8552198 150.862
24.1322 7.0734301 150.14301
24.2616 6.6705899 150.30901
24.884399 6.9702902 150.01401
23.9935 7.4626002 149.94099
24.7239 7.3638 149.827
25.6381 6.8378301 149.879
26.407101 6.6872602 149.74699
25.4776 7.2322698 149.71201
26.300301 7.0450501 149.60699
26.790199 1.88166 149.39999
26.453501 1.46822 149.177
27.1196 2.3251901 149.556
26.1609 1.06984 148.875
25.9146 0.702362 148.51199
26.274 3.7999499 142.714
26.580799 4.4712501 142.43401
25.8361 3.26965 143.022
27.008699 6.5694599 149.653
27.1535 6.7733402 149.535
27.292801 6.2895098 149.67599
27.5156 5.8813 149.72501
27.6161 5.40137 149.776
27.208401 7.1358099 149.332
27.1999 7.5606999 149.05
26.137699 7.48384 149.367
25.6381 8.1097803 148.90401
13.4765 -0.86228901 148.384
13.4122 -1.11419 147.91499
14.2555 -1.0520101 148.261
14.1561 -1.27802 147.767
13.5175 -0.554124 148.896
14.4096 -0.717439 148.888
15.0296 -1.2103 148.144
15.1879 -0.992046 148.632
15.9091 -1.0863301 148.567
14.9151 -1.39388 147.65199
15.8041 -1.27732 148.10699
15.7035 -1.4212101 147.62801
13.3695 -1.33357 147.517
13.3444 -1.53343 147.16701
14.0704 -1.45348 147.362
13.9742 -1.6012 147.021
14.7887 -1.5275 147.21201
14.5939 -1.6440901 146.827
15.5752 -1.51367 147.153
15.3617 -1.57858 146.592
16.600599 -1.22479 148.187
16.533001 -1.34305 147.73
17.4258 -1.08233 148.31599
17.389 -1.1835999 147.905
16.667999 -1.05426 148.618
17.481701 -0.92688799 148.7
18.2582 -0.887936 148.42799
19.0585 -0.64441103 148.554
19.1854 -0.69444197 148.27499
18.3071 -0.75126898 148.74001
18.909 -0.60398698 148.74699
18.263201 -0.970079 148.086
16.453501 -1.3979599 147.26401
16.406099 -1.37222 146.817
17.3659 -1.2167701 147.485
17.3521 -1.1786799 147.092
18.281799 -0.99763101 147.726
19.255199 -0.72641498 147.959
19.221001 -0.74154902 147.629
18.282 -0.97596699 147.379
20.3319 -0.39953199 148.173
20.2076 -0.46807301 147.802
20.1623 -0.35235199 148.491
13.4882 -2.02384 146.21201
13.3668 -1.88518 146.52
13.7358 -1.84721 146.51401
13.6719 -2.1221199 145.86501
13.9379 -1.90952 146.30701
14.189 -1.95164 145.978
13.8632 -2.1665299 145.44901
13.9699 -2.1860001 144.98801
14.4073 -1.91283 145.556
14.4853 -1.7778 144.944
13.3315 -1.71878 146.834
13.8501 -1.7401299 146.72099
14.3027 -1.7754101 146.515
14.6875 -1.77161 146.198
14.9526 -1.66835 145.785
15.0765 -1.4426 145.321
15.6058 -1.44687 146.09399
15.698 -1.21056 145.686
16.4314 -1.24746 146.42
16.4723 -1.03154 146.07201
17.345501 -1.07198 146.754
17.346701 -0.90009397 146.46201
18.234301 -0.91349798 147.07401
19.0324 -0.74416602 147.302
18.7952 -0.73064297 147.05
18.194799 -0.80306798 146.815
13.9507 -2.2133801 144.618
14.1141 -1.9762599 144.367
14.19 -1.59199 143.94701
14.5988 -1.3405 144.425
14.5515 -0.87985498 143.98399
14.1604 -1.12228 143.47099
13.9824 0.52041298 142.118
14.4331 0.73043501 142.83099
14.0305 -0.038904998 142.561
14.4598 0.18883701 143.23399
18.2495 -0.63638198 146.591
17.371099 -0.67074102 146.194
18.419399 -0.42586499 146.38901
17.460501 -0.39934 145.948
19.0492 -0.60384101 146.97099
19.378401 -0.42541999 146.83299
15.0856 -1.09566 144.86501
15.0494 -0.65722901 144.467
15.707 -0.88403898 145.30099
15.7049 -0.485825 144.95799
16.489 -0.74425602 145.754
16.5298 -0.40420601 145.463
14.0961 -0.595357 143.008
14.4986 -0.359727 143.60201
15.0462 -0.15657701 144.13699
15.062 0.37533301 143.80099
15.7729 -0.036490001 144.661
16.0487 0.50973302 144.33701
19.7383 -0.54492402 147.383
20.339399 -0.354395 147.32201
15.0558 0.89787501 143.403
15.8967 1.03909 143.78
15.4071 -0.768565 149.049
15.5994 -0.52238899 149.41701
16.1677 -0.57704997 149.39101
14.9462 -0.566926 149.255
15.2285 -0.450683 149.465
16.0369 -0.855474 148.989
16.930099 -0.22958501 149.791
17.721001 -0.152311 149.757
17.639999 -0.47545201 149.39999
17.028999 0.19388901 150.205
17.802299 0.26330101 150.145
16.2798 -0.237298 149.804
16.384199 0.174721 150.231
16.8374 -0.56925601 149.39799
15.7105 -0.213204 149.802
15.7965 0.175201 150.218
15.2111 -0.20851 149.752
15.248 0.16755401 150.161
14.7915 0.59513998 150.509
15.3386 0.61306202 150.58501
14.9045 1.07494 150.914
15.4609 1.10019 150.97701
14.2095 0.60434699 150.418
14.3113 1.0714099 150.827
14.7229 0.147937 150.065
14.1565 0.15756699 149.959
15.9043 0.63264102 150.638
16.4991 0.654688 150.65401
16.0303 1.13193 151.021
16.623301 1.1706001 151.035
17.138201 0.69384402 150.625
17.890301 0.76613301 150.556
17.254601 1.22339 151.006
17.986401 1.29548 150.936
15.0337 1.5693901 151.252
14.4318 1.548 151.16299
15.594 1.60387 151.30701
15.156 2.0545101 151.507
15.7181 2.0973201 151.556
14.7407 -0.25040501 149.619
14.1895 -0.26572999 149.472
16.7479 -0.83878499 149.015
17.556801 -0.727377 149.05499
18.4366 -0.55534798 149.04201
18.5791 -0.30508301 149.35201
19.5159 -0.131813 149.231
19.222099 -0.40588999 148.94501
18.6719 -0.000359 149.68401
19.656401 0.16562 149.554
18.7314 0.38927799 150.05299
19.701599 0.526806 149.91701
18.7871 0.871984 150.455
19.733299 0.97923702 150.31599
18.8517 1.38208 150.83099
19.7768 1.46049 150.688
21.9674 0.479577 149.09
21.308201 0.37282601 149.181
21.3064 0.68724102 149.55299
22.517099 0.672086 149.164
21.902599 0.73514098 149.414
22.303499 0.79052198 149.36
20.540701 0.28557801 149.366
20.574699 0.627442 149.73801
20.326401 -0.020878 149.034
17.370399 1.73487 151.30299
18.086901 1.79268 151.23199
17.476101 2.2186799 151.513
18.181601 2.2586601 151.44099
16.746099 1.68559 151.338
16.857599 2.1807599 151.55499
22.0012 1.09097 149.76401
22.524599 1.06397 149.597
22.179199 1.50581 150.103
22.8081 1.4703799 149.916
21.364599 1.08679 149.944
21.4666 1.52131 150.304
22.987301 1.00111 149.41701
23.3881 1.4255199 149.744
20.607901 1.05321 150.138
20.663 1.50827 150.506
20.719299 1.93206 150.78999
19.828899 1.90589 150.97501
19.886299 2.3361199 151.18401
21.560699 1.93476 150.584
20.777901 2.3528099 151.002
21.645599 2.3568101 150.799
22.339899 1.92188 150.37801
23.047001 1.89925 150.189
22.4725 2.3563499 150.595
23.2332 2.3508699 150.40601
23.697901 1.87297 150.02299
23.928301 2.3396399 150.237
16.1598 1.64285 151.33701
16.278601 2.1403601 151.57001
19.7925 -0.342922 148.756
18.925301 1.8548599 151.123
18.999901 2.3015201 151.332
13.5041 -0.181905 149.39999
13.4964 0.22919001 149.87399
13.5441 0.65775102 150.31799
13.6338 1.09767 150.71201
13.7411 1.5425299 151.03799
27.3745 2.7999201 149.66
27.5425 3.2940099 149.72701
27.629299 3.7994699 149.771
27.659 4.3245702 149.797
27.6546 4.86939 149.802
17.536699 0.56406802 144.84599
16.9827 0.30254 144.992
18.354 0.20257001 145.554
17.1026 0.82445902 144.383
18.494699 0.807096 144.756
18.364401 1.07749 144.366
18.451599 0.48398799 145.20399
18.779699 0.66498601 145.028
20.476 0.164924 146.09801
19.415199 0.007522 146.12199
20.3374 -0.099620998 146.57001
20.0082 0.368835 145.70399
21.683599 0.28277901 146.08
21.4967 0.51324397 145.726
21.082199 0.017498 146.48
21.9692 0.115429 146.401
19.8675 0.59570801 145.358
21.446899 0.78016597 145.35001
21.4995 1.08076 144.96201
19.914301 0.83656597 145.037
19.941401 1.10342 144.688
19.988001 1.4019099 144.327
21.5952 1.41071 144.578
21.699301 1.73875 144.231
23.081699 1.65516 144.39
24.3533 1.85729 144.142
24.431499 2.257 143.79201
22.9373 1.27254 144.804
24.177401 1.42231 144.58
23.191099 2.0146799 144.04401
22.8235 0.91767001 145.245
24.026699 1.0200599 145.054
22.7805 0.615242 145.658
23.9496 0.68954802 145.493
22.8234 0.37526 146.007
23.9491 0.44308901 145.856
22.942301 0.204448 146.30901
24.010599 0.268534 146.17999
21.683599 -0.049614001 146.79401
22.358101 -0.050944999 147.021
22.5795 -0.002872 146.85899
21.2064 -0.130475 146.96001
22.1143 -0.098352998 147.26401
22.297501 0.027578 146.674
23.104601 0.098453 146.59599
23.221201 0.032662001 146.875
24.2026 0.071538001 146.87801
24.1068 0.147157 146.52
23.0562 0.013413 147.808
21.8729 -0.125751 147.552
23.1513 -0.025358999 147.467
24.3487 0.192046 147.97501
24.3204 0.080553003 147.604
23.2194 -0.013038 147.158
24.273001 0.044915002 147.24001
25.2311 1.1313601 144.79601
25.1628 0.76236802 145.243
25.3752 1.5782501 144.32001
25.1567 0.486873 145.631
25.1926 0.291796 146.007
25.255699 0.160308 146.42
25.3459 0.096724004 146.862
25.465401 0.113615 147.30299
25.601999 0.218917 147.726
25.7388 0.413609 148.12601
25.5488 2.0671899 143.871
25.540001 2.5253501 143.51601
16.672001 -0.035828002 145.203
17.694099 -0.10929 145.73199
20.7992 -0.2216 147.155
19.781601 -0.249405 146.689
18.750999 -0.198535 146.22099
15.2577 2.51333 151.67799
15.8216 2.5641999 151.716
15.3391 2.9486799 151.78
15.9067 3.0108099 151.80701
15.4092 3.3754799 151.83701
15.983 3.45594 151.853
15.4788 3.8127601 151.86501
16.060499 3.9207301 151.871
15.5329 4.2631502 151.87199
16.1264 4.42172 151.87
15.4795 4.6633401 151.86301
16.078501 5.0385098 151.834
24.1112 2.8491499 150.41701
23.387699 2.8559999 150.59399
23.517 3.4149799 150.75
24.260401 3.40323 150.562
22.594101 2.8507299 150.783
22.7033 3.40732 150.939
21.7351 2.8381 150.981
21.823 3.38569 151.13
20.8444 2.82342 151.174
20.9111 3.35726 151.31
19.9457 2.8004301 151.34599
20.002399 3.31991 151.468
16.3792 2.61338 151.72
16.953501 2.6558599 151.696
16.465599 3.07341 151.804
17.040001 3.1298599 151.78
16.5474 3.54248 151.845
17.127199 3.6268301 151.82401
16.6334 4.0408201 151.858
17.2223 4.1616902 151.83501
16.719 4.5857801 151.84801
16.792801 5.1947699 151.799
17.407801 5.3522902 151.74699
17.322399 4.7391 151.813
16.8501 5.8681302 151.69099
17.459999 5.9923401 151.625
16.250601 5.7918801 151.733
24.4806 5.1897898 150.649
24.452999 4.59373 150.688
23.6779 4.6273298 150.879
24.453501 5.7445998 150.56
23.690001 5.2360201 150.828
23.6537 5.8002901 150.72501
22.789101 4.0076799 151.041
21.894199 3.9830999 151.22501
21.9373 4.6107502 151.239
23.6173 4.0116801 150.85201
22.8386 4.6312299 151.062
24.3766 3.9902501 150.658
20.9669 3.9452801 151.395
20.0543 3.8961699 151.543
20.104099 4.5204301 151.549
21.0075 4.5731001 151.403
17.5676 2.69016 151.653
18.264601 2.7244699 151.58501
17.6534 3.1766701 151.742
18.343399 3.2217801 151.683
17.7449 3.7023001 151.79401
18.429199 3.77108 151.744
17.847 4.2726402 151.804
18.5256 4.36973 151.75301
17.9529 4.8774099 151.765
18.624599 4.9960399 151.69701
18.039301 5.49296 151.677
18.7013 5.61303 151.58701
19.068501 2.7642901 151.48399
19.1332 3.2718501 151.593
19.2001 3.8366499 151.661
19.273899 4.4525199 151.668
19.349501 5.0936198 151.60001
20.150101 5.1666498 151.47501
19.4044 5.7136102 151.478
20.176901 5.7851501 151.34599
21.0303 5.21383 151.325
21.946699 5.2406301 151.16299
21.0303 5.8211198 151.19299
21.9252 5.8314099 151.034
24.3748 6.23523 150.446
23.5777 6.2962899 150.59801
22.8438 5.2504802 150.99699
22.809099 5.8262901 150.879
22.745399 6.3343801 150.743
21.8804 6.35637 150.88901
18.0849 6.1033902 151.53999
18.733801 6.1985302 151.439
19.4191 6.28234 151.32201
20.1716 6.3411598 151.188
21.005199 6.3628802 151.041
15.4088 9.2386103 150.22
15.4415 8.5934601 150.701
16.1078 9.0721598 150.26401
15.233 9.9341898 149.53
15.9117 9.8416996 149.506
14.714 9.4286804 150.15601
14.5728 10.0338 149.545
16.1042 10.8625 146.839
15.4047 10.9698 146.87199
16.239799 10.7169 147.64
15.5379 10.8221 147.679
16.844601 10.7261 146.886
16.9702 10.5736 147.66299
17.619301 10.5577 147.009
18.4188 10.3647 147.19701
18.4853 10.1929 147.879
17.5448 10.579 146.388
18.377399 10.4033 146.629
17.7213 10.395 147.745
14.7514 11.0512 146.981
14.1491 11.1007 147.157
14.8734 10.8904 147.774
14.2571 10.9232 147.914
16.3981 10.3479 148.564
15.709 10.4458 148.60001
16.5734 9.7483797 149.48199
17.1008 10.214 148.57001
17.2271 9.6399002 149.47301
17.816401 10.0455 148.617
17.894699 9.5047903 149.483
18.5418 9.8523102 148.69501
18.5807 9.3439999 149.50301
15.039 10.513 148.67
14.407 10.5605 148.756
16.7444 8.9711905 150.256
17.341999 8.90133 150.22
14.0584 9.6231203 150.095
13.9472 10.1516 149.53999
13.8153 10.6067 148.834
13.6909 10.9317 148.077
13.5988 11.1182 147.381
17.9589 8.8160601 150.187
18.6105 8.7085304 150.15199
19.2899 9.6430397 148.78799
19.276699 9.9738598 148.05
20.1539 9.7259197 148.239
19.2941 9.16504 149.519
20.1087 9.4153404 148.886
20.0704 8.97614 149.52499
19.2999 8.5820704 150.10699
20.052601 8.4486904 150.049
19.257601 10.1504 147.429
20.200399 9.8998098 147.686
19.2607 10.2067 146.918
20.2649 9.9720297 147.226
23.813601 7.8435502 149.71001
24.491301 7.7813201 149.58701
23.463699 8.20753 149.47701
24.031799 8.2216501 149.29601
23.155399 7.9166799 149.80701
23.068001 8.1709805 149.617
21.021299 9.1613102 148.985
21.1532 9.43083 148.44099
22.2234 9.0760403 148.683
20.920601 8.7806797 149.524
21.965799 8.8730497 149.108
21.779699 8.5715399 149.535
20.872999 8.3170404 149.98399
21.7012 8.1803904 149.92101
22.466299 8.0363102 149.87
22.5501 8.34869 149.573
21.293699 9.58986 147.963
21.442499 9.6741104 147.547
22.756701 9.2883501 147.925
22.498301 9.1996899 148.29401
22.827499 8.55159 149.27299
23.241899 8.6641197 148.979
23.706699 8.7224302 148.696
24.683901 8.1939697 149.112
24.1297 8.7978201 148.384
25.233101 7.6822801 149.461
17.6096 10.2898 144.62601
17.5516 10.4184 145.22301
18.548599 10.1514 145.026
18.452801 10.2704 145.571
17.7561 10.0787 143.985
18.691799 9.9642 144.41499
19.5646 10.0327 145.502
19.417999 10.1287 145.99001
20.790199 9.9024401 145.985
20.544001 9.9629602 146.407
19.7099 9.8816204 144.927
21.211901 9.7739096 145.45599
17.525499 10.5179 145.802
18.3913 10.3583 146.09801
19.313801 10.1892 146.451
20.372601 9.98668 146.812
25.473 9.41537 146.517
26.603201 9.2219601 146.784
26.481501 9.0798998 147.233
25.443501 9.47157 146.127
26.6534 9.3383904 146.29401
24.395201 9.5528202 146.216
24.608801 9.5488997 146.015
25.3423 9.3385401 146.888
24.114901 9.5402699 146.507
22.2484 9.7307796 146.42101
21.883499 9.7420397 146.78799
23.730301 9.51052 146.83099
23.321501 9.45751 147.181
22.7257 9.69032 146.091
25.057699 9.2418003 147.252
24.7195 9.1129398 147.623
26.281601 8.9158602 147.645
26.0592 8.7128201 148.03999
21.6229 9.7219496 147.161
23.007 9.3771601 147.55099
24.436399 8.9455605 148.013
25.865101 8.4548302 148.44
23.341801 9.6303902 145.84599
24.163799 9.5655003 145.71001
22.5194 9.6310501 145.36501
23.738899 9.5338802 145.248
25.287901 9.4972 145.692
26.6593 9.4104204 145.765
25.1182 9.4692602 145.17999
26.6276 9.4097099 145.183
27.256901 7.9458899 148.71001
27.375401 8.2634697 148.343
27.512199 8.5281296 147.953
27.657301 8.7602196 147.521
27.802099 8.9748201 147.02901
27.9519 9.1584101 146.487
28.1082 9.2824802 145.89999
28.186399 9.3138599 145.24699
24.832199 7.18365 142.28999
23.6005 7.41432 142.342
23.4809 6.8831401 142.214
24.9109 7.7364602 142.48801
23.6563 7.8937101 142.55901
26.1084 6.9988399 142.244
26.2318 7.6024399 142.416
24.705099 6.5591002 142.192
25.9321 6.3028698 142.175
24.516199 5.9014101 142.196
25.68 5.5515499 142.21899
23.3283 6.3228898 142.174
22.090799 6.8435898 142.16299
20.997101 7.4749899 142.22701
22.311199 7.30023 142.259
21.350599 7.7799802 142.369
22.5014 7.7105398 142.411
21.6576 8.0507202 142.53101
22.5795 8.0818596 142.62199
21.900499 8.2264099 142.664
21.110201 8.4061604 142.729
20.7307 8.2559099 142.564
20.7337 8.7407598 142.976
20.455299 8.5921898 142.767
21.638 8.4959898 142.864
21.3466 8.8324499 143.18201
20.2897 8.1596403 142.44
19.680901 8.1634998 142.33299
20.078699 8.7262297 142.808
19.365299 9.0432501 142.97501
18.9282 8.26474 142.186
18.1287 8.4197702 141.955
18.4685 9.1005201 142.68401
17.6966 9.1966496 142.397
18.055799 9.7060499 143.314
18.9167 9.64641 143.72099
17.243 9.7849302 142.92999
24.942101 8.2107296 142.77
26.312 8.1056805 142.673
26.368601 8.5201302 143.011
23.628901 8.3257504 142.854
24.9482 8.6098204 143.121
23.5618 8.7052097 143.216
22.4853 8.4479799 142.89999
22.316601 8.8019896 143.257
20.379101 9.0430002 143.248
20.0494 9.3484097 143.64999
21.1122 9.1459303 143.584
20.9527 9.4148302 144.084
19.8379 9.6479702 144.258
20.9116 9.62815 144.687
22.1877 9.1133003 143.69501
22.119801 9.3620195 144.211
23.510401 9.0223503 143.64101
23.4916 9.2676001 144.13901
22.1577 9.5385799 144.791
23.5357 9.4363899 144.69901
24.955601 8.9383402 143.537
24.9751 9.1930799 144.034
26.422501 8.8604603 143.433
26.4874 9.1279097 143.952
25.019199 9.3697205 144.604
26.5627 9.3148603 144.55701
27.3862 6.8242798 142.19901
27.5495 7.4628701 142.347
27.166 6.0770001 142.158
27.6654 7.9890299 142.584
27.754601 8.4172401 142.911
26.8846 5.2604098 142.239
27.844101 8.7651901 143.34
27.9597 9.0388098 143.88699
28.106501 9.2293901 144.54601
14.2177 4.74088 151.8
14.8014 4.7891598 151.83099
14.2111 4.9890099 151.8
14.66 4.9546599 151.817
14.2718 5.23527 151.8
14.8356 5.1117902 151.817
14.3521 5.5781798 151.79601
14.9917 5.4317298 151.802
14.3943 6.0708799 151.774
15.0579 5.92414 151.757
15.2407 4.9405198 151.842
15.534 5.27599 151.81799
15.6616 5.8196802 151.75
15.6966 6.4735098 151.621
15.7004 7.1354399 151.42101
15.5752 7.7269502 151.188
15.2326 8.1729603 150.989
17.3333 8.5700998 141.595
16.9468 9.2705297 141.965
16.2493 9.2812595 141.39799
16.578699 8.6427898 141.078
15.8649 8.6205196 140.405
16.0471 7.9423299 140.151
15.5891 9.2398996 140.741
15.2438 9.72756 141.187
14.8781 10.0861 141.661
15.8763 9.7706203 141.817
15.4848 10.1178 142.254
14.5423 10.3522 142.067
14.2641 10.5548 142.39101
15.0964 10.3654 142.61301
14.7524 10.5472 142.87801
16.5208 9.8043404 142.41701
16.0494 10.175 142.84801
15.5391 10.4258 143.14799
15.0752 10.5983 143.332
14.0493 10.7151 142.659
13.904 10.8461 142.91901
14.4727 10.6877 143.06
14.2709 10.783 143.151
13.8224 10.9588 143.226
14.3073 10.8421 143.39799
14.2917 10.9329 143.73801
13.7594 11.0634 143.59801
14.6913 10.7294 143.427
14.757 10.8147 143.804
14.7079 10.9202 144.22
14.2174 11.0325 144.121
14.5413 11.0285 144.63901
14.0975 11.1229 144.506
14.2606 11.1264 144.99699
13.9388 11.1931 144.847
13.8995 11.2144 145.27699
13.792 11.237 145.084
13.6842 11.1592 144.015
13.5996 11.2366 144.436
13.5142 11.2884 144.82001
13.461 11.3102 145.166
13.4652 11.3034 145.506
16.091 6.0093398 139.59
16.1471 6.6429601 139.72501
15.9244 5.3818402 139.54401
15.6258 4.77002 139.60201
15.2619 4.1793399 139.75
14.9128 3.61288 139.96899
14.5965 3.07321 140.237
14.3159 2.5592699 140.54401
16.1346 7.2810898 139.923
16.991301 1.19247 143.948
17.042999 1.59468 143.57401
18.398701 1.4074301 143.996
18.5002 1.7519701 143.677
17.1507 1.98769 143.246
17.285 2.36325 142.959
18.624599 2.0933101 143.39999
18.762899 2.4284599 143.155
20.0907 1.70883 144.005
20.205601 2.0016401 143.73801
21.788401 2.0306301 143.94901
21.8381 2.2730701 143.733
20.322901 2.2818201 143.50999
20.462099 2.5689299 143.30099
21.9 2.4862399 143.558
22.0541 2.72386 143.38
23.201799 2.3030901 143.78999
23.079599 2.5041101 143.62601
24.294701 2.5592699 143.56
23.910999 2.7425399 143.44
22.869499 2.61026 143.53999
23.213699 2.7978899 143.401
17.4396 2.7246699 142.709
18.923599 2.76595 142.93401
20.6306 2.8861401 143.093
22.2617 3.0280001 143.179
23.5504 3.10321 143.2
24.485901 3.0569 143.21899
25.1653 2.8663099 143.30499
31.2617 3.19245 142.71001
32.454601 3.13427 142.662
32.637299 3.5280001 142.446
31.035999 2.7474899 143.002
32.333698 2.71328 142.927
30.026899 3.28426 142.748
29.708 2.7918701 143.07401
31.6504 3.63219 142.466
30.6304 3.9684701 142.42
33.6577 3.11725 142.617
33.742298 3.5072501 142.405
34.8699 3.11098 142.576
34.924 3.52107 142.358
33.585098 2.69119 142.87399
34.803501 2.66466 142.836
32.445301 4.5879998 149.21201
32.4636 3.9793701 149.267
31.156401 4.1022401 149.35201
33.665798 4.3898001 149.164
33.675301 3.8241401 149.209
32.476299 5.2754998 149.088
33.7019 5.0268602 149.054
31.113701 4.7404399 149.299
30.8675 5.6241498 149.175
32.481701 3.46645 149.271
31.1667 3.56882 149.358
32.4856 2.99331 149.23599
31.149799 3.07341 149.32401
33.698002 3.33761 149.205
33.713799 2.89294 149.168
32.438 2.4924099 149.155
31.0382 2.5447099 149.242
32.321499 1.93177 148.98399
30.5093 1.85922 149.022
33.705799 2.4342201 149.09
33.650398 1.91318 148.93401
34.713299 4.1893201 149.133
34.728401 3.6393099 149.16299
35.619202 3.9837601 149.09599
35.6399 3.43329 149.11
34.729599 4.7961402 149.04401
35.622101 4.5707102 149.035
34.753799 3.1661601 149.14999
34.774799 2.7418101 149.103
35.674999 2.9583199 149.08299
35.707199 2.5392799 149.021
34.776199 2.3112199 149.01601
35.716202 2.1226599 148.916
35.682598 1.64579 148.741
34.738201 1.81367 148.856
30.561701 0.45258099 144.80701
29.1455 0.496261 144.96899
29.176701 0.215352 145.49699
30.554899 0.85707998 144.36099
29.1364 0.87615901 144.534
31.9601 0.39450899 144.674
31.9552 0.81699997 144.22099
30.625601 0.14120799 145.36
32.049801 0.058502 145.24001
30.6014 1.3391401 143.98801
29.1628 1.34009 144.155
30.7024 1.83952 143.64999
29.260099 1.83751 143.79401
32.016399 1.31252 143.847
32.115398 1.81902 143.52
30.8538 2.3065801 143.321
32.225201 2.2824399 143.216
29.4508 2.32214 143.429
32.136902 1.33173 148.673
30.5334 1.2212 148.62399
31.836 0.74766898 148.19
30.2215 0.71007401 148.14101
33.5173 1.31767 148.645
33.268799 0.69992101 148.16701
34.6348 1.22603 148.56799
34.434101 0.60616201 148.093
35.589401 1.08355 148.448
35.4212 0.495307 147.98199
33.2873 0.33557001 144.573
34.557701 0.28264001 144.49899
34.545799 0.70644099 144.058
33.375599 -0.0098970002 145.142
34.6236 -0.058063 145.067
33.278999 0.76454401 144.12399
30.7663 -0.050861999 146.03
29.254499 0.051897001 146.129
29.453899 0.067006998 146.827
32.236099 -0.16075701 145.92999
31.0313 -0.03255 146.78
32.5312 -0.15084399 146.707
31.4249 0.25605899 147.535
29.809401 0.301018 147.52499
32.908901 0.16331901 147.492
33.552399 -0.241043 145.84
34.750599 -0.284235 145.769
33.816502 -0.241319 146.627
34.9445 -0.290784 146.552
34.1376 0.068324 147.41701
35.187599 -0.0070179999 147.326
33.331699 1.26527 143.758
33.416302 1.77835 143.442
34.577 1.20024 143.705
34.6409 1.71395 143.401
33.505299 2.2509799 143.151
34.722599 2.2019701 143.114
29.9058 6.8368101 148.91701
31.239799 6.3208699 148.927
30.007401 7.2764502 148.64799
31.319099 6.8524899 148.68201
28.5944 7.4098601 148.84801
28.689699 7.7735701 148.535
29.608801 6.4092398 149.151
28.4561 7.0237598 149.116
32.578701 5.96418 148.888
33.791302 5.6965599 148.86
32.592098 6.5661702 148.63901
33.859402 6.3954101 148.54601
34.7896 5.4133 148.886
35.6516 5.1359801 148.91901
34.896702 5.9604201 148.668
35.705002 5.6416001 148.743
35.032001 6.3763399 148.41299
35.777401 6.0728302 148.506
35.145401 6.7065701 148.12801
35.863998 6.4411602 148.224
34.3512 6.70892 148.267
34.5173 6.9654899 148.00101
33.790901 7.0365901 148.077
34.026402 7.2144499 147.84399
33.3424 7.3334599 147.87199
33.6348 7.4568 147.661
33.2822 6.9493899 148.261
32.863998 7.2899098 148.026
32.9547 7.6040001 147.66901
32.539501 7.5819101 147.798
32.344898 7.7892199 147.61301
33.267101 7.6992202 147.452
32.563099 7.8580899 147.455
32.8591 7.9484501 147.20799
32.402199 7.02847 148.37399
32.1408 7.3870802 148.09801
31.2735 7.2764502 148.39999
31.1915 7.6318498 148.071
30.042999 7.6528702 148.33
30.0784 7.9877801 147.948
28.774799 8.0937099 148.177
28.875999 8.3861198 147.757
30.1598 8.30404 147.49899
29.0131 8.6653404 147.26601
29.202299 8.9062796 146.72301
31.160299 7.95684 147.69299
30.317101 8.5750999 147.006
31.2327 8.2306995 147.28799
30.579 8.7603197 146.506
31.432199 8.4175501 146.892
31.0194 8.8293695 146.061
31.759399 8.5105495 146.535
29.464199 9.0710001 146.142
29.910601 9.1138096 145.408
31.9557 7.6999798 147.804
31.9235 7.95189 147.504
32.0784 8.11656 147.20799
32.363899 8.2139196 146.911
29.940399 6.49087 142.123
30.127399 7.1599498 142.254
28.848 7.3127398 142.29201
31.1952 6.3537402 142.092
31.368999 7.01442 142.22701
29.6961 5.7114401 142.11301
30.9657 5.6088099 142.077
28.662399 6.6521502 142.158
28.4196 5.8752298 142.138
29.410999 4.8552899 142.24001
30.719 4.8108201 142.192
29.0886 4.0451398 142.472
28.127701 5.0244899 142.24899
27.805599 4.2207198 142.468
32.392899 6.2561498 142.063
33.510399 6.2129202 142.045
33.654999 6.8070898 142.202
32.188301 5.5816698 142.02901
33.332901 5.61759 141.981
32.549198 6.8901401 142.207
31.985201 4.9162002 142.105
33.163898 5.0831099 142.011
31.963301 4.3614702 142.22099
33.065899 4.6384201 142.091
32.655998 7.4491701 142.435
32.736 7.9177999 142.729
31.5858 8.0437498 142.757
33.752102 7.34236 142.429
33.823299 7.8027601 142.715
31.491899 7.5806198 142.45399
34.258801 5.2294898 141.94
34.387798 5.6890101 141.95
35.2883 5.3441401 141.89999
35.369999 5.7648602 141.942
34.1544 4.8329301 141.99001
35.226799 4.9692898 141.924
34.541901 6.2237201 142.047
35.506802 6.2585702 142.067
35.658199 6.7656298 142.25301
34.685501 6.7730899 142.218
30.4734 8.5232601 143.196
30.6175 8.7817297 143.729
29.343201 8.9192305 143.817
31.679501 8.3994799 143.138
31.7997 8.6505699 143.62801
30.366899 8.1729803 142.78799
29.1952 8.6496601 143.261
29.086901 8.2993898 142.836
30.8382 8.94349 144.396
29.559299 9.1002302 144.50999
31.182301 8.9535599 145.11301
31.979099 8.7940197 144.23399
32.314899 8.7882404 144.95599
34.786701 7.2692399 142.44501
34.858398 7.7021499 142.72501
35.771301 7.2167101 142.479
35.847599 7.6097598 142.75
34.924999 8.0702801 143.061
33.896702 8.1803904 143.06
34.988602 8.3305702 143.44701
33.979599 8.4415703 143.47099
35.905899 7.9519901 143.07401
35.948601 8.20222 143.438
32.817699 8.2869301 143.089
32.917198 8.5415001 143.534
35.048599 8.4516897 143.87801
34.075901 8.5648098 143.94299
35.118801 8.4668798 144.345
34.2029 8.5784597 144.43201
35.9776 8.3257704 143.83701
36.011299 8.3495398 144.291
33.052799 8.6722403 144.067
33.273899 8.6863604 144.601
33.520401 7.79742 147.207
33.818199 7.5939102 147.424
33.7575 7.86447 146.998
33.918098 7.69839 147.23
33.1591 8.0276003 146.93401
33.4566 8.08605 146.685
35.216801 7.01754 147.80299
35.249699 7.3292699 147.427
36.025398 7.0967698 147.563
34.590199 7.2346601 147.688
34.6021 7.51825 147.313
35.954201 6.7727299 147.912
34.139801 7.4176402 147.57201
34.159801 7.6373601 147.25101
32.700901 8.2700996 146.623
33.042 8.3027802 146.37199
32.1805 8.5278597 146.243
32.6138 8.5089197 146.026
31.6521 8.7860003 145.74699
32.307598 8.6935101 145.591
32.286098 4.01614 142.28999
33.108299 4.2968502 142.16499
32.936001 3.86533 142.295
33.261002 4.0941701 142.20599
34.059101 7.8779802 146.875
34.5387 7.809 146.868
33.786999 8.12041 146.489
34.314098 8.1287699 146.298
33.862999 3.84094 142.255
33.987598 4.14645 142.14999
34.9786 3.88308 142.19501
35.050301 4.2301102 142.078
34.0732 4.4716601 142.06599
35.1427 4.5956998 141.98801
32.833302 8.6068897 145.57401
33.006699 8.6580696 145.261
33.330002 8.5765104 145.422
32.994202 8.4865303 145.886
33.276798 8.52845 145.62
33.267601 8.4699802 145.811
33.368999 8.3267002 146.16701
33.639198 8.3644199 145.959
35.241199 7.6429901 146.987
36.0639 7.4268999 147.157
35.228802 7.9326501 146.48
36.0844 7.7423801 146.659
33.566299 8.6178703 145.03101
34.3536 8.52635 144.901
34.458302 8.4332104 145.349
33.769402 8.5234299 145.373
33.7855 8.4342098 145.687
34.450699 8.3089199 145.79401
35.2005 8.4220104 144.845
35.255402 8.3234501 145.37601
36.058601 8.3101397 144.82201
36.0961 8.2016602 145.425
35.25 8.1624002 145.92999
36.1003 8.0092201 146.062
28.720699 3.3875501 142.771
28.364401 2.8387101 143.12399
27.442699 3.5518701 142.761
26.8339 2.8857701 143.188
29.042299 6.1018801 149.35699
28.2313 6.6641002 149.336
28.3118 5.9319 149.54401
27.8626 6.3979502 149.517
29.577999 5.4647698 149.39301
28.5439 5.39957 149.584
28.369801 1.68259 149.09
27.6366 1.8456399 149.265
28.118401 2.2678499 149.407
27.3013 1.3298301 148.95
27.1686 1.54992 149.136
28.827999 1.3782099 148.83701
27.3493 1.01132 148.659
29.2152 2.13047 149.246
29.8085 4.8045998 149.438
28.6436 4.8289299 149.61
29.8577 4.1951699 149.468
28.672899 4.26547 149.617
29.8582 3.66153 149.468
28.6602 3.74053 149.605
29.8158 3.1594801 149.437
28.593201 3.23944 149.57201
29.663601 2.6424501 149.366
28.431 2.7428601 149.50999
27.7705 0.51488799 145.158
27.764799 0.86703199 144.731
26.443501 0.827227 144.96899
27.7861 0.26165 145.647
26.441999 0.51019597 145.382
26.4613 0.284915 145.81799
27.7887 1.30879 144.328
27.888201 1.80319 143.925
26.602501 1.71777 144.08701
26.485901 1.2376601 144.536
28.083799 2.3165901 143.51801
26.7787 2.24139 143.647
28.8521 0.97431701 148.481
27.235201 0.67869502 148.29601
28.577801 0.57415998 148.01801
27.018 0.390075 147.864
28.2379 0.26997 147.46001
26.7848 0.192929 147.37399
27.966299 0.110257 146.842
26.6029 0.11096 146.84599
27.828699 0.115531 146.21899
26.503201 0.146833 146.313
30.2623 7.7200999 142.478
28.9818 7.8582802 142.51801
52.465099 1.79243 141.567
52.147099 1.2312 141.246
51.087898 2.5134101 141.47099
50.7687 1.9510601 141.155
52.728401 2.3126199 141.993
51.343899 3.03652 141.89999
46.011101 4.1992898 141.23801
45.817799 3.6782 141.155
46.620701 3.5628901 141.09599
45.245701 4.2454 141.26401
45.083801 3.7341199 141.21201
46.1731 4.6721902 141.44
45.395 4.7250299 141.424
46.8521 4.0823002 141.222
47.032799 4.5487399 141.479
47.781898 3.8689101 141.22701
47.9748 4.3485699 141.55299
48.786301 3.54531 141.274
48.993999 4.04811 141.661
47.525101 3.3417799 141.04601
48.5093 3.00265 141.033
49.8675 3.0997901 141.36501
50.1008 3.6182401 141.784
49.565399 2.54391 141.076
43.525902 -0.43043101 146.679
43.410301 -0.231819 147.02
43.9473 -0.352386 147.05099
43.0163 -0.27607301 146.745
42.941898 -0.110484 147.039
43.570499 -0.55125898 146.30901
43.055099 -0.38890299 146.411
44.066799 -0.61992198 146.589
44.105499 -0.74006701 146.187
43.666901 -0.62050402 145.19299
43.657398 -0.64051598 145.556
44.178001 -0.803514 145.427
43.098701 -0.47592399 145.23801
43.101601 -0.490955 145.642
43.659302 -0.56779099 144.845
43.083801 -0.41328901 144.832
44.126499 -0.75432402 145.09801
44.0214 -0.684156 144.868
43.6693 -0.47939199 144.489
43.7173 -0.320669 144.101
42.967999 -0.027860999 143.92599
44.148201 -0.67118597 144.647
44.2855 -0.57775199 144.297
43.060699 -0.29319599 144.418
44.504902 -0.84478402 144.88499
44.815399 -0.83718503 144.52299
44.725601 -0.97185099 145.213
45.4813 -1.16558 144.841
44.728802 -0.88927501 146.41
45.530998 -1.22795 146.17799
45.5452 -1.28264 145.823
44.739799 -0.739694 146.79601
45.5532 -1.11812 146.54601
44.752399 -0.98002201 146.017
49.822399 -2.2397599 143.002
48.390499 -1.58693 143.011
48.152802 -1.84053 143.645
50.090401 -1.93133 142.399
48.6558 -1.25858 142.40401
49.578999 -2.4723699 143.634
49.326599 -2.61655 144.26801
48.908001 -2.59214 144.855
47.936001 -2.0046999 144.26401
47.6978 -2.06054 144.815
46.435398 -1.60528 145.94299
46.4179 -1.62392 145.646
47.352299 -1.99119 145.67999
47.091099 -1.8935 145.52499
46.5042 -1.54915 146.284
47.6049 -2.0474801 145.98
48.213001 -2.35184 145.33099
48.841599 -2.6041901 145.592
47.389801 -2.0013001 145.252
51.772099 0.639983 141.062
51.3815 0.040031001 141.02699
50.385101 1.35791 140.98599
49.979099 0.75109798 140.976
49.1833 1.95059 140.95
48.760201 1.34264 140.981
48.138401 2.4088099 140.957
47.7117 1.79925 141.02699
51.019901 -0.54168099 141.14799
50.690201 -1.07697 141.429
49.597099 0.156728 141.123
49.2528 -0.38981 141.422
50.380798 -1.5434099 141.85899
48.941601 -0.86170602 141.86099
36.0634 3.0855 142.53999
36.1147 3.53492 142.313
37.105598 3.0245199 142.515
37.409901 3.51232 142.269
36.016899 2.6058199 142.804
37.415298 2.45591 142.79401
38.1688 2.2737999 148.755
38.445999 1.8230799 148.605
37.492802 2.05616 148.76401
38.843498 2.18648 148.67999
39.564999 1.59542 148.416
37.945202 2.7299399 148.85699
38.4548 2.5560999 148.79401
37.353401 2.4916799 148.87399
37.230499 2.97348 148.94701
39.2631 2.3151 148.68401
39.566502 2.5323501 148.717
40.289398 2.0030999 148.53101
38.586201 2.8002601 148.823
38.805901 3.21279 148.849
40.023399 1.79906 148.47301
37.9049 3.1900101 148.911
37.189701 3.5021 148.979
37.213402 4.0508199 148.965
37.946602 3.6856401 148.92101
38.5984 1.40461 148.416
37.571602 1.64413 148.61099
38.6325 1.00343 148.174
37.574001 1.21536 148.395
39.676399 1.1382101 148.175
39.721802 0.78055602 147.91499
40.874199 1.3350101 148.209
41.044899 1.53987 148.299
41.766399 1.13825 148.05701
40.742699 1.1024899 148.08
41.676399 0.94598699 147.94501
41.617599 0.74225402 147.80099
40.718102 0.82182902 147.88499
41.616901 0.51046902 147.603
41.6525 0.276963 147.35201
40.7537 0.53007197 147.625
42.3111 0.26282799 147.394
42.2784 0.46125999 147.58701
42.666901 0.28565601 147.46201
42.376499 0.057610001 147.14799
42.808498 0.103573 147.29201
42.318401 0.62223798 147.72301
42.3909 0.781012 147.836
42.921001 0.43682 147.629
42.798801 0.33180001 147.52499
43.1614 0.039902002 147.30299
43.398899 0.077735998 147.40199
36.622799 1.8897099 148.78
36.599899 1.43542 148.586
36.591599 2.3027999 148.90601
36.524799 2.7295699 148.99001
36.461399 3.2124701 149.036
36.434101 3.76179 149.043
36.443802 4.3361101 149.005
38.612999 0.59792203 147.84599
39.735901 0.44134799 147.58
39.724201 0.13538 147.157
37.516998 0.75126803 148.08501
38.5616 0.21517199 147.412
37.419701 0.293769 147.64799
42.426498 -0.108999 146.86501
41.689602 0.075577997 147.056
42.456402 -0.233274 146.537
41.710999 -0.087768003 146.70399
40.783901 0.26477599 147.30499
40.794899 0.036382999 146.914
42.468399 -0.32221001 146.15199
41.709301 -0.21286701 146.287
42.4562 -0.366714 145.726
41.675701 -0.28304499 145.819
43.084099 -0.460482 146.03799
42.420101 -0.35397801 145.285
41.614201 -0.279919 145.33299
42.381302 -0.27987501 144.849
41.556702 -0.19818801 144.867
40.780499 -0.142068 146.45
39.6903 -0.106283 146.646
40.7332 -0.247651 145.92599
39.633801 -0.24979299 146.061
38.494301 -0.092485003 146.868
37.305099 -0.081808999 147.07001
38.422798 -0.270679 146.22701
37.200001 -0.29389599 146.379
40.660099 -0.25958499 145.37801
39.562801 -0.27064499 145.442
40.596199 -0.171258 144.86301
39.505699 -0.165819 144.864
38.3587 -0.28584099 145.539
38.315102 -0.14807899 144.899
37.080002 -0.119499 144.955
37.124401 -0.29624799 145.64
38.303398 0.107546 144.383
39.4921 0.044780999 144.394
39.533001 0.316863 144.03799
37.061199 0.17729899 144.405
38.329201 0.439726 143.995
37.066399 0.55514002 143.98801
42.3484 -0.147126 144.433
41.529598 -0.052193999 144.45799
42.260201 0.034228001 144.069
41.5201 0.117519 144.127
40.673 0.41797799 143.85001
40.611099 0.20998301 144.10201
39.6199 0.60907102 143.76601
40.750801 0.62307501 143.64799
39.722801 0.91030401 143.53799
41.471802 0.287846 143.87801
41.360901 0.43892199 143.72
40.577202 0.001136 144.43401
42.0266 0.25259599 143.793
41.581501 0.51351202 143.60001
42.386002 0.34448701 143.595
41.773201 0.68580198 143.40199
40.853901 0.83708799 143.45599
39.8232 1.21619 143.323
40.967999 1.07463 143.25301
39.9459 1.5055701 143.116
38.389198 0.81229901 143.69299
37.095402 0.98668897 143.661
38.469398 1.20564 143.437
37.148998 1.44788 143.37801
38.569099 1.6046 143.19299
38.757099 1.95351 142.97
37.235802 1.92335 143.104
35.923 -0.29886699 145.711
35.8484 -0.091145001 145.009
36.044701 -0.30494401 146.48
36.209801 -0.05652 147.218
36.381401 0.38717201 147.83701
36.518002 0.91688001 148.287
35.809898 0.23398399 144.444
35.801102 0.641599 144.01199
35.819901 1.11301 143.67
35.868599 1.61264 143.373
35.947399 2.1119001 143.08701
37.996101 4.177 148.884
38.613998 3.83078 148.86301
38.231201 4.4874601 148.812
38.5979 4.1492801 148.82899
37.287998 4.5742202 148.897
37.554001 5.0373902 148.75101
38.1768 5.3763099 148.511
38.4599 4.9773102 148.642
38.874001 5.3381701 148.40601
39.221401 4.9566102 148.51601
38.068501 5.71385 148.33299
38.5984 5.5932298 148.312
