# .PCD v.7 - Point Cloud Data file format
VERSION .7
FIELDS x y z
SIZE 4 4 4
TYPE F F F
COUNT 1 1 1
WIDTH 1717
HEIGHT 1
VIEWPOINT 0 0 0 1 0 0 0
POINTS 1717
DATA ascii
4.8463998 -11.5311 134.782
6.5327902 -11.1081 136.093
6.61449 -11.1663 136.64799
6.1606202 -11.2247 135.93401
6.26332 -11.2829 136.36501
6.3986902 -11.0704 135.35899
6.00179 -11.1921 135.33501
5.6423202 -11.3775 135.603
5.73806 -11.4296 135.94901
5.4759598 -11.3503 135.16901
-8.4151497 -3.9997101 131.431
-8.4295902 -3.6047499 131.343
-8.5676498 -3.85151 131.998
-8.34939 -3.89853 130.99001
-8.3539696 -3.5388899 130.76401
-8.3831196 -4.3424101 131.47099
-8.34517 -4.1491098 131.14301
-8.5293303 -4.2831998 131.99001
-8.4405603 -4.77495 132.008
-8.3278399 -4.7214499 131.47701
-8.3348999 -5.2746601 132.039
-8.2224703 -5.7410002 132.064
-8.3045797 -4.3785901 131.058
-8.2397699 -5.1844501 131.507
-8.2237501 -4.8382401 130.98399
-6.01967 2.3729999 125.661
-5.2718 2.9133301 125.688
-5.1888399 2.9258399 126.901
-6.1804399 2.50652 124.598
-5.4528198 3.02283 124.548
-6.7587199 1.84245 125.546
-6.9043698 1.98572 124.574
-5.9730701 2.3443899 126.776
-6.7101302 1.77926 126.531
-6.43434 2.76917 123.537
-5.7100501 3.2748201 123.43
-6.7423501 3.1094501 122.492
-6.0058298 3.6252201 122.342
-7.1472902 2.22277 123.588
-7.4597702 2.51969 122.6
-7.2938499 1.1698101 127.07
-7.8069401 0.547611 126.717
-7.9470901 0.60504401 125.912
-7.2520399 1.1367 127.903
-7.7132101 0.493186 127.519
-6.67102 1.76827 127.449
-6.6610098 1.75984 128.336
-7.3713498 1.2115901 126.224
-8.3928804 -5.8787098 132.741
-8.5072699 -5.4039102 132.739
-8.2614498 -6.3036499 132.705
-8.5953798 -4.9583702 132.75301
-8.6789904 -4.4907699 132.79601
-5.9320202 2.3877101 127.872
-5.1276698 3.04581 128.235
-4.7634001 3.4282999 129.78
-5.8919802 2.4239199 128.882
-4.9389701 3.7806699 123.287
-4.1620498 4.2772698 123.116
-3.9398 4.1283698 124.287
-5.2259002 4.0946398 122.164
-4.4449301 4.5303998 121.971
-4.69315 3.57531 124.438
-5.5198998 4.4604902 121.107
-6.2990198 3.9882901 121.317
-4.76228 4.8604298 120.899
-4.5111599 3.48703 125.616
-3.7779701 4.0627799 125.47
-3.6554799 4.11093 126.728
-4.3999 3.5223401 126.873
-4.30932 3.7068999 128.30901
-3.9175301 4.2028399 129.828
-3.53268 4.3202701 128.142
-3.2787499 4.7696099 129.819
-8.5246401 2.10201 121.762
-9.1788301 1.33429 121.829
-8.1772604 1.8425699 122.653
-8.8362303 1.10779 122.653
-7.8025799 2.8157101 121.651
-7.0598502 3.444 121.502
-3.2179201 5.0478401 131.42
-2.5905299 5.9281902 132.88499
-3.1249299 5.60149 132.99899
-2.62449 5.5032001 131.375
-2.0171499 6.22967 132.761
-3.7756801 4.58989 131.556
-2.31534 6.6549301 134.71899
-2.8638 6.4432602 134.91701
-2.0870299 7.1971898 136.269
-2.7488301 7.1090999 136.62399
-1.68513 6.7807498 134.278
-1.24386 7.2224202 135.82401
-8.4624796 -4.5380001 129.19501
-8.4454403 -4.7622399 129.036
-8.4943895 -4.5843 128.92799
-8.3592997 -5.0081201 129.271
-8.3878803 -5.0026498 129.12
-8.4214001 -4.4630499 129.44299
-8.29424 -5.0691199 129.504
-8.5353603 -4.3003302 128.976
-8.54177 -3.8601301 129.242
2.2809401 -11.7786 128.297
2.11009 -11.8113 127.802
1.17844 -11.8339 128.036
3.1601701 -11.6469 128.026
3.05024 -11.6763 127.61
2.45609 -11.7624 128.752
3.2729599 -11.6358 128.41901
1.40602 -11.8107 128.61099
1.6441 -11.799 129.13699
5.0232501 -10.9635 127.907
4.58673 -11.1696 127.901
4.64995 -11.1549 128.269
4.95999 -10.9928 127.508
4.5221801 -11.1963 127.507
5.0835299 -10.9451 128.272
3.95645 -11.4222 127.909
3.88118 -11.4484 127.521
4.0328398 -11.4116 128.278
-0.92465597 -11.9427 121.981
-0.90781498 -11.9236 122.477
0.10257 -12.1449 122.197
-1.76638 -11.6826 122.328
-1.73 -11.6635 122.813
-0.95615602 -11.9561 121.478
-1.8170201 -11.7007 121.816
0.078515001 -12.1537 121.663
0.039437 -12.1558 121.139
-2.4384601 -11.5016 122.698
-2.9698801 -11.3898 123.044
-2.9554601 -11.3717 123.608
-2.49195 -11.5185 122.143
-3.0020499 -11.4069 122.447
-2.4008801 -11.485 123.211
3.40378 -11.3749 120.639
3.2116799 -11.5333 120.827
3.55338 -11.517 121.511
3.2081101 -11.3718 120.212
3.0023899 -11.5164 120.291
3.5006499 -11.2714 120.451
3.3276899 -11.2776 120.13
3.6714201 -11.3448 121.016
3.7186799 -11.242 120.715
3.9658101 -11.2816 121.202
3.9532199 -11.1929 120.846
4.0095601 -11.3575 121.709
1.16058 -12.1835 121.372
1.0614001 -12.1707 120.814
2.1248901 -12.0312 121.138
1.9587899 -12.0063 120.55
1.2457401 -12.1921 121.948
2.2874999 -12.058 121.756
3.8617401 -10.6215 120.118
3.88078 -10.6277 120.25
3.78057 -10.6404 120.131
3.79742 -10.6451 120.237
3.8445899 -10.6251 119.914
3.7699001 -10.6437 119.954
3.6073599 -10.8615 118.506
3.49417 -10.984 118.243
3.2565601 -11.1047 118.567
3.6691999 -10.7734 118.715
3.45242 -10.9312 118.794
3.5622201 -10.819 118.992
3.7745099 -10.6198 119.299
3.7399001 -10.6588 119.137
3.66576 -10.6874 119.437
3.80512 -10.6037 119.462
3.7278399 -10.6384 119.501
3.7661099 -10.62 119.559
3.9484401 -11.0963 120.591
3.7621601 -11.1355 120.5
3.9456501 -10.9888 120.427
3.80162 -11.0151 120.362
3.7072599 -10.7094 118.932
3.62393 -10.745 119.198
3.5713899 -10.7978 119.493
3.4919801 -10.8878 119.329
3.4656601 -10.9622 119.64
3.6089399 -10.7383 119.646
3.5557899 -10.853 119.75
3.5999999 -10.7717 119.838
3.62293 -10.7082 119.755
3.6537199 -10.6802 119.726
3.6245501 -10.7158 119.888
3.65481 -10.6801 119.914
3.7209699 -10.9017 120.21
3.6370101 -10.9067 120.092
3.5591099 -11.0418 120.071
3.74383 -10.782 120.213
3.6758699 -10.79 120.118
3.82389 -10.8877 120.298
3.8268399 -10.7716 120.282
3.66798 -11.0368 120.236
3.90203 -10.6746 120.306
3.9222801 -10.7618 120.32
3.8154199 -10.6871 120.276
3.93749 -10.8727 120.346
3.8271501 -10.6135 119.676
3.76614 -10.6328 119.734
3.7446201 -10.6998 120.216
3.68964 -10.7117 120.132
3.73226 -10.6614 120.187
3.6938801 -10.6762 120.132
3.7067001 -10.653 119.735
3.70435 -10.6592 119.944
3.64783 -10.7179 120.025
3.67167 -10.6776 120.053
3.62521 -10.7883 119.997
3.71521 -10.656 120.099
3.57937 -10.8914 119.946
3.48879 -11.0173 119.881
3.3477299 -11.1529 119.826
3.3081901 -11.1045 119.529
3.0236499 -11.332 119.491
3.4452 -11.1711 120.078
3.19998 -11.2768 119.837
3.11199 -11.3575 119.924
2.9228899 -11.4686 119.864
3.58762 -11.1637 120.315
2.8105299 -11.7776 120.975
3.02827 -11.8096 121.638
2.6080401 -11.7508 120.386
3.34548 -11.0215 119.164
3.09182 -11.228 118.989
-8.3028202 -4.0745201 130.707
-8.3445997 -3.7535601 130.431
-8.2612 -4.4443498 130.565
-8.3227301 -4.17137 130.22099
-8.3754396 -5.1831899 128.92
-8.2367001 -5.7997999 128.80901
-8.3779697 -5.44346 128.481
-8.29988 -5.40942 129.08701
-8.1282997 -6.05194 129.056
-8.4662905 -4.8800302 128.741
-8.8394499 -1.48515 125.716
-9.0561504 -2.19891 125.397
-9.2518797 -2.1307299 124.703
-8.6620998 -1.53532 126.456
-8.8805304 -2.2574699 126.133
-8.5663795 -0.79965001 126.031
-8.3994503 -0.85712099 126.794
-9.0444403 -1.42537 124.992
-8.7669697 -0.74130601 125.283
-9.2418804 -1.3557 124.326
-8.9641104 -0.677827 124.58
-9.4570103 -1.278 123.69
-9.1786003 -0.60301101 123.906
-9.4502497 -2.0550599 124.072
-9.6668997 -1.97841 123.478
-9.7212296 -1.18931 123.046
-9.4424601 -0.50404298 123.214
-10.0334 -1.08761 122.395
-9.7602797 -0.37328601 122.513
-9.9202995 -1.90359 122.885
-10.21 -1.83125 122.289
-9.0608101 0.197312 123.366
-8.5387602 0.90900898 123.489
-8.3012304 0.76302999 124.321
-9.3677197 0.35901999 122.604
-8.8109703 0.081712998 124.124
-7.8736501 1.59735 123.569
-7.6384802 1.40667 124.477
-7.48313 1.28087 125.368
-8.1148701 0.66851199 125.129
-8.6007795 0.0044820001 124.854
-8.4092598 -0.054894999 125.592
-9.7125101 0.552737 121.848
-10.1077 -0.217439 121.821
-8.4126596 -3.3919101 130.067
-8.3705997 -3.0715301 130.50101
-8.5153904 -3.1141901 129.478
-8.3899803 -2.47716 130.024
-8.4129601 -3.92995 129.832
-8.2260904 -0.116514 126.369
-8.0874004 -0.178009 127.151
-10.3708 -0.97744 121.763
-10.5232 -1.76632 121.713
-4.04249 -11.2081 120.688
-3.4316599 -11.3817 120.487
-3.5228901 -11.3731 119.812
-3.9739399 -11.2007 121.285
-3.3785 -11.3653 121.269
-4.6287599 -11.0134 120.913
-4.4675698 -11.0254 121.481
-4.1536002 -11.195 120.036
-4.7753201 -11.0052 120.281
-4.2778902 -11.1628 119.385
-3.62815 -11.346 119.152
-4.9141898 -10.9853 119.64
-9.5956097 -6.4756598 121.541
-9.08988 -7.5051699 121.48
-9.4321203 -6.27737 122.009
-8.9977903 -7.2241001 121.974
-10.0017 -5.4443202 121.595
-9.7842302 -5.3210402 122.061
-8.4737501 -8.4651604 121.372
-7.7632899 -9.3060598 121.136
-8.44802 -8.1133204 121.957
-7.6768599 -9.0033302 121.987
-7.0095201 -9.97474 120.731
-6.2698302 -10.4499 120.284
-6.8167801 -9.9094896 121.399
-6.0879102 -10.4195 120.927
-6.5338402 -9.9076099 122.081
-5.8381801 -10.4143 121.569
-6.2070398 -9.9690704 122.77
-5.5325599 -10.4588 122.189
-7.2228298 -9.2045298 122.725
-6.91258 -9.3084602 123.497
-5.2113199 -10.7646 121.192
-4.96385 -10.7951 121.776
-5.4120102 -10.7633 120.563
-4.6784101 -10.8681 122.294
-4.2680202 -11.0641 121.935
-4.3818202 -10.967 122.755
-4.02528 -11.1301 122.295
-5.2040901 -10.5577 122.788
-4.8854899 -10.6824 123.364
-5.8877301 -10.0787 123.479
-5.5985999 -10.2103 124.182
-6.64149 -9.4275303 124.329
-6.3805299 -9.5549002 125.104
-9.5353098 -4.4405298 123.274
-9.6149998 -3.61762 123.527
-9.43223 -3.6956201 124.058
-9.69629 -4.4004202 122.9
-9.81493 -3.5627201 123.068
-9.3914299 -5.1997399 123.058
-9.4976501 -5.2024999 122.764
-9.3794298 -4.5103898 123.721
-9.2586699 -5.2864699 123.406
-9.5836401 -2.8087001 123.801
-9.3877001 -2.8877699 124.392
-9.7994003 -2.7418001 123.266
-9.8695602 -4.3887901 122.533
-10.0726 -4.4021201 122.124
-10.2573 -3.5114 122.181
-9.6169205 -5.25172 122.446
-10.0271 -3.52812 122.635
-9.3245697 -6.0976601 122.401
-8.9817305 -6.8760099 122.413
-9.2769899 -5.9022598 122.713
-9.0332403 -6.4541001 122.786
-7.7964702 -8.3432302 123.453
-7.52284 -8.4986496 124.266
-8.20819 -7.4408002 124.135
-7.9791899 -7.6363201 124.992
-8.1377401 -8.0601101 122.836
-8.4636402 -7.20332 123.458
-8.5643597 -7.5536499 122.519
-8.7507401 -6.8797798 123.017
-8.5049801 -6.58394 124.757
-8.7131901 -6.3877501 124.012
-8.9111605 -5.5800099 124.528
-8.29603 -6.8074198 125.646
-8.7242804 -5.7592001 125.31
-8.5163097 -6.0184898 126.198
-9.26682 -5.7197499 122.929
-9.1307001 -5.93859 123.103
-8.9294004 -6.1784801 123.459
-9.0922098 -5.4269099 123.887
-7.2757101 -8.6402102 125.144
-7.0481501 -8.7862902 125.968
-7.7588401 -7.8332801 125.913
-7.5472298 -8.0383196 126.749
-8.5773802 -4.44311 128.539
-8.6545601 -3.82511 128.442
-8.5611401 -4.9404998 128
-8.7625399 -4.2032599 127.36
-8.4520102 -5.6448598 127.535
-8.2242498 -6.12745 128.207
-8.0449495 -6.7978401 127.866
-8.68437 -5.1978698 126.698
-8.2811899 -6.3882399 127.098
-8.8855801 -4.9194698 125.815
-8.9563799 -4.03122 126.257
-9.0574503 -4.7588701 125.001
-9.1150599 -3.9072101 125.427
-9.2203102 -4.6229 124.298
-9.2693501 -3.7938199 124.694
-8.9004698 -3.12637 126.604
-8.75951 -3.1300199 127.548
-8.7452497 -2.2992799 126.907
-8.6264496 -2.3136301 127.817
-9.0467796 -3.0540099 125.797
-9.20856 -2.97246 125.062
-10.0364 -2.68857 122.747
-10.2956 -2.6451499 122.226
-10.3148 -4.4639101 121.648
-10.5135 -3.5262001 121.683
-8.6262398 -3.0618801 128.588
-8.5146904 -2.3168499 128.864
-10.5774 -2.6189401 121.696
-5.57195 -10.7666 119.926
-3.96646 -11.1822 121.688
-3.7217901 -11.2478 121.867
-8.07304 -7.0922098 126.572
-7.85074 -7.4032402 127.386
-3.19978 -11.5028 130.32401
-3.4063699 -11.3485 129.91299
-4.3852201 -10.9901 130.36099
-2.1847501 -11.7901 130
-2.4297199 -11.6444 129.55701
-3.01686 -11.6336 130.674
-1.96395 -11.9207 130.397
-4.2340398 -11.143 130.713
-4.09442 -11.2661 131.015
-5.2685099 -10.4394 130.37
-5.4656901 -10.206 130.03999
-5.9087901 -9.8494501 130.46001
-4.5683498 -10.8052 129.94901
-4.7694898 -10.6151 129.52901
-5.1114101 -10.6301 130.69099
-5.6814198 -10.1438 130.70399
-5.4939899 -10.3654 130.86099
-5.9087801 -9.9631205 131.00999
-5.5432401 -10.3583 131.086
-6.0240302 -9.88025 131.3
-5.5616698 -10.3789 131.355
-6.20225 -9.55972 130.808
-6.5083799 -9.1553402 131.105
-5.0188198 -10.7535 130.987
-4.9483199 -10.8418 131.259
-4.1876898 -11.6286 132.883
-3.31515 -11.9419 132.687
-3.4860899 -11.8055 132.27
-4.08707 -11.7333 133.21899
-3.1993001 -12.0386 133.089
-4.8064799 -11.3262 133.11099
-4.6060801 -11.4877 133.304
-4.3776002 -11.4531 132.51601
-5.0454798 -11.0995 132.8
-4.1142602 -11.7586 133.494
-4.8087602 -11.4095 133.51601
-3.1708701 -12.0845 133.39999
-5.2898998 -11.0707 133.371
-5.6268301 -10.7485 133.10201
-0.34272701 -12.4406 131.85201
-0.550147 -12.3411 131.339
-1.54245 -12.1548 131.183
0.49654701 -12.497 132.231
0.39181501 -12.3529 131.644
-0.212189 -12.5107 132.33501
0.58023101 -12.566 132.705
-1.36544 -12.2625 131.617
-1.20429 -12.3576 132.07899
-2.5302999 -11.9914 131.67101
-2.6863201 -11.8698 131.306
-3.8133199 -11.5047 131.589
-2.36168 -12.1105 132.088
-3.6600101 -11.6514 131.90601
-4.5836501 -11.247 132.177
-5.2919302 -10.8339 132.47301
-4.7578402 -11.0581 131.86301
-5.6050901 -10.4736 132.106
-0.247795 -12.5764 133.593
-1.02266 -12.496 133.41499
-0.16360401 -12.5755 133.231
-1.00407 -12.4738 133.032
0.33539701 -12.61 133.834
0.47934899 -12.615 133.511
-2.05779 -12.3366 133.354
-2.0864201 -12.2921 132.99699
-0.151979 -12.5549 132.80099
0.56953102 -12.6032 133.132
-1.07208 -12.4282 132.57001
-2.19786 -12.2146 132.554
-2.4544799 -11.482 128.01801
-2.1947801 -11.5718 128.5
-1.5764199 -11.679 128.623
-3.17927 -11.2525 128.105
-2.9577401 -11.3482 128.554
-2.6883299 -11.4215 127.512
-3.36919 -11.1902 127.685
-1.85541 -11.5941 128.091
-2.0800099 -11.5246 127.434
-0.828049 -12.2211 130.814
-0.089610003 -12.2378 130.948
-0.43066001 -12.1209 130.42799
-1.74967 -12.0413 130.786
-1.11607 -12.0944 130.334
-4.0680199 -10.8983 128.537
-4.23772 -10.816 128.16299
-5.1329598 -10.3232 128.814
-3.8687999 -11.0161 128.95799
-4.9623399 -10.4512 129.15199
-2.8473799 -11.7519 130.992
-3.9520099 -11.3794 131.28999
-5.6735201 -9.9681101 129.731
-5.8680801 -9.7620201 129.43401
-6.4900999 -9.1069098 129.912
-6.1515899 -9.53337 130.201
-4.8706102 -10.931 131.54601
-5.56668 -10.4224 131.674
-1.90798 -11.6958 129
-2.69789 -11.4871 129.056
-1.2702 -11.7838 129.12199
-1.62281 -11.8339 129.483
-0.98219901 -11.899 129.57899
-1.3694 -11.9672 129.909
-0.71320897 -12.0096 129.992
-3.6387 -11.1755 129.437
-3.41184 -11.2834 123.312
-3.7872801 -11.1695 123.384
-4.1697998 -10.9675 124.345
-3.3939099 -11.312 122.713
-3.6475899 -11.2372 122.894
-3.4618399 -11.2432 123.954
-3.4960301 -11.2994 122.224
-3.7962 -11.1968 122.631
-3.1078501 -11.4071 121.868
-2.86167 -11.3666 126.881
-2.2838199 -11.4712 126.657
-2.4727299 -11.4313 125.866
-3.5467601 -11.141 127.242
-3.02248 -11.3215 126.224
-3.72118 -11.0979 126.767
-3.1805999 -11.2869 125.615
-3.87269 -11.055 126.24
-3.3250401 -11.2575 125.066
-4.0012202 -11.01 125.692
-2.6489201 -11.4033 125.179
-2.79863 -11.3829 124.611
-3.4338901 -11.2337 124.537
-4.10988 -10.9692 125.126
-2.9042399 -11.3683 124.112
-4.9842801 -10.5106 125.974
-5.14994 -10.4427 125.443
-5.97576 -9.7902498 126.343
-4.8399601 -10.5719 126.475
-5.8172498 -9.8907003 126.826
-5.67273 -9.9863396 127.277
-4.6918001 -10.6324 126.951
-4.54178 -10.6908 127.396
-5.5394101 -10.0706 127.715
-5.4114199 -10.1468 128.12199
-5.3478999 -10.3363 124.839
-4.5801101 -10.8057 123.898
-6.1598001 -9.67659 125.779
-4.3920798 -10.7503 127.795
-5.27983 -10.2261 128.48199
-4.0967598 -11.066 123.16
-6.4942498 -9.2478304 127.612
-6.3432102 -9.3841295 127.994
-6.9253998 -8.7360201 128.25
-6.72404 -8.9706097 128.416
-6.6675501 -9.0903902 127.188
-7.1445899 -8.4806805 127.905
-6.8487902 -8.9344702 126.649
-7.3466301 -8.2485905 127.411
-7.1112499 -8.4480495 128.75
-7.12781 -8.3466597 129.17101
-6.6863098 -8.9346905 129.149
-7.3991499 -8.0478296 128.465
-7.5549002 -7.6157799 128.946
-6.7364998 -8.9226799 128.76401
-6.2339301 -9.4661999 128.392
-6.1350899 -9.5313902 128.77901
-6.0184102 -9.6222801 129.121
-6.5934801 -9.0064201 129.495
2.62167 -12.1994 133.55099
2.7531199 -12.3146 134.02499
3.6208 -12.1507 134.72301
1.85691 -12.3313 132.976
1.94038 -12.4496 133.44901
2.4533701 -12.0759 133.045
1.75058 -12.1892 132.51401
3.4774699 -12.0452 134.252
1.2129101 -12.5972 133.45599
1.24869 -12.5378 133.041
1.93057 -12.5348 133.85201
1.08989 -12.6228 133.798
1.82673 -12.5864 134.19501
2.59461 -12.539 135.071
1.64518 -12.6116 134.493
2.74072 -12.4851 134.787
3.5953901 -12.4242 135.757
3.6926799 -12.3413 135.476
6.5807199 -11.2392 137.16299
6.5528402 -11.3102 137.552
6.2449398 -11.3623 136.819
6.2225099 -11.438 137.237
4.3299398 -11.871 134.99899
5.1198902 -11.6861 135.69299
4.4442801 -11.9744 135.41901
5.1807699 -11.7956 136.05099
2.7988501 -12.4114 134.444
3.7044799 -12.2507 135.14
0.90900898 -12.6265 134.105
4.51406 -12.0849 135.8
5.1866798 -11.913 136.423
4.5107002 -12.1928 136.123
5.1483598 -12.0085 136.87199
5.7842598 -11.5136 136.276
5.76928 -11.6121 136.686
4.4251399 -12.2794 136.543
5.0892701 -12.0946 137.33099
5.6503701 -11.8865 137.97501
5.7051401 -11.7992 137.509
6.09552 -11.6886 138.472
6.1568699 -11.6012 138.002
5.74332 -11.7054 137.108
6.1967001 -11.5183 137.604
1.19036 -12.4429 132.582
1.14659 -12.298 132.13699
6.5235 -11.3764 137.914
6.4813299 -11.4504 138.31599
6.42098 -11.5371 138.79601
3.8322599 -11.704 133.748
3.03408 -11.8583 133.15601
3.57429 -11.6891 133.06
2.81023 -11.8133 132.616
4.5901499 -11.5205 134.244
4.3673701 -11.5143 133.373
6.2455401 -11.0339 134.51801
5.8448801 -11.1603 134.556
6.0464001 -10.996 133.48
5.6391702 -11.1344 133.54201
5.29245 -11.3278 134.492
5.0749698 -11.3162 133.52499
5.3844399 -10.8869 129.959
5.2560802 -10.9058 129.256
4.8371 -11.1159 129.283
5.5644398 -10.899 130.93201
4.9745698 -11.0875 129.996
5.15803 -11.0821 130.97701
5.80265 -10.9476 132.19701
5.3948998 -11.1073 132.255
4.8308301 -11.3146 132.265
4.59764 -11.3188 131.01199
3.91715 -11.5481 131.091
4.1375599 -11.525 132.229
4.4088202 -11.343 130.03999
4.2549601 -11.378 129.321
3.5476401 -11.6124 129.463
3.72138 -11.5808 130.17101
5.1581998 -10.928 128.70799
4.7307601 -11.1402 128.71899
4.1305399 -11.4012 128.741
3.3996899 -11.6291 128.88699
1.13677 -11.815 129.918
1.85899 -11.8012 129.614
1.37326 -11.8381 130.401
2.0614901 -11.8092 130.11501
0.45420799 -11.8617 130.104
0.73488599 -11.9053 130.565
0.87713999 -11.795 129.412
0.175703 -11.8127 129.58501
2.29723 -11.9662 132.58501
1.7045 -12.0463 132.14301
2.1528101 -11.8949 132.189
1.73586 -11.9534 131.94501
0.603113 -11.7816 128.845
-0.103643 -11.7609 129.02
0.35080099 -11.774 128.245
-0.35937601 -11.7114 128.437
0.49475601 -12.1005 130.998
0.84601003 -12.1426 131.44901
1.26214 -11.961 131.36099
0.17633501 -12.0224 130.526
1.00995 -11.9417 130.98399
-0.73242301 -11.7859 129.17
-0.99125099 -11.6987 128.61
-0.42467999 -11.8677 129.64799
-0.124509 -11.9449 130.088
4.6544499 -11.181 125.583
4.5222802 -11.2585 124.775
4.0767102 -11.4822 124.768
4.7752299 -11.1049 126.33
4.20644 -11.3969 125.585
4.3315902 -11.3132 126.336
1.34912 -12.1172 124.052
1.4569 -12.0551 124.908
2.5213499 -11.9729 124.825
0.23697001 -12.032 124.17
0.38749501 -11.9856 125.017
1.30213 -12.1634 123.259
0.152321 -12.0776 123.414
2.44663 -12.0405 123.97
2.4073701 -12.0796 123.149
4.3854198 -11.3262 123.94
3.95386 -11.5526 123.923
4.2487602 -11.373 123.123
3.8375299 -11.5909 123.103
3.32586 -11.8232 123.924
3.25927 -11.8569 123.104
3.41518 -11.7532 124.777
3.5360601 -11.6649 125.601
3.6687 -11.5758 126.355
2.64609 -11.8908 125.656
2.7946701 -11.8061 126.419
-0.88416803 -11.8946 122.999
0.117957 -12.1181 122.766
-0.82659698 -11.8613 123.599
-1.68682 -11.6434 123.3
-1.60841 -11.6301 123.853
1.28412 -12.1881 122.564
2.3745899 -12.0814 122.416
4.8783798 -11.0402 126.984
4.4387102 -11.2441 126.988
3.78704 -11.5003 127.006
2.93155 -11.731 127.079
1.95428 -11.86 127.227
0.98853898 -11.8633 127.422
1.79447 -11.9206 126.545
0.806638 -11.8981 126.722
1.61981 -11.987 125.76
0.59404802 -11.9399 125.899
0.141836 -11.7715 127.629
-0.585926 -11.6723 127.836
-0.065259002 -11.7775 126.919
-0.81235999 -11.6476 127.125
-2.1070001 -11.4898 124.82
-2.25229 -11.4785 124.203
-1.47461 -11.6252 124.527
-1.9191099 -11.5088 125.583
-1.28389 -11.6274 125.344
-0.71096802 -11.833 124.319
-0.53052402 -11.8106 125.158
-0.300852 -11.7918 126.065
-1.05225 -11.6341 126.257
-1.23954 -11.628 128.017
-1.47466 -11.5746 127.316
-1.7037801 -11.5362 126.464
-2.3473699 -11.475 123.69
4.1169 -11.3876 122.364
3.7165101 -11.5849 122.342
3.17399 -11.8472 122.345
2.9156201 -11.3625 116.804
3.0868101 -11.2829 117.382
2.03562 -11.7385 117.177
2.2595401 -11.6737 117.962
-1.23622 -12.0674 118.421
-1.17285 -12.0597 119.069
-0.122428 -12.1834 118.721
-2.1349001 -11.8203 118.702
-2.08143 -11.8109 119.361
-0.19935 -12.1789 118.058
-1.12345 -12.0288 119.732
-1.07175 -11.992 120.365
-0.052772999 -12.1562 120.015
-2.02824 -11.7822 120.025
-1.96498 -11.748 120.665
-0.078681998 -12.1703 119.379
-2.92449 -11.5643 118.935
-2.8497701 -11.5708 119.597
-1.01061 -11.9687 120.945
-1.88868 -11.7212 121.262
-0.010862 -12.1528 120.598
-2.58424 -11.5336 121.557
-2.6932299 -11.5459 120.934
-2.7794001 -11.5613 120.272
0.99463701 -12.1516 120.251
1.86928 -11.9743 119.989
1.87955 -11.9206 119.414
0.980914 -12.1257 119.659
2.51648 -11.706 119.865
2.5451701 -11.6285 119.356
3.30687 -11.1395 117.87
2.92383 -11.3476 118.287
1.017 -12.092 119.02
1.03134 -12.0638 118.327
1.98902 -11.8331 118.792
2.67255 -11.5141 118.818
0.94787902 -12.0553 117.624
-8.1226196 -6.62954 132.605
-8.1040096 -6.1513 132.069
-7.9618101 -6.9797101 132.507
-7.9531002 -6.6050801 132.067
-7.7452998 -7.4842401 132.45799
-7.7389698 -7.1981401 132.08099
-7.4391298 -8.1430302 132.465
-7.4392099 -7.9219799 132.13
-5.8743901 -10.4481 132.78999
-6.1097698 -10.1296 132.5
-6.3864698 -9.7393904 132.26401
-6.6821699 -9.4229803 132.45599
-6.70403 -9.2241402 132.076
-6.80162 -9.1634398 132.259
-6.19137 -9.8563099 131.964
-6.6163902 -9.2291698 131.802
-7.0570698 -8.8516502 132.496
-7.0802498 -8.6604099 132.20599
-8.1269703 -5.67553 131.57899
-8.1377602 -5.3856401 131.19
-7.9751701 -6.2227802 131.64999
-7.9931598 -5.9547 131.306
-7.7687602 -6.5581002 131.144
-7.7665401 -6.4819198 130.944
-7.9325099 -5.9686198 130.924
-7.4462399 -7.4185901 131.237
-7.4573598 -7.2985501 130.998
-7.7686601 -6.68471 131.395
-7.4477801 -7.5491199 131.5
-7.9753799 -5.8864999 131.06
-7.0711799 -8.53232 131.92101
-7.0446701 -8.43929 131.638
-7.4453702 -7.7161598 131.8
-7.7537098 -6.9098802 131.714
-7.0206399 -8.3474703 131.354
-6.5560899 -9.1955099 131.493
-7.0380602 -8.2130804 131.071
-6.0949798 -9.86938 131.631
-8.19104 -4.8916502 130.448
-8.26161 -4.6829901 130.10699
-8.0840902 -5.42453 130.362
-8.1563597 -5.2695699 130.05299
-8.1353998 -5.1383901 130.73
-8.0256901 -5.5931201 130.625
-8.3443098 -4.5251198 129.763
-8.2259502 -5.1563001 129.76401
-8.0872803 -5.4295902 130.93201
-7.9775901 -5.7746 130.80299
-8.22404 -5.5853901 129.291
-8.1406498 -5.7220201 129.52901
-7.9397402 -6.4081302 129.55499
-8.0341597 -6.2516298 129.302
-8.0708103 -5.8302202 129.77
-7.86131 -6.5306602 129.78999
-8.0033903 -5.9363999 130.02901
-7.78547 -6.6479402 130.02901
-7.5921202 -7.2196698 129.84801
-7.6777 -7.10467 129.60899
-7.2968302 -7.8390598 129.964
-7.35642 -7.7913198 129.724
-7.5047102 -7.3502698 130.07401
-7.2915802 -7.8099298 130.11099
-7.9282098 -6.07026 130.312
-7.69172 -6.8120399 130.304
-7.8547902 -6.2272301 130.577
-7.5949998 -6.99473 130.575
-7.3954601 -7.5335698 130.312
-7.1434498 -8.0666304 130.269
-7.2688999 -7.7574601 130.56599
-6.9601202 -8.3738804 130.495
-7.7965999 -6.3766599 130.782
-7.5131698 -7.1603999 130.80299
-7.7756701 -6.9755201 129.33299
-7.4544802 -7.69309 129.412
-7.8861499 -6.79038 129.02299
-7.0622702 -8.37535 129.537
-6.9939799 -8.4160099 129.86099
-7.0102401 -8.3425398 130.118
-6.7302899 -8.7740898 130.311
-6.4652801 -9.1672401 130.552
-6.7645502 -8.7048397 130.759
-7.1381698 -7.9990301 130.821
-0.69089901 7.6852498 137.326
-1.39475 7.6293101 137.29201
-0.93417603 8.0198097 138.284
-1.57672 7.9587102 138.258
-0.37010801 7.3379598 136.175
-4.0885601 7.8552799 139.118
-4.6967902 8.0101805 139.83701
-5.0204401 7.68922 139.561
-3.7641699 8.0457296 139.27901
-4.3087301 8.26297 140.032
-3.5429299 7.7130699 138.50999
-3.41292 7.87427 138.759
-4.38025 7.5868702 138.851
-3.78231 7.4783802 138.201
-3.36955 8.1549501 139.302
-3.85378 8.43431 140.13901
-2.9181299 8.2238903 139.26401
-3.34727 8.5567503 140.196
-3.0592699 7.87398 138.57899
-2.6064401 7.8877101 138.396
-3.1270399 8.9949102 141.17799
-3.7565601 8.8399601 141.092
-2.4860001 9.1234198 141.26401
-2.8023901 8.6672897 140.24699
-2.2104499 8.7658701 140.30901
-2.42875 8.2886496 139.25
-1.87345 8.3513203 139.26801
-2.1273 7.9197798 138.28999
-1.2421401 8.4296703 139.315
-1.57293 8.8631601 140.383
-1.84557 9.2296896 141.35699
-4.3592901 8.6670904 140.992
-4.9017 8.4432602 140.842
-5.3573999 8.1379299 140.617
-5.7017298 7.77459 140.311
-2.00739 7.5858598 137.38499
-2.5337501 7.5681601 137.63
-3.0337 7.61343 138.01601
-3.2377501 7.3498998 137.569
-8.0265999 -0.23985399 127.918
-8.3058701 -0.911102 127.557
-8.0147495 -0.323897 128.728
-8.2575998 -0.97054201 128.396
-7.6818199 0.43448299 128.299
-7.6958399 0.33849001 129.09
-8.4175797 -3.1062601 131.20399
-8.57903 -3.3649099 132.002
-8.3808804 -2.55252 131.084
-8.5555696 -2.8761599 132.008
-8.3798399 -1.66602 129.106
-8.2913704 -1.78067 130.118
-8.2240105 -1.06786 129.33
-8.1679096 -1.23331 130.259
-8.4562197 -1.61194 128.09599
-8.3268099 -2.0118699 131.09599
-8.5216703 -2.34656 132.03999
-8.2544098 -1.49101 131.22099
-8.4757996 -1.79434 132.116
-8.7500801 -3.9686501 132.83501
-8.8137798 -3.34093 132.882
-8.8424101 -2.68519 132.967
-8.8443098 -2.0195701 133.092
-8.8306599 -1.35165 133.263
-8.8073196 -0.661717 133.478
-8.4175701 -1.2100101 132.23399
-8.3408203 -0.57129699 132.38499
-8.1583405 -0.942276 131.39999
-8.0047503 -0.66761303 130.436
-7.80513 -0.058545001 130.71899
-8.0309601 -0.33796099 131.60899
-7.8488498 0.32791799 131.856
-8.2545004 0.13960899 132.67
-7.6016502 1.06021 132.15601
-8.1174803 0.92433602 133.064
-7.5395198 0.591892 131.06599
-7.2018199 1.28302 131.461
-8.7675695 0.079135001 133.746
-8.6828299 0.88383102 134.103
-7.3348198 0.83118701 130.224
-7.7283301 0.17614099 129.89301
-6.8880401 1.48181 130.68401
-7.2699099 0.99989098 129.47701
-6.7220702 1.6336 129.909
-7.3059101 1.89344 132.62
-6.9958501 2.8861101 133.48399
-7.6251798 2.8368499 134.39799
-6.7971201 2.03034 131.93401
-6.3471298 2.9298 132.55701
-7.9093199 1.80217 133.614
-6.3777099 2.1601801 131.25
-5.8028898 2.97843 131.97
-6.0855498 2.26229 130.487
-5.3737001 3.0492201 131.334
-5.9207902 2.37306 129.73599
-5.0750999 3.19015 130.63699
-6.6662898 1.72322 129.157
-7.24086 1.0932 128.702
-8.0190401 -0.45895699 129.591
-8.5195398 1.77888 134.605
-8.2554903 2.8313999 135.32201
-7.8776698 4.0388999 136.27299
-7.3795099 5.2161002 137.36099
-7.2578101 4.0200801 135.431
-6.7839799 5.1736002 136.595
-6.6233201 4.0378799 134.612
-6.1577501 5.1698599 135.854
-5.9601798 4.0410099 133.795
-5.5018601 5.1579099 135.136
-5.60605 6.0880599 137.005
-6.2245598 6.1128201 137.705
-5.0826001 6.7599101 137.90199
-5.7041602 6.8052602 138.59399
-4.9762602 6.0657802 136.343
-4.4752498 6.7196102 137.255
-6.80615 6.1698899 138.425
-6.2989998 6.8687301 139.29601
-5.26542 4.0109501 132.959
-4.8288698 5.1192899 134.436
-4.6722498 4.0531001 132.369
-4.1981802 5.1438098 133.811
-4.2182999 4.2490902 131.908
-3.6473 5.3155599 133.327
-5.9633799 7.3723898 139.89999
-5.3217101 7.3058901 139.185
-4.6867099 7.2385001 138.48599
-4.0837402 7.1683502 137.83501
-3.5627301 7.0520201 137.17999
-3.2808101 6.7729402 136.317
-3.94491 6.6462302 136.642
-3.62638 6.54707 136.149
-3.3535199 6.2035499 135.034
-3.8365901 6.04175 135.25999
-4.37256 6.0240102 135.726
-8.5415802 -1.58121 127.222
-0.227652 5.2575698 124.611
-0.90306002 5.3638601 124.731
-1.04592 5.3850498 123.608
-0.093943 5.2690802 125.782
-0.787992 5.3927202 125.9
-0.392717 5.31253 123.474
-0.63514501 5.4405699 122.256
-1.29892 5.47718 122.397
-1.60627 5.64433 121.226
-0.89384401 5.6544199 121.094
-1.17737 5.9127998 120.103
-1.96496 5.8350201 120.215
-1.6529599 5.2960701 124.9
-1.5517401 5.3481698 126.077
-2.2997501 5.0801802 126.295
-1.77938 5.29775 123.762
-2.3984101 5.0145502 125.097
-2.5202701 5.02282 123.934
-2.70068 5.6880498 120.368
-2.3120999 5.52635 121.383
-3.00982 5.2726402 121.57
-3.3870699 5.4629102 120.541
-2.00267 5.3769698 122.557
-2.7160699 5.1103101 122.734
-3.4265599 4.7309999 122.925
-3.2281599 4.6218801 124.113
-3.7098701 4.92943 121.77
-3.09376 4.5865002 125.29
-2.98071 4.6478801 126.521
-2.83108 4.8463001 127.915
-2.5689399 5.2424698 129.567
-2.13116 5.2411599 127.674
-1.86633 5.56247 129.317
-1.37901 5.4587598 127.452
-1.13357 5.70121 129.112
-0.62234598 5.4723701 127.277
-0.411735 5.6672702 128.96001
0.060796 5.3545299 127.158
0.236435 5.5495801 128.84801
0.40993601 5.8993902 130.823
-0.210326 6.0355 130.899
0.49050301 6.40624 132.871
-0.118696 6.5230298 132.80901
-2.09817 5.8410401 131.269
-1.49998 6.4228201 132.528
-1.54198 6.0395298 131.08
-1.21536 6.4361701 132.202
-0.88210499 6.1089602 130.95599
-0.72965002 6.5503802 132.536
0.15443601 6.9081402 134.61
-0.49407801 6.9036798 134.237
-1.01297 6.7665801 133.42799
-4.0579 5.1895599 120.711
-8.0351295 -6.5131302 128.674
-7.8263502 -7.17553 128.43401
-7.63377 -7.7123098 128.00999
2.62305 -11.758 129.21899
2.7959399 -11.7526 129.75999
2.98944 -11.7361 130.427
3.18819 -11.7118 131.23801
2.2683301 -11.8116 130.70599
2.4609699 -11.8054 131.36
1.5881701 -11.8577 130.90401
1.77519 -11.8683 131.401
9.8851995 -9.2895403 128.573
3.38376 -11.6908 132.153
2.62852 -11.8004 132.02
1.9780101 -11.87 131.812
1.51358 -11.9586 131.687
1.24099 -12.1146 131.80701
11.3028 -8.8921604 129.785
-0.87636298 9.2625198 165.11501
-0.163754 8.9068203 165.10001
-0.516671 9.1849804 164.46001
0.19606701 8.73804 164.448
-1.30906 9.4795904 164.452
-7.9700899 3.60078 164.827
-7.99963 3.4819901 164.069
-8.0623102 4.26156 164.14101
-7.7980299 2.8355401 164.759
-7.8176899 2.7672501 163.979
-2.05758 9.7397003 163.386
-7.9843998 5.6602898 162.991
16.149 -8.3752699 146.468
16.036501 -8.4623098 146.491
15.9868 -8.3739595 146.633
16.1772 -8.4540796 146.35201
16.070299 -8.54459 146.36501
16.2432 -8.3057299 146.442
16.2449 -8.3830996 146.35699
16.108 -8.2835503 146.605
16.214701 -8.2055502 146.57401
16.728399 -7.2799501 146.811
16.905199 -6.98628 146.80701
17.0679 -7.1002202 146.521
16.5846 -7.2179098 147.007
16.7094 -6.9174199 147.07001
16.5431 -7.5097799 146.845
16.489201 -7.42132 146.964
16.847401 -7.3839502 146.59
16.6215 -7.6143899 146.67599
15.5129 -9.2575598 145.993
15.3532 -9.4598703 145.828
15.1408 -9.4420204 146.073
15.7 -9.2226105 145.82899
15.5892 -9.4167099 145.614
15.6403 -9.07967 146.12801
15.7814 -9.04877 146.015
15.3418 -9.2415504 146.189
15.51 -9.06357 146.27901
16.933201 -8.1398897 145.679
17.163099 -8.007 145.439
17.0431 -8.23349 145.314
16.9813 -7.97436 145.81799
17.236601 -7.7979298 145.593
16.716999 -8.2707796 145.86
16.7386 -8.1381598 145.99899
16.851801 -8.3099604 145.57001
16.7096 -8.36026 145.745
16.939699 -7.5107999 146.362
16.6964 -7.7270799 146.48801
16.993999 -7.6549501 146.14999
16.7451 -7.8545198 146.30299
17.1875 -7.2470899 146.23801
17.2556 -7.4166098 145.983
17.0497 -6.6921301 146.812
16.813101 -6.6189599 147.12801
16.886 -6.3626399 147.179
17.2498 -6.8179698 146.47099
17.1555 -6.4384799 146.823
17.3864 -6.5737801 146.437
17.3964 -6.9844098 146.136
17.478701 -7.1806302 145.83501
17.555401 -6.7556801 146.06
17.649799 -6.9742298 145.718
17.4944 -7.3984699 145.582
17.269501 -7.6013598 145.77
17.4505 -7.6336598 145.373
17.6667 -7.2218199 145.427
17.6126 -7.49264 145.189
17.005199 -7.8110499 145.97099
16.7558 -7.9942899 146.142
17.3538 -7.88627 145.202
17.201099 -8.16119 145.063
17.495199 -7.78444 145.00101
17.3146 -8.1001997 144.853
16.990101 -8.4567604 144.963
16.8713 -8.4769602 145.22701
16.7307 -8.7537298 144.92
16.6549 -8.72188 145.19299
17.072001 -8.4369402 144.744
16.778 -8.7746696 144.69501
16.721399 -8.4914999 145.509
16.598801 -8.4721298 145.759
16.5492 -8.6776104 145.495
16.4538 -8.6131601 145.772
16.436501 -9.0286598 144.94701
16.406 -8.9492798 145.22
16.117701 -9.2674799 145.04401
16.134899 -9.1482897 145.30499
16.4466 -9.0883904 144.72501
16.0895 -9.3600502 144.83099
16.3491 -8.8537703 145.52499
16.2911 -8.7521095 145.80099
16.1313 -9.0101004 145.59399
16.115999 -8.8777399 145.853
15.7882 -9.4587297 145.19901
15.8551 -9.3092003 145.439
15.4726 -9.5870399 145.40601
15.7217 -9.5752602 145
15.3677 -9.7198095 145.228
15.9094 -9.1369896 145.696
15.9421 -8.9786501 145.925
15.1901 -9.6415796 145.659
14.9379 -9.6243896 145.94901
15.0476 -9.7842398 145.51199
14.7633 -9.76791 145.839
14.7118 -9.5421104 146.263
14.9457 -9.3717098 146.34
14.5258 -9.39779 146.58701
14.7834 -9.2541199 146.61301
14.5132 -9.67453 146.19501
14.3077 -9.5075102 146.564
15.1806 -9.1820602 146.411
15.3794 -9.0088196 146.467
15.0437 -9.0896397 146.63499
15.2596 -8.9338999 146.658
14.3951 -9.1998596 146.90199
14.6718 -9.0966597 146.871
14.3184 -8.9711399 147.19299
14.6108 -8.9148197 147.104
14.1575 -9.2782698 146.927
14.0643 -9.0144796 147.26199
14.9457 -8.9762201 146.83701
15.1594 -8.8568296 146.82401
14.8945 -8.8494997 147.008
15.0812 -8.80163 146.939
14.2881 -8.7332001 147.44501
14.5921 -8.7221298 147.30701
14.3004 -8.4907103 147.661
14.6089 -8.5203104 147.48399
14.0249 -8.7420998 147.552
14.0374 -8.46768 147.79601
14.8912 -8.7085505 147.151
15.1288 -8.7106104 146.99899
14.9182 -8.5499201 147.284
15.1738 -8.5820704 147.09399
14.352 -8.2427702 147.84399
14.6554 -8.3087101 147.64101
14.4368 -7.9944701 147.996
14.7263 -8.09375 147.776
14.098 -8.1901598 148
14.1984 -7.9130402 148.16701
14.9623 -8.37428 147.414
15.2172 -8.4302902 147.207
15.0224 -8.18997 147.534
15.2702 -8.26507 147.31799
14.5516 -7.7521701 148.11501
14.8196 -7.8833499 147.884
14.7011 -7.51894 148.196
14.9384 -7.6813798 147.959
14.3336 -7.6417198 148.29601
14.5095 -7.38094 148.382
15.0975 -8.0082798 147.631
15.3353 -8.1016397 147.407
15.1885 -7.8376298 147.69901
15.4086 -7.9517598 147.47
14.8912 -7.2983398 148.23399
15.0874 -7.49086 147.996
15.1202 -7.0981498 148.218
15.2679 -7.3175998 147.99001
14.7327 -7.1365399 148.41901
14.9989 -6.9173799 148.397
15.2943 -7.6813102 147.737
15.4773 -7.8143001 147.52
15.4188 -7.5461702 147.741
15.52 -7.7008801 147.56799
15.3824 -6.92729 148.144
15.4791 -7.1688399 147.936
15.6709 -6.7924399 148.01401
15.7196 -7.0521598 147.83099
15.2988 -6.7316198 148.308
15.6232 -6.5827498 148.159
15.5731 -7.4384198 147.701
15.6304 -7.6791601 147.502
15.7616 -7.3525701 147.616
15.7854 -7.63059 147.416
15.9744 -6.6958599 147.836
15.9813 -6.9710002 147.679
16.274 -6.63305 147.62801
16.2439 -6.92063 147.496
15.9594 -6.4707098 147.96201
16.2887 -6.3928099 147.733
15.9784 -7.2873402 147.48801
15.972 -7.5768299 147.30499
16.2024 -7.2418199 147.33501
16.1709 -7.5272002 147.175
16.5541 -6.6031299 147.397
16.488501 -6.8989701 147.29601
16.597 -6.3516698 147.479
16.4088 -7.2121902 147.177
16.355301 -7.4741502 147.05099
16.2068 -8.51231 146.25
16.294901 -8.3890104 146.29201
16.385401 -8.3972301 146.17101
16.086599 -8.6188097 146.258
16.2349 -8.5719604 146.142
16.093901 -8.6909599 146.159
16.2568 -8.6541996 146.002
16.4051 -8.52279 145.983
16.102301 -8.77248 146.036
16.567101 -8.1277504 146.25301
16.554399 -7.9886599 146.41499
16.4333 -8.21173 146.327
16.4188 -8.0730104 146.487
16.552401 -8.2719097 146.105
16.3316 -8.2600498 146.39301
16.313 -8.13869 146.537
16.5488 -8.3955898 145.95
15.9103 -8.5494804 146.52299
15.856 -8.4692297 146.66
15.7964 -8.6273403 146.548
15.7335 -8.5528898 146.687
15.9481 -8.6228199 146.403
15.854 -8.6680698 146.44701
15.7085 -8.9754496 146.207
15.8096 -8.9301701 146.16
15.6383 -8.9374399 146.325
15.774 -8.8341703 146.323
15.95 -8.86308 146.093
15.9484 -8.7771397 146.213
15.954 -8.6979904 146.30701
15.8234 -8.7300501 146.403
15.3893 -8.4730396 147.049
15.3488 -8.6214705 146.933
15.5042 -8.4974804 146.938
15.5019 -8.6701899 146.761
15.4363 -8.3118296 147.16299
15.5419 -8.3415604 147.056
15.5235 -8.87673 146.505
15.6263 -8.7784996 146.53101
15.4028 -8.8059301 146.69299
15.7087 -8.6993904 146.549
15.6283 -8.6145601 146.715
15.2852 -8.74473 146.854
15.5037 -8.1536198 147.24699
15.6166 -8.1892595 147.13
15.5774 -8.0047703 147.30901
15.749 -8.0165005 147.164
15.6971 -8.2371798 147.02299
15.6239 -8.3657799 146.967
15.7568 -8.3018503 146.914
15.6844 -8.3797998 146.90401
15.818 -8.1174698 147.02499
15.871 -8.1996803 146.908
15.6283 -7.85847 147.38
15.7821 -7.8358102 147.276
15.8056 -8.3821802 146.79401
15.9284 -8.2849998 146.776
15.696 -8.4589701 146.817
15.5998 -8.4958 146.862
16.050301 -8.1952105 146.748
16.1551 -8.1175003 146.72
15.9982 -8.1132498 146.87199
16.0947 -8.0660601 146.826
16.243401 -8.0403605 146.703
16.3473 -7.9595499 146.67101
16.126301 -7.9954 146.856
16.2031 -7.8704901 146.888
16.496201 -7.8676 146.597
16.4174 -7.7603698 146.77499
15.9682 -7.7829399 147.16299
15.9678 -7.92167 147.05701
16.169701 -7.7217698 147.03799
15.9732 -8.0266304 146.968
16.3606 -7.6452799 146.924
17.236099 -6.2117801 146.84
16.9373 -6.1298299 147.23199
16.984501 -5.8277998 147.304
17.495001 -6.3557501 146.41299
17.320101 -5.91821 146.862
17.6154 -6.0732198 146.381
17.6845 -6.5490799 145.996
17.790701 -6.7839999 145.617
17.8325 -6.2786498 145.908
17.957199 -6.5292802 145.476
17.8113 -7.0549698 145.28999
17.7509 -7.3559299 145.02299
17.9877 -6.8235698 145.099
17.924601 -7.1581602 144.783
17.616501 -7.6828198 144.813
17.411301 -8.0362196 144.649
17.7708 -7.5295801 144.528
17.532801 -7.93573 144.328
17.1402 -8.41119 144.52901
16.8146 -8.7873497 144.47501
17.2206 -8.3678999 144.18401
16.8491 -8.8025599 144.121
16.448299 -9.1385298 144.508
16.054899 -9.4423399 144.62399
16.434 -9.2096796 144.161
15.9898 -9.5610104 144.295
15.6515 -9.6803703 144.80901
15.2643 -9.8385096 145.05901
15.5357 -9.8330498 144.511
15.1025 -10.0104 144.799
14.9147 -9.9084196 145.37199
14.6064 -9.8892698 145.735
14.7152 -10.0857 145.15601
14.3767 -10.0602 145.573
14.3377 -9.7845497 146.132
14.114 -9.5991096 146.54401
14.0828 -9.9393997 146.03101
13.837 -9.7297096 146.505
13.944 -9.3466702 146.948
13.8355 -9.0570803 147.31799
13.6486 -9.4468603 146.963
13.5303 -9.1244898 147.37399
13.7927 -8.7584 147.633
13.8129 -8.45893 147.897
13.4908 -8.7941103 147.71899
13.5264 -8.4651203 148.005
13.8881 -8.1580696 148.117
14.0065 -7.8573298 148.29601
13.6249 -8.1361198 148.243
13.7697 -7.80615 148.439
14.161 -7.5602798 148.435
14.3579 -7.2725 148.528
13.9504 -7.4766898 148.591
14.1736 -7.1531901 148.69501
14.6044 -7.00207 148.569
14.8951 -6.7601099 148.547
14.4471 -6.8455801 148.745
14.7621 -6.56879 148.731
15.2197 -6.5553002 148.455
15.57 -6.3881798 148.29601
15.1071 -6.3339701 148.644
15.482 -6.1393099 148.48199
15.934 -6.2570801 148.084
16.290199 -6.1642199 147.83701
15.8806 -5.9816999 148.252
16.274099 -5.8685999 147.978
16.6229 -6.1170502 147.56
16.6385 -5.8129301 147.67
-4.3730402 -15.74 142.903
-4.4406099 -15.6572 143.032
-4.3044 -15.6546 143.103
-4.4770598 -15.742 142.84399
-4.5576501 -15.6601 142.965
-4.3101802 -15.8068 142.795
-4.4050999 -15.7944 142.772
-4.24368 -15.7397 142.966
-4.1796598 -15.8116 142.847
-5.5707002 -15.2848 142.936
-5.5289102 -15.4176 142.70799
-5.8428001 -15.3273 142.55
-5.30513 -15.3516 143.04601
-5.24821 -15.4647 142.87801
-5.5618801 -15.1667 143.153
-5.3554902 -15.2613 143.16299
-5.8772302 -15.1659 142.849
-5.8540802 -15.0168 143.142
-3.2167599 -15.978 142.735
-3.1597099 -15.879 142.967
-2.8528299 -15.8969 142.938
-3.46099 -15.9335 142.806
-3.42084 -15.8554 142.98399
-3.3273101 -16.0508 142.524
-3.55024 -15.9861 142.65601
-2.92468 -16.018101 142.649
-3.0618501 -16.110001 142.375
-4.8600001 -15.9658 141.91299
-4.6633 -16.035801 141.851
-4.7761898 -16.069599 141.547
-4.67382 -15.951 142.159
-4.57937 -16.004101 142.063
-5.0380001 -15.8815 142.01199
-4.8123298 -15.8758 142.269
-5.0405698 -15.9816 141.608
-5.2678099 -15.8809 141.709
-5.4517798 -15.5507 142.483
-5.7578301 -15.4875 142.26801
-5.3410802 -15.6751 142.285
-5.6294999 -15.636 142.02901
-5.1783099 -15.5799 142.694
-5.0812898 -15.6906 142.522
-6.16294 -15.0274 142.78101
-6.3966999 -14.8967 142.733
-6.3508501 -14.7054 143.131
-6.1324902 -15.2158 142.42
-6.3703899 -15.1073 142.323
-6.1279001 -14.8548 143.133
-6.0406299 -15.403 142.084
-6.2736402 -15.3165 141.944
-5.8935399 -15.5766 141.80099
-6.1104598 -15.5109 141.621
-5.6982698 -15.7301 141.582
-5.8875399 -15.6846 141.369
-5.4615698 -15.8643 141.424
-5.6137099 -15.8373 141.19
-5.4643898 -15.7668 141.845
-5.2009902 -15.7852 142.132
-4.9556198 -15.7894 142.383
-5.18573 -15.9826 141.31599
-5.2941499 -15.9714 141.076
-4.8640699 -16.0865 141.258
-4.92419 -16.088499 141.02
-4.4970298 -16.173599 141.254
-4.50597 -16.1868 141.021
-4.1094398 -16.2372 141.31799
-4.0662298 -16.259899 141.09399
-4.4739599 -16.1422 141.53999
-4.1530499 -16.1933 141.595
-4.4374599 -16.0889 141.851
-4.19139 -16.124201 141.90601
-4.4327402 -16.023001 142.119
-4.2427001 -16.0432 142.188
-3.7305601 -16.269501 141.459
-3.6364801 -16.299299 141.252
-3.37589 -16.265499 141.66701
-3.2356701 -16.297701 141.48399
-3.8369901 -16.216999 141.717
-3.5389299 -16.210699 141.897
-3.9437001 -16.1388 142.00999
-3.70696 -16.131201 142.155
-4.0454202 -16.052299 142.27699
-3.8541701 -16.0457 142.38901
-3.06007 -16.224001 141.92999
-2.8807001 -16.2523 141.774
-2.8090999 -16.1478 142.231
-2.59742 -16.166901 142.108
-3.2724099 -16.1745 142.121
-3.49525 -16.1015 142.32899
-3.6852801 -16.0228 142.519
-2.64222 -16.039801 142.55701
-2.4054799 -16.0462 142.47501
-2.5538499 -15.8989 142.89999
-2.3037801 -15.8898 142.86301
-2.5331399 -15.7263 143.25101
-2.2848101 -15.698 143.258
-2.5841999 -15.5317 143.59
-2.3492701 -15.4782 143.64301
-2.8336501 -15.7482 143.237
-2.8700099 -15.5838 143.524
-3.14516 -15.7552 143.214
-3.1698201 -15.6211 143.453
-3.41554 -15.7508 143.19099
-3.43189 -15.6376 143.395
-2.70772 -15.3293 143.899
-2.4926701 -15.2444 143.99899
-2.8828001 -15.1341 144.16499
-2.69138 -15.0163 144.30701
-2.9648099 -15.4188 143.78
-3.10448 -15.2638 143.994
-3.2299199 -15.4929 143.657
-3.32324 -15.3804 143.81599
-3.4565301 -15.5324 143.57001
-3.46856 -15.4527 143.694
-3.0866001 -14.9569 144.382
-2.9215801 -14.8105 144.556
-3.31341 -14.7989 144.55
-3.1774001 -14.6308 144.74699
-3.2730999 -15.1238 144.166
-3.4658401 -14.9961 144.30299
-3.4524701 -15.2838 143.935
-3.6119201 -15.1915 144.033
-3.5784199 -15.418 143.726
-3.7203801 -15.3563 143.787
-3.5627799 -14.6578 144.677
-3.4584999 -14.4746 144.88699
-3.8251901 -14.5335 144.765
-3.7553799 -14.3392 144.98
-3.6801 -14.8773 144.411
-3.90608 -14.7684 144.491
-3.79319 -15.0962 144.121
-3.98738 -15.0028 144.194
-3.88064 -15.2772 143.86301
-4.0551801 -15.1934 143.93201
-4.0943799 -14.4287 144.813
-4.0602999 -14.2256 145.02901
-4.3709202 -14.3486 144.819
-4.3742399 -14.1409 145.028
-4.13662 -14.674 144.53999
-4.37009 -14.5986 144.552
-4.1838298 -14.9183 144.242
-4.3758001 -14.8493 144.259
-4.2308302 -15.1162 143.978
-4.3958802 -15.0518 143.998
-4.6547399 -14.299 144.77299
-4.6959801 -14.0932 144.97
-4.9376602 -14.284 144.67101
-5.0144701 -14.0858 144.849
-4.6062698 -14.5468 144.521
-4.84128 -14.5237 144.444
-4.5605402 -14.7975 144.246
-4.7353101 -14.7703 144.198
-4.5458202 -14.9928 144.009
-4.6611199 -14.9361 144.02699
-5.20895 -14.3066 144.508
-5.3168602 -14.1186 144.661
-5.4602098 -14.3679 144.29201
-5.59624 -14.1893 144.414
-5.0690098 -14.5339 144.317
-5.28265 -14.5821 144.13901
-4.9012799 -14.7785 144.105
-5.0649099 -14.8204 143.963
-4.7347598 -14.9813 143.933
-4.8515902 -15.0314 143.804
-5.6847701 -14.4637 144.032
-5.8476601 -14.2914 144.12601
-5.8769698 -14.5802 143.748
-6.0641899 -14.4127 143.814
-5.4755602 -14.6664 143.91499
-5.6415401 -14.7723 143.668
-5.2237301 -14.8918 143.77699
-5.3678799 -14.9804 143.567
-4.9865499 -15.0945 143.642
-5.1223602 -15.1666 143.459
-6.0289602 -14.7081 143.453
-6.23632 -14.547 143.48801
-5.77213 -14.8876 143.412
-5.4881601 -15.0699 143.35899
-5.25175 -15.2277 143.287
-4.26544 -15.86 142.69701
-4.2169299 -15.9127 142.59399
-4.4442401 -15.8741 142.56
-4.1139002 -15.8684 142.75101
-4.0446401 -15.9186 142.66299
-4.41889 -15.8236 142.698
-4.1405401 -15.9757 142.466
-3.9637599 -15.9745 142.55499
-4.32513 -15.9644 142.39101
-4.7679701 -15.7867 142.556
-4.6245999 -15.8743 142.437
-4.6401401 -15.7759 142.672
-4.8920298 -15.6871 142.69501
-4.7625799 -15.6755 142.811
-4.5553198 -15.7567 142.76801
-4.6596699 -15.6657 142.895
-4.4997902 -15.9521 142.306
-4.1068001 -15.7318 143.041
-4.0531402 -15.8 142.927
-3.9825599 -15.7237 143.106
-3.96909 -15.7808 142.99899
-4.1579499 -15.6497 143.17599
-4.0244198 -15.641 143.245
-3.59937 -15.9035 142.849
-3.6070499 -15.8424 142.976
-3.6877201 -15.9267 142.772
-3.7701001 -15.8469 142.924
-3.81269 -15.9555 142.662
-3.9005401 -15.9002 142.765
-3.98209 -15.8521 142.843
-3.8951199 -15.8053 142.974
-3.93174 -15.4015 143.672
-4.10039 -15.3174 143.74699
-3.9667699 -15.4807 143.53799
-4.1265101 -15.3953 143.62
-3.7750499 -15.4796 143.592
-3.8045001 -15.595 143.39301
-3.61482 -15.7423 143.17101
-3.62691 -15.6314 143.373
-3.7590201 -15.733 143.155
-3.8738599 -15.7249 143.13901
-3.91765 -15.6261 143.308
-3.6275101 -15.5271 143.55
-4.2728 -15.2452 143.78799
-4.4372001 -15.1818 143.80701
-4.2976499 -15.3312 143.651
-4.5111499 -15.283 143.625
-4.2944498 -15.4077 143.534
-4.4573002 -15.3903 143.487
-4.2653999 -15.484 143.423
-4.4100099 -15.4752 143.373
-4.14465 -15.4562 143.517
-4.16117 -15.4983 143.44299
-4.5857902 -15.107 143.841
-4.6805301 -15.1747 143.69901
-4.2153301 -15.5645 143.306
-4.0942502 -15.558 143.367
-4.3597202 -15.5638 143.243
-4.0147901 -15.5313 143.44
-4.4956598 -15.5672 143.172
-4.5454001 -15.4837 143.29401
-4.6117101 -15.5693 143.10699
-4.63096 -15.5025 143.217
-4.7186799 -15.5627 143.058
-4.70679 -15.4704 143.229
-4.8346601 -15.5615 142.989
-4.8492899 -15.4245 143.22301
-4.9778199 -15.5753 142.868
-5.0391798 -15.461 143.045
-4.8144398 -15.238 143.535
-4.9609499 -15.3032 143.355
-4.69699 -15.3348 143.453
-4.6094298 -15.4107 143.38
-5.1126099 -15.3512 143.186
-6.5970101 -14.7719 142.7
-6.8415098 -14.5975 142.66499
-6.7807398 -14.362 143.158
-6.57444 -15.0028 142.24699
-6.8232098 -14.8542 142.151
-6.5439901 -14.5611 143.13901
-6.4745998 -15.2296 141.825
-6.7210102 -15.1024 141.672
-6.29986 -15.4406 141.466
-6.5358 -15.3319 141.259
-6.0558 -15.6312 141.18201
-6.2709899 -15.542 140.92799
-5.7510099 -15.8005 140.98
-5.9303598 -15.7308 140.683
-5.3916202 -15.9491 140.853
-5.5173402 -15.8973 140.52299
-4.97611 -16.0783 140.79201
-5.0352502 -16.0432 140.442
-4.5101199 -16.1873 140.79401
-4.49722 -16.168501 140.439
-4.0218101 -16.269899 140.87601
-3.93626 -16.266899 140.53101
-3.5440099 -16.3169 141.05099
-3.38901 -16.327299 140.733
-3.0992401 -16.318701 141.308
-2.8822999 -16.3361 141.028
-2.7083001 -16.270399 141.625
-2.44122 -16.2857 141.39301
-2.3982501 -16.177 141.991
-2.09624 -16.1824 141.812
-2.1895299 -16.045099 142.395
-1.86931 -16.035801 142.27
-2.0824001 -15.8752 142.823
-1.75949 -15.8476 142.757
-2.06896 -15.6672 143.26199
-1.75538 -15.6178 143.259
-2.1445 -15.4264 143.69099
-1.84806 -15.3507 143.74899
-2.30003 -15.1663 144.088
-2.02525 -15.061 144.198
-2.5142801 -14.9122 144.429
-2.2655399 -14.7798 144.577
-2.76652 -14.6866 144.7
-2.5494101 -14.5347 144.871
-3.04988 -14.4943 144.90401
-2.86957 -14.3314 145.08701
-3.3613 -14.3308 145.05099
-3.2214999 -14.1626 145.241
-3.69051 -14.1898 145.14799
-3.5941899 -14.0172 145.342
-4.0281801 -14.069 145.196
-3.97492 -13.8889 145.39101
-4.3757801 -13.977 145.192
-4.3666701 -13.7865 145.384
-4.7311301 -13.9239 145.129
-4.7664299 -13.7219 145.317
-5.0808201 -13.9139 144.99899
-5.15628 -13.7005 145.18401
-5.4107299 -13.9468 144.798
-5.5197201 -13.7231 144.979
-5.7164698 -14.0183 144.534
-5.8580399 -13.7881 144.702
-5.9945598 -14.1212 144.222
-6.1712999 -13.89 144.36099
-6.2337298 -14.2457 143.883
-6.4411101 -14.019 143.985
-6.4203401 -14.3882 143.52901
-6.6466198 -14.1716 143.593
11.0773 1.2949899 157.46899
10.9278 1.48789 157.828
10.4045 1.2281801 157.506
10.2586 1.43986 157.866
-11.0721 -5.3919902 153.099
-10.46 -5.1454601 153.412
-11.2062 -5.1083999 153.448
-10.6008 -4.8540702 153.76199
15.9926 1.86283 144.644
15.9683 1.65683 145.09399
