# .PCD v.7 - Point Cloud Data file format
VERSION .7
FIELDS x y z
SIZE 4 4 4
TYPE F F F
COUNT 1 1 1
WIDTH 1741
HEIGHT 1
VIEWPOINT 0 0 0 1 0 0 0
POINTS 1741
DATA ascii
16.4007 -10.9315 41.056999
16.3932 -11.1868 41.5993
16.509399 -10.9019 41.6287
16.431801 -11.2086 42.088402
16.552 -10.9284 42.172199
16.421801 -11.2783 42.525501
16.5382 -11.0117 42.650902
16.370501 -11.3935 42.907001
16.478399 -11.1497 43.063702
16.2834 -11.5495 43.241901
16.3804 -11.3348 43.424
16.1654 -11.7376 43.536098
16.248501 -11.5537 43.7411
16.0194 -11.9522 43.789799
16.084801 -11.8003 44.018902
15.8445 -12.1966 43.992401
15.8879 -12.0769 44.245998
15.6403 -12.4749 44.130798
15.6587 -12.3883 44.4081
15.4086 -12.7773 44.191002
15.4026 -12.7212 44.490299
15.153 -13.0892 44.164299
15.1247 -13.0591 44.481602
14.8781 -13.4034 44.056301
14.8232 -13.4006 44.382198
14.5926 -13.712 43.880402
14.5013 -13.7417 44.201
14.313 -13.9985 43.6548
14.1834 -14.0595 43.957802
14.0516 -14.2476 43.383801
13.8909 -14.3317 43.660099
21.2446 6.4402299 54.5653
21.4189 6.4095898 54.913502
20.9706 6.0389299 54.885101
21.136801 6.03971 55.246799
17.0446 -10.7875 55.980202
16.9692 -10.2748 56.215
17.2526 -10.7682 56.323799
17.1553 -10.2794 56.577599
13.2746 13.1518 44.605099
13.7289 12.9792 44.788502
13.8928 12.5387 45.945801
13.1767 13.2104 43.587601
13.6128 13.1306 43.509399
13.0332 13.1601 45.036201
12.4822 13.3532 43.5564
13.1729 13.1854 42.260101
12.6822 13.2354 42.115002
12.7772 13.0347 40.9515
13.5441 13.1581 42.177399
13.1433 13.0209 40.991699
13.4351 13.028 40.905701
12.9487 12.7014 39.856098
13.2026 12.7098 39.7523
12.7148 12.2188 38.830299
12.9595 12.2142 38.7122
12.6616 12.718 39.889999
12.4687 12.2595 38.9039
8.8544703 13.7308 40.971199
9.2225199 13.6042 40.540401
10.3317 13.5483 41.3312
7.8884401 13.7291 40.258202
8.2436895 13.6182 39.7859
8.4735298 13.8283 41.3918
7.5355 13.8047 40.6535
9.8352098 13.726 41.893902
9.4133797 13.8464 42.318901
10.8805 13.6669 42.997601
10.3674 13.8244 43.4282
11.8173 13.5493 44.241501
11.2319 13.741 44.645901
11.4192 13.499 42.428699
8.0755196 13.9063 41.819099
7.1833501 13.8593 41.046902
7.6672001 13.9693 42.251499
6.83496 13.8962 41.439098
8.9753904 13.9495 42.7416
8.5206499 14.04 43.181
12.5502 13.2619 45.438301
11.9682 13.4539 45.754002
13.2051 12.7414 46.3834
13.6891 12.2886 47.2117
14.4445 11.9437 47.142502
11.451 13.6469 46.0439
10.6997 13.9262 45.005001
10.9852 13.8363 46.3419
10.1926 14.1006 45.3769
12.5961 11.5636 37.867298
12.3654 11.6361 37.954201
12.287 10.6892 36.864799
12.8343 11.5572 37.763199
12.5591 10.7563 36.992001
12.7897 10.7493 36.923698
12.5628 9.8136101 36.258701
12.7785 9.7961197 36.227699
12.7331 8.6893902 35.7682
12.9364 8.6348 35.735802
12.4285 9.7258596 36.1959
12.5898 8.7117596 35.742001
15.2836 -1.96847 38.297001
15.0754 -1.97005 38.024899
15.0399 -2.25753 38.134102
15.2112 -1.64596 37.9543
15.0645 -1.7453001 37.853699
15.5004 -1.9515001 38.586399
15.4312 -1.55045 38.153301
15.2498 -2.2967501 38.445499
15.4551 -2.33412 38.766701
15.7167 -1.9500901 38.912899
15.6673 -1.50843 38.433601
15.9294 -1.94864 39.255199
15.905 -1.48072 38.743801
15.6547 -2.3689301 39.104099
15.8466 -2.4010799 39.4501
13.0577 7.3596902 35.4119
13.5111 5.83881 35.229301
13.7638 5.75629 35.239899
12.882 7.43891 35.390598
13.2987 5.91956 35.207001
13.2774 7.2731299 35.392101
14.0976 4.2034302 35.363098
14.7493 2.7091801 35.799198
15.0212 2.78986 35.841499
13.8373 4.2309799 35.300499
14.4854 2.62323 35.736698
14.3686 4.18466 35.396801
14.8623 -1.92313 37.726398
14.9034 -1.6251301 37.578201
14.6346 -1.48332 37.2034
14.8185 -2.2153399 37.818802
14.6071 -1.84815 37.389801
14.5617 -2.1645601 37.4841
15.028 -1.32771 37.503799
14.7019 -1.03602 36.999199
15.2324 -1.0886 37.558899
14.7262 -0.33853999 36.700901
15.4783 -0.97786301 37.748901
15.0851 -0.19723099 36.933899
15.7291 -0.92868799 37.9879
15.3383 -0.140633 37.110199
14.4914 0.93848902 36.102001
13.8431 2.34447 35.409698
13.5917 2.30444 35.208401
14.7303 0.99611503 36.252899
14.0431 2.4391401 35.548801
14.1647 0.92542398 35.851601
16.755699 -2.01368 40.796501
16.430599 -1.9388 40.1082
16.276699 -2.4700799 40.276199
16.993401 -1.61365 40.7505
16.5688 -1.3209 39.590302
17.117701 -2.10324 41.638802
17.2341 -1.79447 41.494301
16.5839 -2.51721 40.900501
16.963301 -2.57178 41.729401
16.1563 -1.93093 39.619301
16.162901 -1.41819 39.061798
16.0418 -2.4328301 39.818199
17.3283 -1.3329099 41.0084
17.5473 -1.71592 42.1189
18.056999 -1.50124 43.290001
16.9562 -0.92055899 39.661201
17.7103 -1.03286 41.2953
17.2981 -0.595281 39.715698
15.4335 1.40999 36.483002
15.179 1.2410001 36.424999
15.8013 0.14352401 37.314701
15.7005 1.58688 36.531799
16.055901 0.37566799 37.368198
16.3279 0.63351399 37.407101
16.5478 -0.37995601 38.426102
16.849199 -0.070506997 38.440899
16.252399 -0.64988399 38.354401
15.9798 -0.83342999 38.199501
15.5677 -0.03435 37.234402
14.9486 1.09698 36.353298
14.2493 2.533 35.653801
17.521 -2.1442499 42.660099
17.9212 -2.1445 43.998001
17.381701 -2.6228499 42.790401
17.7721 -2.6492901 44.124901
21.343201 6.0859399 57.441299
21.376699 6.1839199 57.761101
21.7388 6.6361699 57.626701
21.063499 5.7114902 57.623901
21.156099 5.8603702 57.810699
21.285 5.9770899 57.101601
20.9652 5.5717702 57.335499
21.7125 6.4998298 57.219398
21.657 6.3706002 56.813301
18.668699 -1.91987 50.058701
18.7171 -1.89647 50.935902
18.893101 -1.34006 50.929401
18.498699 -2.48507 50.0844
18.5539 -2.4465799 50.956799
18.6201 -1.961 49.1679
18.4478 -2.5257199 49.194
18.8538 -1.36149 50.038502
18.814699 -1.40142 49.148899
19.0567 -0.78396797 50.009102
19.0905 -0.74384201 50.903099
19.285801 -0.14725301 50.8307
19.0259 -0.826199 49.137199
19.256001 -0.214268 49.9809
19.238199 -0.2431 49.1712
19.3962 0.211457 49.9739
19.430901 0.32438499 49.375401
19.4473 0.38820201 50.631199
19.6024 0.93423998 50.093498
19.864901 3.6368799 59.111801
19.896601 3.95683 59.428001
20.059299 4.1350598 59.190601
19.741301 3.5517299 59.4207
19.792101 3.8044901 59.5737
19.806801 3.3206501 58.874599
19.677601 3.21297 59.224899
20.003 3.7437699 58.844501
19.941799 3.4156101 58.585499
18.976101 -1.47396 56.025902
18.6481 -2.1595199 56.053501
18.520599 -2.0949099 56.528198
19.0578 -1.47189 55.5797
18.7349 -2.2109499 55.6091
19.4548 -0.85019398 56.055901
19.4958 -0.82835799 55.612598
18.8071 -1.52228 56.517399
19.2682 -0.90613699 56.684898
22.2048 7.3007498 57.912498
22.190399 7.0897698 57.425201
22.2013 7.52566 58.378899
21.740601 6.7807498 58.0532
21.7209 6.92592 58.473999
22.1525 6.9050102 56.9506
22.0746 6.7438698 56.491699
21.3717 6.2512898 58.102402
21.0951 5.7779198 58.023499
21.0418 5.7072401 58.325298
21.341801 6.3028002 58.463699
20.266399 7.4871001 61.529999
19.687799 6.4821 61.912102
19.5254 6.7400899 62.305302
20.4214 7.24049 61.225399
19.8482 6.2411499 61.573502
20.909401 8.4950199 61.145
21.063101 8.2345695 60.863602
20.101101 7.7377501 61.868
20.737801 8.7489004 61.432499
21.4438 9.4514198 60.882801
21.2549 9.7119999 61.132801
21.6201 9.1708002 60.618301
19.608801 3.5100501 59.831299
19.726299 3.9114299 59.9076
19.487801 3.5200901 60.280899
19.636499 4.04214 60.335701
19.5361 3.1122 59.678101
19.4193 3.0731599 60.174301
19.898001 4.3123899 59.8568
20.1322 4.65517 59.637001
19.871901 4.6337199 60.301701
20.267799 5.38625 60.126598
20.878 5.41116 57.833199
20.7731 5.18854 58.097599
20.7139 5.1683302 57.537701
20.507401 4.6982899 57.735699
12.2644 10.6643 64.500298
11.6392 10.1532 64.686302
12.5797 10.4994 64.830803
11.7468 9.6994495 65.204201
10.9472 9.4314299 64.983002
11.0596 9.0165701 65.423103
10.6555 8.57798 65.5336
10.7922 9.7858801 64.533302
10.4746 8.7091799 65.312698
10.2486 8.9096804 64.995003
4.1293201 10.2408 56.729
3.57599 9.5201902 56.713699
2.9000299 9.2014999 55.615299
4.8919401 10.634 57.666199
4.2670002 9.8191795 57.695801
4.6953702 10.8898 56.749401
3.5460999 9.9220896 55.874199
4.1656799 10.6652 55.8992
9.8806801 13.9681 43.827801
9.3952503 14.097 44.243999
13.5435 0.31031299 69.342598
13.7374 0.864797 69.3022
12.8387 0.61738002 69.008698
13.0212 1.16267 68.9711
13.3194 -0.28449401 69.341698
12.6332 0.017724 69.005997
12.1305 0.89287001 68.560204
12.2947 1.44451 68.533401
11.2441 1.2323101 67.932602
11.4015 1.73939 67.940201
11.9498 0.31345099 68.544502
11.1093 0.65364301 67.951401
19.2668 5.6307702 62.252102
19.1131 5.90025 62.691601
19.0131 4.9661298 62.5499
18.8687 5.2403402 63.0341
19.4032 5.41676 61.8978
19.122101 4.7835002 62.167599
18.890699 4.4690599 62.8479
18.7589 4.7187901 63.364601
18.891899 4.06742 63.184299
18.7591 4.2927699 63.718399
18.993401 4.2996898 62.4011
18.995399 3.9087801 62.676399
18.6168 -1.6031801 57.048199
18.4118 -2.0336299 57.033401
18.3598 -1.98729 57.5527
18.8778 -1.23247 57.2192
18.495501 -1.66511 57.5835
18.6859 -1.37622 57.7272
18.5825 -1.65657 58.772202
18.4767 -1.94603 58.752998
18.520201 -1.66887 58.473301
18.413099 -1.94722 58.445999
18.7178 -1.4009 58.832901
18.6625 -1.41864 58.555
19.6185 2.0027499 58.3209
19.559999 1.91524 58.653599
19.585199 2.39678 58.8228
19.582701 1.47798 58.214298
19.546301 1.44019 58.5224
19.732 2.07915 58.0294
19.692499 1.49229 57.935799
19.672899 2.52492 58.475498
19.792999 2.6314299 58.177101
19.567801 1.11216 58.164902
19.5471 1.02584 58.394199
19.6581 0.984644 57.924198
19.590799 0.56855202 58.084999
19.506701 2.7137401 59.5005
19.5089 2.3023 59.319099
19.498899 2.30142 60.1115
19.6241 2.8311901 59.019699
19.4217 2.6877401 60.073502
18.48 -1.67978 58.0784
18.371201 -1.96016 58.045898
18.6385 -1.42349 58.1931
19.942699 2.80826 65.323898
19.7927 2.8857701 65.001404
20.120899 2.6482 64.745796
19.7938 2.9618199 65.635201
19.546101 3.1182899 65.330101
20.166401 2.6705799 65.407997
20.0462 2.8022201 65.880798
21.446501 2.1401601 66.684303
21.609699 2.04702 66.193604
20.9123 2.33461 66.0952
21.052299 2.23244 65.5849
21.2519 2.18804 67.188904
20.7418 2.4254799 66.6017
20.4883 2.51003 65.659401
20.591999 2.40962 65.113701
20.3433 2.6294799 66.1707
21.748699 1.90658 65.654297
21.866301 1.72776 65.094002
21.1556 2.11765 64.9841
21.1073 1.9895999 64.047798
19.510099 3.0908201 64.549301
19.2843 3.32798 64.954399
19.035999 3.6043401 64.538002
19.7031 2.91432 64.120796
19.2141 3.3847499 64.066498
19.3627 3.2249501 63.591099
19.000601 3.71244 63.596699
18.8536 3.9265599 64.114601
19.121 3.5583799 63.089901
19.7386 2.9649799 58.6646
19.869699 3.0692101 58.3657
12.1402 6.6937699 34.4296
12.044 7.3605299 34.554401
11.7805 7.3341699 34.2183
12.3808 6.6363602 34.684799
12.3006 7.2681198 34.822601
12.254 6.1792002 34.406502
12.4161 6.2629499 34.608101
11.8894 6.6020098 34.093899
12.0225 6.0339298 34.094398
11.9607 8.23423 34.840099
12.1984 8.1205301 35.074699
12.0993 9.0644503 35.480701
11.7066 8.2888498 34.555199
11.8853 9.1820097 35.2924
11.6503 9.2948599 35.072701
11.817 10.0189 35.844898
12.0241 9.9004898 35.9832
11.9783 10.4151 36.349998
11.5803 10.1595 35.676102
11.8052 10.6286 36.3764
11.4483 10.9457 36.344601
12.4061 5.6322598 34.433201
12.5721 5.8687901 34.667198
12.6248 4.8288898 34.5135
12.8215 5.04845 34.750099
12.1751 5.4485602 34.1301
12.3788 4.6500902 34.223099
13.7257 0.95483798 35.488201
14.0974 -0.071180999 36.072899
13.2823 1.0475399 35.113602
13.5848 0.045345999 35.626701
13.2735 2.2889199 34.952599
12.9765 2.2741799 34.736
14.2489 -0.83125901 36.507401
14.2746 -1.3691601 36.807701
13.7693 -0.707178 36.073002
13.8622 -1.27995 36.419701
14.2856 -1.77316 37.026699
14.2484 -2.0996201 37.124199
13.9063 -1.69849 36.6558
13.8771 -2.0193601 36.7528
12.9264 3.6696801 34.687698
13.1554 3.7988601 34.8955
12.6563 3.5481 34.4268
12.614 6.2630401 34.818901
12.5375 6.9419498 34.964401
12.9109 5.3922 34.907001
12.8926 6.0901899 35.057598
12.392 7.9091201 35.2034
12.2578 8.9499397 35.5984
12.5584 7.6682401 35.2673
12.3715 8.8298702 35.646
13.2995 3.98842 35.026699
13.4191 4.17138 35.1161
13.6008 4.2412701 35.211399
13.1057 5.9923 35.1604
12.718 7.5169301 35.3288
12.4742 8.7376099 35.681099
9.2651796 13.2168 38.7533
8.93009 13.3714 39.0807
8.7386904 13.3847 38.925301
9.6813602 13.1324 38.926102
9.3427 13.315 39.3125
9.6507998 12.9809 38.311199
10.0162 12.9115 38.4953
8.9556799 13.2758 38.6791
9.3484898 13.0371 38.242401
12.2372 12.7619 39.855801
12.2085 13.0675 40.774502
11.589 13.1004 40.525902
12.1409 12.3504 38.940201
11.7425 12.8162 39.766899
11.7547 12.4623 38.9417
11.1466 11.7718 37.124199
11.5445 11.3597 36.917599
11.6523 11.6687 37.456902
11.0147 11.5368 36.666401
10.6681 12.222 37.442902
10.419 12.0812 36.992901
11.2629 11.9939 37.599201
10.8316 12.3292 37.802799
10.1429 12.6421 37.8634
9.8578501 12.6574 37.686298
10.3977 12.6424 38.099899
11.3652 12.244 38.1991
11.3562 12.5658 38.906399
10.933 12.6715 38.823898
11.7366 12.035 38.135101
10.9553 12.4643 38.273701
11.2642 12.8706 39.6334
10.7686 12.9358 39.434898
11.0573 13.136 40.284199
10.5193 13.1886 40.016201
10.6154 12.6362 38.338501
10.4651 12.7984 38.684502
10.2311 13.0135 39.160999
9.9229097 13.2421 39.651699
11.9133 13.3061 41.6619
11.1707 13.3388 41.100601
10.8092 13.3176 40.709202
10.2852 13.3957 40.552898
9.5799303 13.4416 40.104
8.9375896 13.4707 39.606499
12.0763 11.8179 38.053001
11.9912 11.337 37.312302
11.859 10.9993 36.771702
12.069 10.5467 36.5368
8.53862 13.4836 39.244801
8.4590502 13.4454 38.9828
8.00354 13.5714 39.280499
8.0114098 13.4952 38.966702
8.6293602 13.3235 38.638302
9.0110798 13.0845 38.1511
8.2340403 13.3581 38.562801
8.6414499 13.1292 38.056198
9.5071096 12.7216 37.562698
9.1310101 12.8067 37.477901
9.50844 12.4542 36.8876
9.9015799 12.2994 36.917801
20.171301 4.2294002 56.5578
20.112801 4.2150002 56.2015
20.0516 3.8271501 56.268501
20.2915 4.5940599 56.495899
20.2262 4.5877299 56.123501
20.219601 4.23142 56.859299
20.3456 4.5995698 56.845501
20.113001 3.90222 56.632599
20.1597 3.9811499 56.845299
20.1008 3.6099 56.7705
20.172701 3.8708799 57.035599
20.1304 3.3808 57.0056
20.2062 3.75367 57.319302
20.028 3.3987601 56.3437
20.058399 2.8617301 56.4888
20.4828 4.98067 56.395599
20.7327 5.36445 56.216301
20.635201 5.3317499 55.8298
20.545401 5.0050802 56.768501
20.812099 5.4099898 56.596901
20.406099 4.9628501 56.0098
20.2628 4.2048602 57.1889
20.4037 4.6134501 57.236301
20.305901 4.1502099 57.550598
21.5979 6.43329 55.263401
21.7773 6.5009198 55.635799
21.297199 6.08147 55.603802
21.443199 6.1531801 55.981701
20.6119 5.0503201 57.1609
20.8855 5.4758601 56.980499
21.2127 5.8776698 56.719501
21.1224 5.7936902 56.3237
21.566601 6.2516298 56.392601
21.013 5.7302198 55.9426
20.8829 5.6865902 55.569901
21.9447 6.6063399 56.048
18.880699 -1.73081 53.620998
18.688801 -2.31949 53.632401
18.7148 -2.2731099 54.506302
18.8237 -1.83358 52.666599
18.660801 -2.3706501 52.672001
19.1052 -1.12894 53.659302
19.010201 -1.25563 52.706799
18.9538 -1.60829 54.485401
19.241301 -0.98018402 54.5149
19.976101 1.98826 55.552898
20.093201 2.09601 56.259701
20.013901 1.3685 55.439999
20.161501 1.4256099 56.107601
19.854 1.8535 54.777599
19.841 1.28291 54.685501
19.948 2.6280999 55.678001
19.8547 2.4751599 54.922401
20.023001 0.78164899 55.379501
20.207199 0.80685401 55.9856
19.940201 0.22394 55.323898
20.1369 0.24227101 55.861099
19.7945 0.72367501 54.659698
19.684299 0.160918 54.644001
19.315201 -0.52469498 53.731201
19.2047 -0.63019401 52.7668
19.493999 0.082142003 53.788601
19.386101 0.0043609999 52.806198
19.494801 -0.40506601 54.586601
19.625601 0.66022801 53.813801
19.5326 0.59652501 52.816601
19.7099 1.20689 53.855202
19.6388 1.1460201 52.857101
19.757999 1.75646 53.965099
19.708599 1.69724 52.9874
19.779699 2.37463 54.1404
19.742599 2.32288 53.207401
19.7876 3.0648799 54.338799
19.8001 3.70631 54.501701
19.732 3.6977601 53.728199
19.8657 3.1333899 55.063702
19.893101 3.7337601 55.1586
19.742201 3.0303199 53.477501
19.949301 3.24052 55.7467
19.9799 3.7729499 55.760201
19.8335 4.2135301 54.596001
19.745899 4.2425399 53.906101
19.907301 4.62533 54.629799
19.806 4.6958499 54.007401
19.939199 4.2042198 55.190899
20.023701 4.5931101 55.174599
20.300699 4.9527402 55.579601
20.136299 4.58464 55.6777
20.1723 4.9633598 55.111198
20.511299 5.3148699 55.419399
20.3682 5.33006 54.9804
19.1366 -0.69788599 51.816299
18.942499 -1.31868 51.8009
19.3255 -0.068778999 51.7878
18.768999 -1.8818001 51.780899
18.6129 -2.41151 51.791698
19.4872 0.522569 51.689602
19.6187 1.08847 51.623699
19.7183 1.67249 51.7407
19.773399 1.69095 50.351002
19.772301 2.3275199 52.026901
19.862 2.4014599 50.717602
19.7174 4.3151498 53.0597
19.7836 4.4693398 52.049099
19.8402 3.86988 51.654499
19.749599 4.8224902 53.251999
19.768999 5.0237398 52.3344
19.735901 3.7402999 52.768902
19.772499 3.05299 52.395599
19.8818 3.16294 51.18
20.041401 5.0121598 54.606899
19.929399 5.12323 54.0326
20.2251 5.3994799 54.504101
20.108299 5.55551 53.962299
19.856199 5.3223901 53.343201
19.829901 5.6015902 52.508801
20.0217 5.8203702 53.326199
19.949699 6.1923399 52.562199
20.0368 4.2061501 55.735401
20.219 6.3199 53.222801
20.113501 6.7685399 52.5257
20.319201 6.00776 53.798901
19.7234 -0.31508899 55.234501
19.884501 -0.29073301 55.7244
19.4004 -0.86950803 55.145599
19.0338 -1.51582 55.114498
18.745399 -2.24264 55.1408
20.7351 5.67027 55.184898
20.5798 5.7003698 54.770802
20.434 5.8027601 54.313099
15.2754 11.6182 47.014
15.6237 11.2331 48.044998
16.121901 11.3425 46.814899
16.3899 10.9496 47.963501
14.9016 12.1318 45.863998
15.8018 11.8854 45.575901
15.9938 10.9589 48.9198
16.7197 10.6659 48.925301
18.2367 -2.12098 45.597
18.073799 -2.6382201 45.668701
18.271299 -2.6034501 47.129501
18.4573 -1.55476 45.428699
18.441099 -2.0716701 47.0951
18.6553 -1.51238 47.037102
19.9877 1.98676 46.787498
20.084299 2.2026401 45.9146
19.8475 1.40897 45.048801
20.1436 2.80321 47.460201
20.226 3.0111201 46.6721
19.9093 1.84163 47.839401
20.058399 2.6502299 48.384499
19.757 1.2115901 46.101398
19.699499 1.09284 47.3783
17.460899 10.3299 48.932098
18.1926 9.9476099 48.9781
17.1651 10.6317 47.883999
17.9277 10.255 47.8727
18.555099 -2.0154099 48.2444
18.3839 -2.5646901 48.270699
18.757999 -1.4591 48.223301
18.743299 -0.91391498 45.196899
18.902399 -0.90507901 46.952202
19.172701 -0.26152799 46.928902
18.4729 -0.81467402 43.1609
19.0861 -0.22795001 45.149899
18.9648 -0.0056449999 42.989101
20.2281 3.6533101 48.049301
20.3013 3.84603 47.274899
20.248501 4.4857202 48.541302
20.319799 4.6881099 47.750999
20.1397 3.4941599 48.939499
20.146601 4.2923498 49.448502
18.981701 -0.87533402 48.207001
19.216 -0.26389199 48.236599
19.4433 0.47149599 45.494801
19.5033 0.69698799 44.123699
19.447001 0.40040401 47.063599
14.4771 12.745 44.681702
15.3308 12.5735 44.371101
14.2226 13.0198 43.3223
14.9812 12.8828 43.014099
14.0452 13.1244 41.9855
14.6912 13.0599 41.7215
13.8411 13.0394 40.735401
14.3907 13.0209 40.5121
13.5608 12.7248 39.590099
14.0544 12.7163 39.3946
13.2997 12.2142 38.5527
13.7619 12.1976 38.379101
13.1583 11.5484 37.621899
13.5923 11.5259 37.4734
13.1024 10.7246 36.808899
13.5183 10.6851 36.680901
13.0779 9.7578897 36.147301
13.4768 9.7100601 36.045502
13.2181 8.5727301 35.655899
13.5945 8.5123701 35.553902
13.5608 7.1921501 35.326801
13.9355 7.1219301 35.252602
14.0653 5.68291 35.221298
14.4461 5.62187 35.191898
14.6596 4.1838298 35.405102
15.032 4.2021599 35.420502
15.3054 2.8700099 35.872299
15.6732 2.96632 35.918598
18.083 -0.58049202 41.246101
17.6327 -0.22667199 39.668499
18.465599 -0.03266 41.027302
18.0016 0.19098599 39.610001
17.1602 0.249634 38.439499
16.621799 0.89646101 37.443001
17.522499 0.59054703 38.460701
16.980499 1.16982 37.492298
15.9849 1.7643 36.576698
16.346701 1.95322 36.633499
20.2106 5.25981 48.953999
20.289 5.4984102 48.1385
20.1359 6.0095901 49.295898
20.219801 6.2929702 48.436501
20.0949 5.0058498 49.878601
20.0166 5.6798301 50.238098
18.857401 9.5121298 49.094501
19.3873 8.9721498 49.2878
18.623199 9.8020697 47.9715
19.2132 9.2643995 48.173698
19.446301 0.37093201 48.382801
19.6614 1.04021 48.6623
19.8398 1.74875 49.028
19.9662 2.51911 49.473099
20.019899 3.3263299 49.992699
20.000601 4.07761 50.506302
19.934 4.71877 50.9422
19.873501 5.3210802 51.287399
19.733101 8.3079796 49.498199
19.8445 7.8367901 50.597401
19.923901 7.5589099 49.614601
19.898399 7.1078801 50.638599
19.6607 8.6274796 48.425098
19.9492 7.8955402 48.605701
20.0404 6.7786698 49.540901
20.1133 7.1008701 48.608299
19.9468 6.37783 50.515598
19.8598 5.95997 51.538898
19.896 6.6287899 51.649899
19.969801 7.2866998 51.649399
16.8255 4.5349498 35.716801
16.288401 5.7117801 35.384499
15.5529 5.6282501 35.2537
17.5756 4.7897902 35.962601
17.1336 5.8481498 35.641701
17.3645 3.5432401 36.251099
18.007 3.89937 36.468201
16.1453 4.36341 35.572701
16.7619 3.2860799 36.1129
15.8118 6.9964199 35.308498
15.0537 6.9938402 35.208099
15.4774 8.2723703 35.483101
14.7176 8.3572502 35.4328
16.714899 7.0061598 35.5518
16.397301 8.1665897 35.688499
15.9983 12.3195 38.9356
16.410801 12.5489 39.912701
15.7134 12.7902 40.062099
16.7864 11.9571 38.866299
17.1632 12.1576 39.774899
15.6645 11.8618 38.018398
16.4937 11.5387 38.001099
15.307 12.5323 39.0401
14.9649 12.0462 38.098598
16.853901 12.518 40.940498
16.1266 12.7752 41.164902
17.321199 12.2737 42.0061
16.5674 12.5392 42.3321
17.587799 12.123 40.7061
18.0275 11.8902 41.654099
17.8169 11.8842 43.090099
17.072399 12.1643 43.566399
18.355101 11.3641 44.0924
17.764099 11.3355 44.986801
18.4564 11.5154 42.594898
18.8561 11.0367 43.449799
18.943501 10.5595 44.806099
18.7092 10.43 45.637901
19.437799 9.7652102 45.3269
19.307199 9.6652899 46.107498
19.2227 10.4777 44.146
19.5784 9.80056 44.656502
19.819 9.0253801 45.705502
19.744699 8.9500399 46.469101
20.0921 8.3193598 45.956402
20.038 8.2409801 46.716499
19.901899 9.0779495 45.021702
20.1546 8.38412 45.265999
20.264999 7.6215401 46.0895
20.215 7.50912 46.838699
20.3741 6.91752 46.1082
20.326 6.7554898 46.825401
20.321501 7.7199998 45.391399
20.4261 7.0689998 45.412399
20.4482 6.2020798 46.003101
20.399401 5.9903498 46.666199
20.494301 5.46942 45.756401
20.440599 5.2062101 46.363998
20.5005 6.4149599 45.335701
20.5546 5.6928 45.1255
20.508301 4.6848898 45.3592
20.441999 4.4133301 45.931999
20.482599 3.9129801 44.857399
20.4018 3.5991099 45.382599
20.577 4.9484501 44.776501
20.563801 4.2684202 44.334702
20.4161 3.26436 44.2925
20.305901 2.7061601 43.636002
20.153999 2.2207699 43.983501
20.516899 3.70051 43.8368
20.4424 3.22137 43.257301
20.310301 2.8661499 44.738098
20.145 2.2086 42.846901
19.922701 1.82523 41.915798
19.623899 1.233 42.056301
20.3377 2.80159 42.556801
20.180201 2.4649899 41.7286
19.9223 1.6489 43.093399
19.6304 1.62394 40.8694
19.2722 1.05565 40.901299
19.2645 1.6247 39.7742
18.868401 1.11306 39.723701
19.9461 2.25863 40.793999
19.630699 2.2213099 39.798599
18.833 1.82198 38.710701
18.362801 2.20485 37.748699
17.904699 1.80808 37.650398
19.2488 2.37379 38.805302
18.8363 2.7067299 37.8908
18.4112 1.36861 38.625099
17.875601 2.7710099 36.9296
17.353901 2.4382701 36.811901
18.4233 3.2091801 37.110901
15.3349 9.42875 35.873501
14.6023 9.54459 35.864399
15.344 10.4159 36.4492
14.6299 10.5643 36.4818
16.241199 9.2356005 36.0252
16.2253 10.1651 36.5411
15.4507 11.225 37.1777
14.7453 11.3913 37.2384
16.309099 10.9362 37.212502
17.697701 7.03017 35.9683
18.590099 7.0892601 36.5079
18.3944 7.9195299 36.592701
18.0289 6.0397801 36.0588
18.8309 6.2744799 36.590698
17.433701 8.0319099 36.075802
17.2894 8.9769402 36.360699
17.2591 9.8175497 36.803699
18.278601 8.7201099 36.828899
18.244301 9.4461603 37.193501
17.3174 10.5217 37.381699
17.458599 11.0653 38.064098
18.278 10.0583 37.660198
18.371 10.5273 38.208099
17.681 11.4306 38.817501
17.972799 11.6025 39.611698
18.516899 10.8372 38.819099
18.7103 10.9867 39.4772
18.311399 11.5803 40.4272
18.662201 11.3872 41.261799
18.9405 10.9844 40.170898
19.185499 10.8417 40.896999
18.9932 11.0617 42.094898
19.287901 10.6458 42.849998
19.423 10.5799 41.630402
19.639 10.2366 42.292099
19.5476 10.1671 43.4603
19.793301 9.6223202 43.9347
19.832199 9.8373804 42.819599
20.016199 9.3693199 43.2356
20.0357 9.0145397 44.301998
20.245399 8.3857498 44.551701
20.198799 8.82903 43.577999
20.3606 8.26618 43.8269
20.3943 7.7706499 44.671299
20.4946 7.1575398 44.6824
20.482201 7.7248302 43.9543
20.5702 7.1900501 43.9734
20.569401 6.5269399 44.606998
20.6231 5.8839598 44.429699
20.6381 6.6401 43.906502
20.688999 6.0925202 43.752998
20.6509 5.2543502 44.138599
20.7209 5.5760198 43.512199
20.728701 5.10569 43.204899
20.6492 4.6799202 43.7659
20.6187 4.1894398 43.340698
20.569 3.7757599 42.844898
20.7113 4.6891298 42.848999
20.6782 4.3327198 42.433998
20.502199 3.42558 42.246498
20.3965 3.14675 41.532501
20.634199 4.0419302 41.936199
20.5655 3.82179 41.334202
20.2264 2.9658 40.713001
19.9842 2.9232299 39.827
20.453199 3.6854401 40.628399
20.285999 3.6611099 39.858101
19.680799 3.0476799 38.9328
19.3494 3.33248 38.102402
20.0665 3.7711599 39.082401
19.819 4.0121298 38.361801
19.019899 3.76563 37.390301
18.6957 4.3620601 36.805199
19.568899 4.37711 37.740898
19.3232 4.87854 37.231701
18.3673 5.1308799 36.3493
19.078501 5.52143 36.839699
19.9639 4.9421501 38.097801
19.776699 5.3628101 37.670101
20.1535 4.6336498 38.620701
20.3363 4.4274001 39.225399
20.493 4.32481 39.878899
20.607901 4.3264699 40.5345
20.6831 4.4203701 41.137699
20.729601 4.5914102 41.649799
20.760099 4.8312201 42.073399
20.782101 5.1321301 42.429798
20.789801 5.48031 42.7351
20.775801 5.8650098 42.993999
20.7432 6.2888198 43.196499
20.696501 6.7504802 43.3274
20.636299 7.2262301 43.378601
20.559299 7.69592 43.3423
20.4585 8.1725101 43.205502
20.332199 8.6635504 42.9678
20.1931 9.1289597 42.6581
20.0522 9.5265198 42.2929
19.904301 9.8603201 41.836498
19.741301 10.142 41.2654
19.5681 10.3491 40.632999
19.3972 10.4506 40.0103
19.244499 10.4339 39.426399
19.122999 10.2952 38.889
19.036501 10.0288 38.4044
18.986601 9.6342497 37.978401
18.975901 9.1238604 37.614399
19.0103 8.5214996 37.3237
19.0986 7.8621802 37.132801
19.594 5.89713 37.3456
19.413601 6.51719 37.140099
19.240499 7.18327 37.068199
19.6833 1.12112 43.390598
19.2962 0.664657 42.223301
19.989901 1.7663 44.384701
15.4004 12.9475 41.431301
15.0324 12.941 40.270199
15.7823 12.7288 42.669102
20.195101 2.49526 45.249298
20.316299 3.31264 45.983002
20.372801 4.1071801 46.567001
20.3818 4.9349399 47.026199
20.3482 5.7477999 47.377201
20.2796 6.5467601 47.606998
20.1691 7.34407 47.690899
19.9879 8.1130104 47.615898
19.6738 8.8263302 47.393101
19.204599 9.4958096 47.081799
16.2222 12.3866 43.9907
16.709801 11.6862 45.263
18.5788 10.1331 46.759399
17.817301 10.6843 46.564701
16.9757 11.0677 46.6147
14.4273 7.0588298 35.209099
14.9398 5.5901198 35.194199
14.091 8.4485798 35.477699
15.5346 4.2572198 35.4762
16.176701 3.0996399 36.001999
14.6528 12.6564 39.1992
14.3286 12.1476 38.222599
13.9832 9.6441498 35.941799
14.0262 10.6437 36.569599
14.1276 11.4804 37.342701
18.872499 0.51506299 40.9146
18.4298 0.63984102 39.6432
16.823601 2.1726201 36.714401
17.426701 1.46989 37.5644
17.957199 0.96291 38.531601
20.1551 2.1164601 56.824699
20.139601 2.7525201 57.041801
20.1012 2.1006401 57.2813
20.1136 2.71468 57.459499
20.209101 1.42986 56.6604
20.115299 1.4260499 57.136398
20.1756 3.2546999 57.333599
20.2416 3.6622901 57.636299
20.157301 3.19487 57.695801
20.217899 3.58338 57.963699
20.243099 0.79093897 56.502102
20.1117 0.78795099 56.993198
20.155399 0.212705 56.336201
20.010099 0.21322 56.8391
20.7141 5.0485401 58.421299
20.9837 5.66536 58.667
20.6071 4.9595399 58.8074
20.861099 5.6440701 59.079102
20.4851 4.5186 58.152199
20.416201 4.4014201 58.505001
20.333 4.0647702 57.898701
20.296 3.9602001 58.227901
21.2875 6.3554602 58.831799
21.6754 7.0643601 58.868198
21.1744 6.4166999 59.245399
21.593599 7.2101202 59.264301
22.038401 8.1987305 59.570801
21.9139 8.4963799 59.959202
21.462 7.3624101 59.691502
21.1891 7.3988099 60.2085
22.121401 7.9639802 59.187801
19.878901 -0.323064 56.174801
19.749399 -0.314327 56.694099
22.1724 7.7438402 58.800301
20.165899 3.8526001 58.548599
20.2549 4.2814202 58.866699
20.100201 3.5023999 58.2864
20.3972 4.8583298 59.247601
20.626801 5.6028199 59.577499
20.9772 6.4721298 59.7271
20.6971 6.3948598 60.203499
19.872 0.85604501 57.493999
19.784901 0.31682599 57.416401
19.9034 1.4576 57.5728
19.601999 -0.17716099 57.321499
19.507401 0.044551998 57.966999
19.3403 -0.59655899 57.338799
19.3715 -0.34161901 57.9375
19.924801 2.09974 57.685902
19.969101 2.6877501 57.8419
20.033199 3.1422601 58.046001
10.1268 1.5136 67.202698
8.8923798 1.81982 66.294403
9.08148 2.70976 66.3414
9.9832897 0.92861801 67.225098
8.7493696 1.21105 66.324898
10.349 2.0562799 67.278999
7.7282801 2.06107 65.228996
6.74821 2.2533901 64.155197
6.8661499 3.0522001 64.123299
7.5952001 1.46301 65.264503
6.6089501 1.6693701 64.189003
7.79003 2.8761499 65.165901
0.76775998 3.3188801 55.301899
0.31014001 3.4307201 54.453098
0.394416 4.0714402 54.491402
0.66005403 2.78708 55.306599
0.197026 2.85112 54.453098
1.24649 3.21488 56.1572
1.13657 2.7111001 56.170399
0.86165798 3.9586501 55.334301
1.3563499 3.86306 56.174999
1.0098799 4.74793 55.371899
1.20827 5.6378698 55.3899
1.74133 5.71559 56.231701
0.51903802 4.7785201 54.525501
0.67980099 5.5257101 54.541599
1.52073 4.7178602 56.211102
1.4236799 6.5366602 55.3587
0.847821 6.2694402 54.5228
1.01673 6.96312 54.416302
1.98957 6.72859 56.200802
1.64501 7.36378 55.2342
2.2516699 7.6561298 56.081902
1.7680399 3.15465 57.061501
1.64915 2.6227801 57.088902
2.36011 3.1099501 58.0271
2.2246399 2.5203199 58.065701
1.8825999 3.8392799 57.053902
2.4798801 3.84425 57.998901
2.0409901 4.7435899 57.0728
2.62641 4.7880998 57.997299
2.2625 5.8056898 57.087502
2.8389001 5.8857398 57.998001
2.5297101 6.8889999 57.063599
3.1152501 7.0055599 57.974899
2.82551 7.8864398 56.9715
3.4354 8.0493202 57.902302
3.0171001 3.0343101 59.044601
2.8650999 2.40238 59.084599
3.7251599 2.9165201 60.0938
3.5633199 2.2702701 60.130699
3.1489301 3.8097701 59.013901
3.8703599 3.7177501 60.069698
3.2902801 4.79211 59.003899
4.0125999 4.7358098 60.062
3.4937799 5.92136 58.9879
4.2114701 5.8970699 60.033199
3.7695501 7.0630002 58.946999
4.1000299 8.1391401 58.8605
4.8057499 8.1435099 59.838902
4.4798999 7.0520701 59.963402
5.93466 2.4303701 63.152302
5.1987901 2.6009901 62.1684
5.35181 3.41205 62.1479
5.7845302 1.83661 63.185001
5.0413098 1.98359 62.203899
6.0809102 3.23332 63.132999
18.299 12.3757 63.168098
17.8909 12.585 63.179298
17.4697 11.7518 63.766102
16.988501 12.0258 63.733601
18.755899 12.1321 63.083401
18.006201 11.4385 63.701199
19.257401 11.8255 62.916801
18.566401 11.0761 63.541401
19.747499 11.4668 62.669601
19.1015 10.6763 63.290199
17.5 12.7977 63.133598
16.568501 12.2845 63.611
20.163401 11.0921 62.368401
19.559601 10.2723 62.9613
20.479601 10.7488 62.0746
19.9132 9.9044704 62.6208
20.705999 10.4654 61.833099
20.164499 9.5965099 62.3265
20.886499 10.218 61.6166
20.363701 9.3156996 62.046299
18.6141 5.0240698 63.934101
18.7264 5.55651 63.584202
18.431601 5.3648901 64.552902
18.543301 5.9121299 64.185898
18.5975 4.58566 64.288498
18.4016 4.9088202 64.903503
19.9161 8.0287104 62.250999
19.7061 8.3470001 62.6455
19.3456 7.0480199 62.762699
19.129801 7.3891401 63.248001
20.5539 9.0265903 61.741699
18.9548 6.21667 63.2052
18.753099 6.5725298 63.762901
18.494301 6.92484 64.314499
18.130899 7.2643499 64.860199
18.5347 8.0659399 64.196297
18.2862 6.2709498 64.7948
17.9016 6.6075001 65.387703
18.872801 7.7256198 63.7202
19.470501 8.6618299 63.0214
19.171301 8.9936895 63.406601
21.066099 9.9685698 61.382
15.4448 11.7471 64.123703
14.2056 11.0613 64.700996
15.9284 11.418 64.363701
14.7912 10.6763 65.031403
13.0336 10.1572 65.3013
12.0489 9.2375402 65.719002
13.6426 9.7107496 65.723801
12.5765 8.4535704 66.3582
16.4925 11.06 64.477501
17.0984 10.661 64.478401
16.207399 9.7848997 65.254997
15.4951 10.2531 65.196404
9.5914402 8.1948299 65.071503
9.4135799 7.3066902 65.463203
8.8671799 7.3579602 64.975304
9.9634304 8.0941801 65.406998
9.8710403 7.29249 65.799202
9.9218197 9.0834599 64.625198
9.1118603 8.30653 64.603203
9.4691401 9.22577 64.164703
10.4213 6.5306702 66.458
10.6387 5.65346 66.863899
10.0435 5.5086799 66.574402
10.9801 6.6798601 66.680702
11.2218 5.7888999 67.1064
10.2923 7.32059 66.043297
10.787 7.47927 66.233299
9.9025097 6.4440298 66.191803
10.2809 8.0280704 65.658897
10.6655 8.1296501 65.825699
18.7708 9.3705502 63.814098
18.2714 9.7891598 64.167
18.0812 8.4324799 64.673302
17.521999 8.8416901 65.051102
17.702101 10.2296 64.383698
16.889799 9.2990704 65.2369
17.626699 7.5998702 65.380096
16.989901 7.9615202 65.775002
17.348 6.9163499 65.924698
16.5842 7.2048702 66.362099
16.215599 8.3668499 65.987602
15.3325 8.8039103 66.0373
15.6613 7.4895101 66.6241
14.6833 7.8137999 66.684799
14.4466 9.2530403 65.966301
13.7029 8.1592102 66.611298
15.302 6.7494702 67.099602
14.3243 6.9289799 67.185997
15.1047 6.1031799 67.490601
14.1935 6.1402998 67.598999
16.26 6.5678601 66.838699
16.0474 6.0176802 67.235001
13.4928 5.26933 68.001701
14.2385 5.3656902 67.990898
14.4899 4.5035 68.431198
13.3551 6.1504898 67.600601
12.8006 5.1663799 67.901497
12.5813 6.0971999 67.504601
13.8251 4.3264899 68.442497
13.201 4.1973701 68.338303
15.0708 5.4514999 67.872299
15.9745 5.4745202 67.615097
16.0821 4.8512001 68.031097
15.2404 4.7035098 68.302399
11.668 6.9313698 66.882599
11.4689 7.8435798 66.367897
11.8704 5.95435 67.333504
12.4875 7.1283998 67.0457
13.3737 7.1032 67.143097
11.2448 8.5289698 65.8713
7.2294002 8.75634 62.405899
6.89007 7.76509 62.684502
6.21909 7.92243 61.7822
7.8850298 8.5948601 63.225498
7.5580301 7.6080799 63.5303
7.6714602 9.6751804 62.102798
8.3109398 9.5184002 62.880501
6.5680299 8.9246101 61.529598
7.0201502 9.8473396 61.261002
8.5279398 8.4417801 63.973
8.2321301 7.46385 64.310898
8.9207001 9.3685904 63.577999
6.6115298 6.6915898 62.9198
7.2929101 6.5327802 63.794399
7.08812 5.35075 63.9893
5.9280801 6.8455501 61.984798
6.38235 5.51825 63.076698
5.6834002 5.67976 62.110298
6.2072301 4.2976499 63.135101
6.9520202 4.1210699 64.091599
5.4924002 4.4717302 62.152599
7.78336 3.97686 65.040802
8.6836004 3.9830999 65.898003
7.8361402 5.21838 64.847
8.6109104 5.19876 65.5989
7.99615 6.3965998 64.6035
8.6921597 6.3324699 65.301102
4.4629202 2.767 61.146801
4.3003502 2.12816 61.182899
4.6150899 3.57935 61.125301
5.2122102 6.9739399 60.989498
4.95468 5.8127198 61.087502
5.52142 8.0613003 60.8237
4.75844 4.6243701 61.123699
11.9335 3.0260899 68.014702
11.3494 2.84481 67.7295
10.7661 3.5717399 67.323402
12.3527 2.3698599 68.357002
11.8282 2.4230299 68.054901
12.5504 3.07812 68.331497
13.0058 2.2604001 68.7108
11.3901 3.82482 67.6073
11.9621 3.99211 67.856102
10.7953 2.51719 67.477798
10.0303 3.20632 66.954201
11.6441 2.14327 68.003998
9.3342199 6.3647599 65.825104
9.36341 5.3260899 66.171501
9.5561895 4.21135 66.5252
10.3176 4.5089698 66.940498
10.9519 4.7275 67.235298
11.5307 4.8873901 67.478798
12.1353 5.0377102 67.702003
12.5776 4.0995002 68.126999
5.8886299 9.0796099 60.605301
5.1891098 9.1614304 59.6656
5.6787801 10.1002 59.485001
6.3593702 10.0157 60.374699
4.4829898 9.1227999 58.731701
3.7987001 8.9752703 57.7873
4.9766998 10.0317 58.6082
1.87617 8.0751696 55.000301
2.53316 8.4524698 55.873402
2.1212001 8.6520901 54.729
1.1924 7.57797 54.186798
1.40804 8.1741199 53.837601
3.1537001 8.7518301 56.8181
17.123899 6.3486099 66.379303
17.749599 6.0524502 65.822601
17.6644 5.5830202 66.206902
16.941299 5.8487401 66.7967
16.879 5.38235 67.186401
16.959299 4.8724298 67.593903
17.653999 5.1703401 66.591003
17.7344 4.7501001 66.996201
13.1924 3.0515101 68.634201
13.708 2.0566199 69.049301
13.8287 3.0591199 68.867302
14.6305 1.69601 69.425598
13.8559 1.35061 69.2444
14.6456 0.97701901 69.546501
13.1324 1.66304 68.896599
12.4263 1.89117 68.4953
15.4471 0.54055703 69.832199
15.6236 0.88791001 69.813797
15.9032 1.25884 69.794403
15.1545 2.0845799 69.460602
15.629 2.49102 69.397697
16.288099 1.6601599 69.7341
16.753201 2.1341801 69.556099
17.296499 2.5980799 69.246597
16.186899 2.9193101 69.227798
16.831699 3.3197401 68.9161
14.4051 3.2226901 68.9645
14.9799 3.5095501 68.931602
15.6373 3.8310699 68.7817
16.3899 4.1113701 68.487999
17.886 3.0118401 68.781197
17.5215 3.6291001 68.440102
18.175699 3.79088 67.812202
18.2218 2.4737899 69.081001
18.468599 3.3051701 68.161598
18.7617 2.8586299 68.480499
17.188801 4.2741299 68.028503
17.916401 4.28298 67.413803
18.974501 3.41962 67.437698
19.329201 3.35642 66.743202
19.6001 3.0915599 67.057297
18.722 3.7718799 67.083603
19.0574 3.61866 66.407303
19.234501 3.0718501 67.773399
19.505301 2.72597 68.131897
19.058201 2.4291699 68.828697
19.876101 2.81459 67.404701
18.5762 1.96799 69.393303
18.4643 4.1336598 66.705498
18.7992 3.89324 66.037003
18.269199 4.5009298 66.314003
18.595301 4.19699 65.649696
18.162901 5.71772 65.198303
18.1115 5.2519002 65.565804
18.1472 4.8607101 65.932404
18.4601 4.5263901 65.266602
19.053801 3.61956 65.449501
19.3181 3.3875301 65.810699
18.8284 3.8965299 65.060799
19.5896 3.1848099 66.131104
19.8594 2.9807501 66.419601
20.146799 2.7625401 66.744598
20.521799 2.5046 67.182297
21.0077 2.1902299 67.771301
18.670601 4.2154398 64.666397
21.772699 8.8456697 60.3167
21.1796 7.91537 60.560501
19.6826 4.9482198 61.058498
19.616899 5.0741 61.280102
20.02 5.8089299 61.0201
19.4245 4.33254 61.202202
19.341 4.4518099 61.464901
19.7362 4.8636198 60.8727
19.490601 4.2404399 60.966
20.0138 5.5617499 60.848099
19.964199 5.3362899 60.7663
19.808399 4.80057 60.643002
20.1019 5.45678 60.575001
19.556999 4.1506 60.693001
20.362499 6.0747299 60.577599
20.5249 6.58814 60.689301
20.544901 6.9403801 60.910702
19.9587 6.0299301 61.276199
19.5175 5.2357602 61.570202
19.236 4.60887 61.796001
19.294001 3.8188601 61.284199
19.2092 3.9716001 61.5998
19.2913 3.4311099 61.406601
19.217699 3.59642 61.804298
19.354799 3.68694 60.9939
19.3374 3.26612 61.031898
19.407801 3.58233 60.6726
19.363899 3.1320701 60.630798
19.108 4.1338902 61.985298
19.111401 3.75809 62.230598
20.6448 2.3241601 64.456802
20.537901 2.28076 63.621399
20.2026 2.53772 64.024101
20.147699 2.5041499 63.2649
19.8162 2.79724 63.5667
19.822201 2.7309599 62.900501
19.4807 3.0921099 63.069302
19.5469 2.9861901 62.526901
19.234501 3.4167099 62.595402
19.3381 3.2761199 62.1394
19.397699 3.12976 61.6689
19.4023 2.9712801 61.167099
19.534901 2.75542 61.405998
19.5641 2.8873401 61.983799
19.7609 2.68383 62.262699
19.9834 2.4995 62.486
19.698299 2.59288 61.6922
19.8519 2.48702 61.9664
20.236601 2.3048601 62.645699
20.482599 2.08483 62.693298
19.919701 2.3562901 61.855999
20.0212 2.1605301 61.7281
19.3988 2.7951801 60.646099
19.493799 2.56529 60.810101
19.669001 2.4284401 61.221802
19.683399 2.2019999 60.8582
19.066401 -0.93240398 57.5975
19.201599 -0.67334402 58.062901
18.8855 -1.124 57.9823
19.0576 -0.89969999 58.291199
19.101999 -0.87533897 58.772598
18.9835 -1.02973 58.862701
18.965401 -1.0264 58.5285
18.9154 -1.08814 58.681999
19.225901 -0.68055201 58.6409
19.325701 -0.683213 59.191101
19.474899 -0.41584301 59.1301
18.856199 -1.19418 58.877399
18.809601 -1.21496 58.635502
18.816999 -1.20339 58.351101
19.3589 -0.40735 58.528702
19.4674 -0.081203997 58.499802
19.6008 -0.108385 59.097198
19.6728 0.21308801 59.127998
21.9706 1.49849 64.572701
21.306499 1.69353 63.589298
21.293301 1.32885 62.8605
20.9245 0.73666799 61.655701
20.4147 0.53425002 60.748402
20.379801 0.17815 60.653702
20.776699 1.11754 61.737801
20.372299 0.87243301 60.817299
19.941799 0.231032 59.838902
19.971701 0.556301 59.897499
19.855301 -0.083581001 59.811798
19.715401 -0.40799901 59.821999
19.523899 1.8786401 59.1409
19.5606 1.8965 59.8078
19.5399 1.46512 58.987099
19.6054 1.56192 59.6371
19.5541 1.0723799 58.852001
19.6432 1.23703 59.4958
19.558001 0.68112803 58.708401
19.6747 0.90530097 59.358799
19.5331 0.28587899 58.5732
19.691999 0.558954 59.225101
20.6332 1.84812 62.499199
20.642099 1.61373 62.095501
20.115299 1.93906 61.552898
20.171499 1.7109801 61.2999
19.843599 1.41611 60.234798
19.8885 1.1491899 60.076199
20.119101 1.29287 60.652699
19.7957 1.6784199 60.416901
20.167 1.4830101 60.967999
19.734501 1.94275 60.6054
20.503 1.38327 61.503502
20.253099 1.14319 60.777
19.9426 0.86661702 59.972401
5.07093 11.7438 55.726898
4.5725098 11.3525 55.383301
4.9369502 11.3923 56.2374
5.0752902 11.332 56.699799
10.4576 10.0108 64.099403
9.97925 10.1455 63.645802
9.4432201 10.2704 63.111401
8.8610897 10.3978 62.484798
8.23985 10.5311 61.777199
7.6009002 10.6881 60.995399
6.9587002 10.856 60.1618
6.3053098 10.9496 59.331402
5.6279702 10.8879 58.522499
8.8885403 14.2108 44.691898
8.05336 14.115 43.637501
8.3488197 14.3017 45.186001
7.56039 14.1676 44.138401
9.6656799 14.2624 45.787498
9.0945301 14.3993 46.248798
7.7741098 14.3603 45.731201
7.03124 14.1904 44.703602
7.1784801 14.3801 46.315498
6.48489 14.1765 45.308498
8.4760103 14.4964 46.759899
7.8285198 14.5495 47.308201
9.3763599 14.3814 47.480999
9.9822903 14.2194 47.037102
8.7142801 14.5061 47.976002
8.02981 14.5911 48.501099
7.1838398 14.5601 47.875198
7.3588099 14.6292 49.049
6.5855999 14.5325 48.438801
6.7227502 14.5933 49.618401
6.0240002 14.4604 49.016201
6.1139102 14.4165 50.207901
5.4794202 14.2758 49.614101
6.5849199 14.3628 46.9189
6.02107 14.3215 47.526199
5.4313402 14.0659 46.536499
5.9421501 14.1298 45.9245
5.4947 14.2464 48.135799
4.95818 13.978 47.151901
4.9698901 14.0705 48.770599
4.4536099 13.8041 47.814201
4.3976402 13.7127 49.477299
3.89347 13.4627 48.570202
3.77092 13.1223 50.313099
3.3027501 12.8947 49.488998
4.9222398 13.9033 50.254501
4.3339601 13.3066 50.980701
3.08287 10.63 53.648701
3.4665599 10.7915 54.017502
3.0880301 9.9759102 54.561199
3.5903201 11.6561 52.985901
2.6883199 10.4532 53.257099
3.14745 11.5029 52.586102
2.6893401 9.74683 54.155701
2.3092401 9.5427198 53.713001
3.1617801 12.2912 51.261902
3.7086301 12.491 51.792999
2.74353 12.0866 50.564301
2.6877601 11.3024 52.154099
2.29128 11.1014 51.6399
2.3326001 10.2888 52.869999
2.0009 10.113 52.504398
2.0371799 9.4489002 53.3004
1.8859299 9.4894695 52.969799
5.5076299 14.0348 50.826801
4.8712401 13.4318 51.5075
4.2100401 12.6246 52.250999
3.7750399 10.935 54.337502
4.0233102 11.0487 54.639301
3.6464801 10.4428 54.959
3.40786 10.2108 54.838799
2.3833599 9.1398201 54.4781
1.9522901 8.8923798 53.901798
2.8884101 9.48985 54.990898
4.2484698 11.1461 54.9902
3.72563 10.398 55.2794
10.5105 14.0317 46.664398
3.31199 9.8791304 55.280499
7.2535601 14.0146 42.6852
6.46419 13.9187 41.842602
6.8105001 14.0337 43.161701
6.0521598 13.9127 42.288101
6.3192201 14.0192 43.713001
5.5885501 13.8687 42.8009
5.8023 13.9696 44.309502
5.0912099 13.7906 43.368801
5.2957201 13.8914 44.9105
4.5875902 13.6868 43.956799
4.8056002 13.8002 45.5252
4.11309 13.5664 44.552101
3.3512399 13.1726 47.6726
2.7525799 12.8673 46.7612
3.2070799 13.2114 45.917198
2.82041 12.6262 48.663502
2.28495 12.3287 47.8134
3.8569 13.5057 46.868698
4.33076 13.6901 46.170601
3.6564701 13.4233 45.196201
1.7058001 9.9273005 52.088299
1.33368 9.6919699 51.563702
1.4922 10.65 50.4086
1.6404001 9.1911297 52.847099
1.29734 8.9081497 52.4519
1.9203399 10.8943 51.062401
1.72042 8.8761997 53.3857
1.30363 8.4380598 53.1101
2.3131299 11.8465 49.850101
1.83228 11.5722 49.087399
5.8738699 -13.8517 46.395802
5.6786699 -13.6906 46.808102
6.8462601 -13.523 47.6805
5.7210898 -13.9361 45.363602
5.0296302 -13.6878 45.2938
6.38094 -13.9293 46.594601
6.1496902 -14.1088 45.312698
5.6828098 -14.0261 44.017899
5.6950998 -13.979 42.717098
5.3601799 -13.7983 42.648499
6.0253501 -14.2098 43.962601
5.94805 -14.1499 42.654701
5.2140698 -13.8177 43.836899
5.6476898 -13.704 41.524101
5.38555 -13.5648 41.5396
5.6642399 -13.2879 40.443802
5.42732 -13.1879 40.505001
5.8652802 -13.8572 41.440498
5.8786802 -13.4229 40.341099
1.60683 -12.3466 42.573399
2.47964 -12.7418 43.520802
2.9784 -12.9101 42.9571
1.24352 -12.1857 42.990101
2.0690401 -12.579 43.942501
0.87311202 -11.9416 41.756401
0.50735199 -11.7794 42.170799
1.97396 -12.4771 42.143002
1.27443 -12.0805 41.250099
3.45381 -13.1436 44.673698
3.9809999 -13.3386 44.1017
4.37392 -13.4407 45.9739
2.9481599 -12.9655 45.1049
3.7876501 -13.257 46.3829
0.87578702 -11.9988 43.410702
1.65396 -12.3934 44.360001
0.50703698 -11.7933 43.834301
1.23154 -12.1866 44.7924
0.153846 -11.5966 42.580799
-0.18694501 -11.3974 42.9879
5.2306499 -13.4836 47.1898
6.1680498 -13.2948 48.0942
4.6494198 -13.311 47.5047
6.9093099 -13.082 48.887299
7.7480402 -13.1856 48.822601
4.1219001 -13.1766 47.7976
3.6401401 -13.0663 48.098598
3.2477 -13.0998 46.7458
2.7344699 -12.9449 47.119999
5.8738298 -12.7791 39.415199
6.3102798 -12.1401 38.416
6.1708698 -11.9261 38.2202
6.0840602 -12.9077 39.325901
6.4950299 -12.2687 38.3745
5.6339698 -12.7125 39.493301
6.92102 -11.3389 37.504398
6.8921299 -11.1676 37.373501
7.7077799 -10.4362 36.828098
7.60637 -10.353 36.755402
7.0949898 -11.4504 37.501701
7.88167 -10.5228 36.836498
15.1047 -2.61006 38.335602
15.2903 -2.7030499 38.6311
14.8658 -2.8861201 38.029598
15.0108 -3.0578599 38.244202
14.9188 -2.5325999 38.059101
14.7884 -2.7376201 37.9142
15.4847 -2.7783899 38.9617
15.6767 -2.8501101 39.307899
15.1999 -3.18312 38.5341
15.3991 -3.2936299 38.852699
8.63867 -9.4862604 36.359901
8.8378897 -9.5638103 36.3811
9.9248695 -8.6138296 36.148499
8.4840698 -9.4252996 36.294899
9.6979904 -8.5143805 36.105701
9.5129995 -8.4235802 36.039299
10.8939 -7.5555701 36.141499
11.1251 -7.69804 36.198502
12.4015 -6.7978702 36.485199
10.6869 -7.4022198 36.0448
12.2015 -6.5945702 36.416901
12.0099 -6.3931699 36.327702
14.7029 -2.49686 37.7617
14.4353 -2.4677501 37.4282
14.2653 -2.8133099 37.2855
14.5801 -2.7883401 37.6497
14.5309 -3.11379 37.612598
14.584 -3.41592 37.699902
14.0856 -3.2514 37.134602
13.7371 -3.8908 36.916901
14.7436 -3.6149099 37.908699
14.9413 -3.7585001 38.160198
13.9801 -4.1689801 37.176601
14.1752 -4.3272099 37.367901
12.8646 -4.9236002 36.465099
12.5804 -4.7730598 36.201099
11.4149 -5.6400099 35.6833
13.048 -5.0781298 36.6334
11.5721 -5.8634501 35.926201
11.7054 -6.0311399 36.089199
16.467899 -3.0446899 40.858398
16.8526 -3.0592101 41.698101
16.468599 -3.5118999 40.870602
16.791901 -3.39746 41.596901
16.128201 -3.01931 40.172001
15.9163 -3.6745501 39.737
15.8733 -2.94047 39.678398
15.5987 -3.44328 39.184399
16.627501 -3.8933301 41.178902
16.8214 -4.3120499 41.524101
17.4184 -3.8652201 43.457901
16.0536 -4.20576 39.875801
16.191099 -4.6515398 39.9897
17.0441 -3.5541601 42.241199
13.4632 -5.76473 36.952702
14.547 -5.1052399 37.722401
14.4395 -4.7832999 37.626598
13.6109 -6.0465598 37.0396
14.6576 -5.4595399 37.809601
13.3226 -5.4970798 36.858898
15.3867 -4.5957298 38.697899
15.2633 -4.2227402 38.578602
15.4954 -5.0117698 38.768101
15.1154 -3.9442899 38.3909
14.3237 -4.5212798 37.513699
13.191 -5.2645402 36.756901
11.844 -6.2047901 36.2188
17.253901 -3.1157401 42.7234
17.6422 -3.16927 44.0681
17.446699 -10.0342 58.750801
17.6334 -10.5698 58.619999
17.624001 -10.6279 59.045799
17.419201 -9.9752302 58.3951
17.6115 -10.506 58.195301
17.3256 -9.5780697 58.853199
17.2752 -9.4683399 58.541199
17.453199 -10.0776 59.083801
17.364 -9.7096996 59.0667
18.351601 -3.0545199 50.126598
18.227699 -3.6218901 50.181599
18.274799 -3.55934 51.065399
18.304899 -3.09549 49.238201
18.1912 -3.6695399 49.298
18.408001 -3.00017 51.0009
18.1166 -4.21522 50.238499
18.0107 -4.7991199 50.299599
18.018999 -4.7720499 51.139702
18.0917 -4.26438 49.376099
17.9944 -4.8601599 49.504299
18.1457 -4.1640401 51.122601
17.926399 -5.2287798 50.360699
17.8953 -5.3253198 51.027401
17.8929 -5.41184 49.797001
17.76 -5.9244199 50.5919
17.0376 -7.1451201 59.880798
17.1124 -7.3292298 59.644798
17.018999 -7.6248999 60.0513
17.106501 -6.89466 59.5933
17.181999 -7.0707598 59.333599
16.967899 -6.9830799 60.163101
17.042601 -6.70715 59.912498
16.947901 -7.3770299 60.2449
16.917 -7.1901498 60.356899
18.575899 -2.91414 56.114399
18.471399 -2.7302999 56.591599
18.6665 -3.68626 56.230301
18.555099 -3.4721401 56.842499
18.630699 -3.00863 55.674099
18.677099 -3.77367 55.794601
17.821301 -11.3376 59.457802
17.5879 -10.6804 59.490601
17.751801 -11.4519 59.9547
17.530199 -10.7262 59.9282
17.867001 -11.2329 58.940899
17.879 -11.1399 58.439701
17.844 -11.0484 57.9566
17.434601 -10.0763 59.430801
17.3983 -10.0485 59.793301
17.325701 -9.45263 59.540501
17.3423 -9.5819197 59.258701
16.0576 -10.2184 62.943298
15.8141 -10.3372 63.312199
15.6425 -9.2344904 63.5158
