# .PCD v.7 - Point Cloud Data file format
VERSION .7
FIELDS x y z
SIZE 4 4 4
TYPE F F F
COUNT 1 1 1
WIDTH 1698
HEIGHT 1
VIEWPOINT 0 0 0 1 0 0 0
POINTS 1698
DATA ascii
-5.2934399 8.56954 170.82899
-5.3355999 8.6209402 170.94701
-5.3955798 8.6588497 171.056
-6.1599598 9.36479 172.577
-6.1329899 9.3233099 172.487
-6.1049399 9.4795904 172.52299
-6.10813 9.4211302 172.478
-6.0560799 9.5481997 172.451
-6.0672402 9.4306297 172.408
-6.0710702 9.27948 172.37801
-4.7336001 8.3850603 170.03999
-4.6746101 8.4880695 169.991
-4.7769899 8.2615995 170.145
-4.8126502 8.16117 170.257
-4.8673501 8.0972996 170.34399
-4.9552999 8.0712004 170.386
-5.0493999 8.0913601 170.37601
-5.12573 8.1527395 170.326
-5.63767 9.6096802 171.584
-5.6279898 9.76443 171.646
-5.5848098 9.7571802 171.72099
-5.4484401 9.7121897 171.44501
-6.3148398 6.4820199 170.513
-6.4250002 6.5925498 170.627
-6.4960499 6.6554098 170.55701
-6.2342401 6.3967199 170.51199
-6.3519802 6.5188198 170.649
-6.2477102 6.42946 170.377
-6.1473298 6.3517098 170.347
-6.39922 6.5711999 170.47099
-6.3339601 6.5097399 170.394
-6.2537799 6.4949098 170.254
-6.1367798 6.44489 170.205
-6.30861 6.6286802 170.186
-6.1866698 6.61939 170.138
-6.36658 6.56813 170.315
-6.3928099 6.63763 170.243
-6.3759098 6.75737 170.2
-6.2565899 6.7859101 170.168
-6.4334898 6.8590498 170.27901
-6.3183398 6.9084301 170.263
-6.4548802 6.7079601 170.27
-6.51577 6.7825799 170.33501
-6.4739599 6.9257898 170.388
-6.3622899 6.9741502 170.379
-6.5122099 6.9307299 170.507
-6.4029398 6.9629698 170.50301
-6.5590601 6.8386102 170.42599
-6.5784202 6.86731 170.50301
-6.5528498 6.8645201 170.617
-6.44874 6.87397 170.623
-6.5650001 6.7708101 170.688
-6.4717398 6.7518001 170.70599
-6.6100402 6.8128099 170.577
-6.6149001 6.7620702 170.644
-6.5205498 6.6865501 170.692
-6.4403801 6.6374502 170.718
-6.5810399 6.71839 170.618
-6.5967698 6.7650099 170.51401
-6.5348902 6.7144098 170.44299
-6.4569998 6.6458998 170.37601
-4.8692198 4.9765801 169.442
-4.77561 4.9955702 169.29201
-4.8511801 4.9401398 169.24001
-4.8136702 5.0551801 169.481
-4.7223902 5.0673199 169.343
-4.9667802 5.0030599 169.606
-4.9103298 5.08743 169.634
-4.9442801 4.9114599 169.401
-5.03933 4.9315801 169.57899
-4.6858301 5.06496 169.159
-4.75879 5.0209498 169.09599
-4.6008 5.1866999 169.05299
-4.6684699 5.15343 168.98199
-4.6378002 5.1268902 169.22
-4.5591798 5.2378898 169.125
-4.6652398 5.3317299 168.85201
-4.5784502 5.5641899 168.82001
-4.6722002 5.5820999 168.791
-4.58219 5.3351498 168.91
-4.5002999 5.5633001 168.879
-4.7540698 5.1430202 168.927
-4.7578001 5.3469901 168.825
-4.84272 5.1524301 168.89999
-4.84867 5.3742499 168.83701
-4.7706399 5.61129 168.804
-4.8773699 5.6471601 168.864
-4.9233899 5.1738901 168.908
-4.9408002 5.4067998 168.896
-4.9995298 5.1986699 168.959
-4.6443701 6.5180302 168.911
-4.6522899 6.1889901 168.842
-4.54635 6.1633201 168.82899
-4.7686 6.5366602 168.96899
-4.7779598 6.21912 168.901
-4.6507502 6.87287 169.004
-4.76964 6.8730602 169.06
-4.5397601 6.4979501 168.897
-4.5492401 6.8625698 168.989
-4.4496002 6.4816599 168.924
-4.4583702 6.8517199 169.013
-4.3835101 6.4745998 168.979
-4.38869 6.84619 169.06599
-4.45507 6.1450701 168.85899
-4.3874502 6.13871 168.91499
-4.6954198 8.0955896 169.41
-4.65732 7.66993 169.248
-4.5587702 7.69137 169.23599
-4.8129802 7.9938402 169.448
-4.7723398 7.6090598 169.29601
-4.7565098 8.4790802 169.577
-4.8785601 8.3457499 169.605
-4.5931001 8.1319399 169.403
-4.64819 8.5243702 169.573
-4.4348402 8.7499199 169.85001
-4.4978199 8.9790897 170.007
-4.5591102 9.0264301 169.952
-4.42448 8.6890001 169.918
-4.4879298 8.9160404 170.075
-4.3797998 8.4626703 169.69
-4.3709998 8.4086103 169.757
-4.4952698 8.7968798 169.798
-4.43856 8.5039701 169.64
-4.69806 5.8849201 168.806
-4.8172302 5.92033 168.866
-4.5943198 5.85639 168.793
-4.5013199 5.8376698 168.823
-4.4289098 5.8335199 168.881
-4.6874599 6.7006001 169.72099
-4.6149402 6.6519098 169.575
-4.6237001 6.3948202 169.569
-4.66746 6.9863601 169.70799
-4.6048198 6.9545698 169.603
-4.7532001 6.7448201 169.84
-4.71943 7.0111799 169.795
-4.7129202 6.4520998 169.74699
-4.79634 6.5043502 169.894
-4.5219402 6.0865102 169.379
-4.4229798 5.9787402 169.21899
-4.4549899 5.7529101 169.231
-4.5142202 6.3157301 169.383
-4.41505 6.23806 169.22701
-4.63834 6.1863298 169.569
-4.5447102 5.8812599 169.386
-4.65552 5.9914198 169.564
-4.5184898 6.5936198 169.41299
-4.4253101 6.5405102 169.271
-4.5188799 6.9159899 169.47501
-4.4327102 6.8820601 169.354
-5.1629601 7.0067601 169.84801
-5.1142502 7.21385 169.85899
-5.0514698 7.1557002 169.929
-5.20226 6.8223901 169.839
-5.1174202 6.9579 169.944
-5.1692901 6.7761598 169.955
-5.2169199 6.6688199 169.795
-5.25457 6.5658102 169.757
-5.1812601 6.60818 169.896
-5.2140698 6.4686899 169.825
-4.7395301 6.24019 169.755
-4.8351302 6.28476 169.908
-4.7589998 6.03298 169.733
-4.8895898 6.0251698 169.89101
-5.7750201 6.7873602 170.90199
-5.9259801 6.7965298 171.033
-5.9571199 6.8299198 170.92101
-5.74686 6.7241802 170.985
-5.9142499 6.7364302 171.11
-5.61339 6.7868199 170.757
-5.5773201 6.7125802 170.85001
-5.8410602 6.77421 170.841
-5.7095799 6.7562299 170.71001
-4.9735599 5.26231 169.812
-5.0151701 5.1655898 169.808
-5.1420898 5.3000998 170.02299
-4.8777299 5.1753802 169.65601
-4.9267402 5.3370399 169.774
-4.8646402 5.2435198 169.668
-5.0994201 5.4113202 170.01601
-5.0552802 5.5343099 169.97701
-6.2389798 7.2631202 171.937
-6.3473001 7.1669898 172.056
-6.3821802 7.2505498 172.26401
-6.1963 7.2161498 171.715
-6.2998099 7.0999899 171.83299
-6.1530399 7.3791399 171.82401
-6.0815902 7.3800101 171.52901
-6.2753501 7.31703 172.147
-6.1954398 7.4071498 172.034
-6.4032102 7.6420898 172.10001
-6.2568102 7.6102901 172.104
-6.2462301 7.7181602 172.27299
-6.3645501 7.5961699 171.91901
-6.2323098 7.5548201 171.914
-6.3903399 7.74895 172.25301
-6.18889 7.5578899 172.142
-6.1705098 7.4942498 171.951
-6.18156 7.6705999 172.317
-6.21419 7.4826698 172.226
-6.2107601 7.60816 172.39999
-6.2957902 7.4125299 172.339
-6.2993102 7.5564599 172.51199
-6.4067502 7.3704801 172.45399
-6.4190798 7.5334501 172.62601
-6.5267701 7.36831 172.548
-6.5464802 7.5465102 172.71201
-6.63937 7.4006 172.605
-6.66116 7.5897102 172.756
-6.4944901 7.22474 172.36099
-6.6006198 7.2343898 172.427
-4.9925699 5.0137601 169.013
-4.9261198 4.99999 169.01601
-5.0574298 4.9051099 169.138
-5.0075202 4.89572 169.161
-5.0499101 5.0293899 169.049
-5.0823102 4.9300499 169.127
-4.8443098 5.0002298 169.04601
-4.93436 4.9072199 169.19501
-9.58321 13.728 173.407
-9.9185495 13.5611 174.157
-10.6864 14.3457 174.27299
-9.0992403 12.9047 173.534
-9.4347296 12.9931 174.03999
-9.1613302 13.7085 172.58501
-8.6714096 12.7611 172.82001
-10.3008 14.5941 173.366
-9.8573599 14.6568 172.424
-4.5215702 5.3600702 168.98599
-4.4484601 5.5816898 168.95599
-4.4860401 5.4019098 169.06599
-4.4205599 5.6149001 169.036
-4.36869 6.5079298 169.177
-4.3604999 6.18926 169.12399
-4.3473902 6.4905701 169.11099
-4.3449502 6.16361 169.052
-4.3750401 6.8628502 169.26401
-4.3498602 6.85395 169.19701
-4.33636 7.2543602 169.23399
-4.32196 7.6813102 169.36301
-4.3716302 7.6923599 169.30701
-4.33248 7.2508998 169.30099
-4.3168402 7.66255 169.431
-4.3530998 6.8480401 169.131
-4.3787298 7.2562599 169.173
-4.9516802 5.9535699 168.957
-4.9916201 5.6778302 168.95599
-5.0763998 5.9608898 169.024
-5.0896001 5.6760302 169.022
-4.9242802 6.2473302 168.989
-5.06849 6.2576399 169.05099
-5.0335798 5.4309001 168.985
-5.1065202 5.4198999 169.049
-5.1259098 5.19345 169.103
-5.07269 5.2128701 169.04201
-4.9110498 7.1801801 169.239
-4.7649202 7.2307401 169.16701
-4.9127598 6.8589201 169.13499
-5.0795002 7.1314802 169.276
-5.06991 6.8408198 169.17799
-4.9243498 7.5054302 169.36
-5.1048198 7.4085598 169.38699
-4.9148598 6.54881 169.049
-5.0668702 6.5504498 169.103
-4.8382001 6.7948399 169.92999
-4.8968301 6.5738502 169.99899
-5.00741 6.6526399 170.048
-4.7836199 7.0349798 169.873
-4.94139 6.85115 169.98599
-4.8688698 7.0652699 169.933
-4.9394598 6.3648801 170.004
-5.0033302 6.1619902 169.981
-5.0960598 6.2694998 169.976
-5.0422301 6.4608698 170.02901
-5.7163501 7.40311 170.142
-5.7378602 7.2168298 170.09399
-5.8313999 7.2024202 170.239
-5.6620002 7.5344601 170.161
-5.8083601 7.3628402 170.30299
-5.7592101 7.4711499 170.33
-6.1251302 7.4847999 171.74699
-6.1777301 7.56776 171.717
-6.11901 7.6739302 171.487
-6.0585198 7.5248098 171.50999
-5.2529202 5.6155801 170.26199
-5.2467599 5.7348499 170.254
-5.3709898 5.8505301 170.476
-5.3605199 5.9689798 170.446
-5.28969 5.4912901 170.274
-5.4149899 5.71065 170.502
-5.6322999 6.3150401 170.384
-5.5051599 6.32165 170.42101
-5.5215302 6.5134301 170.474
-5.59582 6.1964302 170.276
-5.4707999 6.11759 170.355
-5.7665 6.3262 170.343
-5.7602801 6.3849902 170.166
-5.6511302 6.4112401 170.492
-5.7818298 6.3095598 170.502
-5.4139299 6.08672 170.606
-5.4861698 5.9244599 170.659
-5.5349302 6.1170902 170.776
-5.3824601 6.2198501 170.541
-5.4352598 6.3000598 170.7
-5.38274 6.4503198 170.604
-4.5790801 5.68435 169.394
-4.6697602 5.7887101 169.54601
-4.6265898 5.5280299 169.416
-4.6779099 5.6375399 169.522
-4.5076399 5.5550699 169.25101
-4.5724301 5.40066 169.28799
-4.76125 5.8144898 169.67999
-4.85885 5.7747798 169.793
-4.7383199 5.6097398 169.591
-4.8229098 5.57198 169.685
-4.6907401 5.4393001 169.472
-4.64291 5.3045402 169.358
-4.7200599 5.2581301 169.459
-4.7692699 5.3976202 169.564
-5.6180201 6.5541801 169.914
-5.4984899 6.5286298 169.839
-5.4748402 6.3582201 169.866
-5.65727 6.7439599 169.948
-5.70892 6.585 169.995
-5.7522998 6.7630701 170.049
-5.60394 6.40552 169.92799
-5.6818099 6.4706802 169.978
-5.0729899 5.0735602 169.795
-5.19947 5.1955099 170.02
-5.1409101 4.9958301 169.78
-5.2586899 5.10149 170.006
-5.3459201 5.36483 170.276
-5.4790101 5.5572 170.515
-5.3917799 5.22931 170.242
-5.5283098 5.3168702 170.45599
-6.45119 7.1112099 172.15401
-6.39013 7.01963 171.927
-6.4682102 6.9609399 171.998
-6.5452099 7.08641 172.22301
-5.0868502 7.4344401 169.92
-5.01721 7.37047 169.98801
-5.9830599 7.0907698 170.87199
-6.01896 6.9726 171.04201
-6.0539098 7.1284699 171.17101
-5.97682 6.9524798 170.791
-5.9180002 7.2439899 170.68201
-5.93119 7.1211801 170.62601
-5.98663 7.2507601 170.97301
-5.9053702 7.3856802 170.75101
-5.9792399 7.5988898 171.233
-6.02494 7.7345901 171.235
-5.9387698 7.8011699 170.98599
-5.9720602 7.4995198 171.19299
-5.8939199 7.6866598 170.955
-5.88515 7.60712 170.911
-5.6943102 8.3251696 170.589
-5.79985 8.1413803 170.66901
-5.6272702 8.16959 170.487
-5.7341499 7.9935398 170.586
-5.56952 5.7505898 170.696
-5.64956 5.5485702 170.724
-5.7339201 5.7574601 170.907
-5.6347499 5.9330201 170.834
-5.8838301 6.3290701 171.187
-5.7836699 6.2290902 171.075
-5.83289 6.1047902 171.10699
-5.8273101 6.4807301 171.13699
-5.7067199 6.4006701 171.024
-6.00665 6.4267402 171.308
-5.9614801 6.55443 171.248
-5.91887 6.1431799 171.209
-6.0472398 6.2346601 171.356
-5.2839499 6.2339301 169.895
-5.1656098 6.3708501 169.912
-5.32441 6.3791699 169.81799
-5.4500399 6.19101 169.93201
-5.2207499 6.1033101 169.967
-5.39503 6.0454202 170.008
-5.3593502 6.5246801 169.77499
-5.4730201 6.0342002 170.162
-5.57372 6.15131 170.07401
-5.3564401 5.9351101 170.22501
-5.2974501 5.9367299 170.061
-5.1925001 5.83988 170.077
-5.0239401 4.8656201 169.36301
-5.1140199 4.87606 169.55299
-5.0874801 4.8400998 169.319
-5.1806002 4.8217201 169.51401
-5.7092199 6.9803801 170.019
-5.80442 6.9857702 170.142
-6.3389401 7.87362 172.36501
-6.2150302 7.8593702 172.409
-6.2172999 8.0553102 172.53799
-6.31426 7.9907398 172.452
-6.1578002 7.82551 172.463
-6.1904402 7.7796698 172.55099
-6.1609302 7.9956398 172.681
-6.13133 8.0197802 172.58299
-6.5494299 7.7628798 172.855
-6.5346699 8.0225401 172.97701
-6.3981299 7.9932699 172.914
-6.6644902 7.81074 172.881
-6.6496801 8.0713501 172.985
-6.4162502 7.7402501 172.778
-6.2869701 7.7472601 172.666
-6.2620101 7.98526 172.804
-4.6032901 8.5411797 170.013
-4.6813002 8.7577496 170.142
-4.6003599 8.79177 170.177
-4.5377698 8.2827301 169.895
-4.5275798 8.57376 170.036
-4.4690199 8.3084803 169.894
-4.4611201 8.6239901 169.99699
-4.5276799 8.8461304 170.147
-4.4073501 8.35145 169.839
-4.5954299 8.8243399 169.754
-4.5365801 8.5264101 169.59801
-4.7104702 8.8252096 169.728
-4.6600399 9.05441 169.905
-4.777 9.0568104 169.87399
-4.82442 8.7783699 169.728
-4.9527898 8.6356096 169.75301
-4.89569 9.0134602 169.87199
-5.03092 8.8782501 169.899
-12.8918 16.478901 172.76601
-13.73 16.725 172.452
-13.1096 16.885799 171.2
-13.4292 16.134001 173.948
-14.322 16.371099 173.668
-12.0224 16.0462 173.04201
-12.4992 15.7161 174.16499
-12.3209 16.6341 171.554
-11.5031 16.1891 171.894
-11.1417 15.4008 173.25301
-11.5708 15.1023 174.282
-10.6648 15.5141 172.19701
-13.9057 15.583 175.05701
-14.8386 15.8 174.811
-14.3059 14.8057 176.04601
-15.2446 14.9797 175.834
-12.9202 15.1899 175.22
-13.2929 14.4599 176.162
-6.7341299 7.4662099 172.62
-6.74858 7.6617699 172.74899
-6.8053699 7.6001401 172.59599
-6.8022299 7.7835698 172.687
-6.6977401 7.27384 172.46201
-6.8076401 7.3944702 172.49699
-6.7469201 7.8847899 172.85201
-6.72999 8.1453199 172.938
-6.7905202 8.0055199 172.761
-6.76791 8.26968 172.832
-6.8001099 8.1763096 172.61501
-6.7634201 8.4563599 172.662
-6.8031902 8.3238802 172.45399
-6.7194099 8.6922102 172.38699
-6.8254399 7.96106 172.58299
-6.8309202 8.1178102 172.491
-6.8472099 7.8236098 172.534
-6.8564601 8.0994101 172.44501
-6.8903599 7.75843 172.522
-6.9109502 8.1145401 172.44099
-6.10993 8.2495699 172.675
-6.1961999 8.27598 172.636
-6.0907502 8.5116501 172.742
-6.1289802 8.2529001 172.791
-6.09656 8.5423803 172.87399
-6.2276802 8.2668695 172.923
-6.36551 8.2899199 173.026
-6.31989 8.6175098 173.09801
-6.1861601 8.5797701 173.007
-6.5029802 8.3250704 173.075
-6.4559302 8.6581097 173.12801
-6.6182299 8.3720903 173.06599
-6.5721798 8.7004499 173.104
-6.6989999 8.4356499 173.009
-6.6568098 8.7370195 173.039
-6.7344398 8.54949 172.91
-6.69947 8.7547798 172.964
-6.1353998 8.9061699 173.035
-6.2607098 8.9576302 173.105
-6.05935 8.8496599 172.91299
-6.0652599 8.79914 172.776
-6.3938599 9.0029497 173.117
-6.5116801 9.0375299 173.077
-6.4329 9.3651199 172.976
-6.3134799 9.3397999 173.028
-6.6031799 9.0417299 172.99899
-6.52917 9.34445 172.884
-6.66888 8.9575596 172.89
-6.599 9.2287302 172.745
-6.2114401 9.6482496 172.866
-6.0872102 9.9073696 172.646
-6.33178 9.6654196 172.80499
-6.20719 9.9207497 172.582
-6.4288502 9.6291904 172.70599
-6.3024502 9.88064 172.483
-6.4925199 9.4990396 172.547
-6.3528199 9.7579098 172.315
-5.94207 10.1 172.38699
-6.0603199 10.1142 172.321
-5.8947501 10.2311 172.026
-5.7777801 10.2168 172.093
-6.15418 10.0797 172.233
-5.9952598 10.1966 171.959
-6.1907501 9.9869804 172.08099
-6.0594201 10.1249 171.909
-5.8292799 10.214 171.64999
-5.6480699 10.1427 171.306
-5.5229201 10.202 171.34399
-5.9646301 10.0795 171.67599
-5.80757 9.9765997 171.342
-5.7144599 10.2612 171.698
-5.5970502 10.2519 171.76601
-5.40449 10.199 171.411
-5.0497499 9.9116697 171.202
-5.0517602 9.7722702 171.254
-4.8845 9.7470798 170.868
-4.8913798 9.6305103 170.929
-5.1099401 10.0128 171.12399
-4.94135 9.8320799 170.78999
-5.21139 10.0632 171.047
-5.3301702 10.0642 170.98599
-5.16014 9.8774004 170.664
-5.0414701 9.8753405 170.718
-5.28795 9.6317196 171.173
-5.1220198 9.50807 170.91701
-5.2095499 9.5825901 171.229
-5.0520401 9.4712496 170.951
-5.1171899 9.6350899 171.26199
-4.9610901 9.5158396 170.959
-4.7540002 9.56563 170.59
-4.7590299 9.4708099 170.65199
-4.6533198 9.3776598 170.366
-4.65241 9.29916 170.427
-4.81141 9.6338797 170.52
-4.7130198 9.4331703 170.304
-4.9115601 9.6697598 170.455
-4.81394 9.4636803 170.24699
-5.0303602 9.6729002 170.409
-4.9325299 9.46698 170.207
-5.1570501 9.6318197 170.397
-5.0574198 9.4291201 170.19901
-5.3132901 9.5083504 170.436
-5.20648 9.3120804 170.235
-5.2882299 9.8282804 170.645
-5.4507198 9.6858501 170.685
-4.97404 9.33992 170.67999
-4.8545198 9.1484098 170.47
-4.9097199 9.3258696 170.703
-4.7878098 9.1586399 170.493
-4.8245702 9.3729897 170.694
-4.7084298 9.21245 170.47701
-9.0482101 14.6499 169.12199
-8.4790897 14.0404 168.18401
-7.8993301 13.3497 168.76601
-9.7468996 15.2628 168.592
-9.1298199 14.5764 167.61
-9.6185398 15.1529 170.11501
-10.3684 15.826 169.649
-8.39254 13.8632 169.618
-8.8939896 14.2893 170.52
-6.30446 6.9368701 171.692
-6.1965199 6.84378 171.478
-6.2411199 6.7584701 171.55099
-6.2360601 7.0261002 171.605
-6.1543899 6.9281702 171.401
-6.3656502 6.8576698 171.76401
-6.0366201 6.8870001 171.16
-6.1085801 7.0213299 171.30901
-6.0504398 6.8139701 171.241
-5.2368999 7.0887799 169.222
-5.2782102 7.3523302 169.323
-5.3831301 7.2857599 169.13699
-5.2109599 6.8077402 169.138
-5.3221798 6.9801798 169.039
-5.2836199 6.69174 168.98199
-5.1941299 6.5250502 169.077
-5.1786699 6.23248 169.034
-5.2573299 6.4305501 168.94901
-5.2288198 6.1610699 168.918
-6.5552502 9.3638 171.067
-6.7158399 9.3832998 171.453
-6.8547802 9.9296703 171.35899
-6.4534101 9.1166697 171.16
-6.6149702 9.1140604 171.52699
-6.3863602 9.2678204 170.685
-6.2855201 9.04988 170.79401
-6.68367 9.9160004 170.92
-6.5006299 9.7768402 170.507
-6.8322001 8.3955898 172.33501
-6.7664299 8.6876698 172.175
-6.8928499 8.4721003 172.293
-6.8380799 8.78477 172.092
-6.84269 9.2723598 171.793
-6.93154 9.0173397 172.088
-7.0751801 9.38696 172.17599
-6.74575 9.0057201 171.84
-6.9857001 9.7456102 171.784
-5.7135 8.5566502 170.091
-5.8343 8.7760696 170.311
-5.9993801 8.7915401 170.215
-5.5039902 8.6726799 170.13901
-5.6184101 8.8980999 170.34599
-5.6034498 8.3022099 169.89301
-5.40065 8.4161701 169.951
-5.8768501 8.5799904 169.98199
-5.7635102 8.3340197 169.77299
-7.7999501 12.9305 170.047
-7.4089999 12.5169 169.321
-7.0104799 11.57 169.815
-8.2290297 13.2801 170.847
-7.29849 11.8755 170.408
-7.6356201 11.9697 171.261
-6.9210701 10.8012 170.7
-7.1093798 10.7735 171.25101
-6.70401 10.5947 170.217
-10.4662 15.6862 168.077
-9.8203897 14.9639 167.07001
-11.1775 15.9522 167.605
-10.511 15.2324 166.584
-11.1183 16.275801 169.181
-11.8512 16.5389 168.737
-8.6975498 13.5522 171.71201
-9.38484 14.5572 171.464
-8.2094202 12.5191 172.048
-10.158 15.4422 171.145
-10.9542 16.1332 170.756
-11.7344 16.587799 170.349
-12.49 16.845501 169.948
-11.9371 14.6093 175.25101
-12.2529 13.9256 176.131
-10.9937 13.8937 175.12801
-11.2369 13.2605 175.91701
-10.1394 13.1531 174.855
-9.4377098 12.5501 174.44
-9.50247 11.9574 174.98599
-10.2999 12.5661 175.521
-7.2270098 10.4045 171.839
-7.5759501 11.078 172.07899
-7.29774 9.8541403 172.38
-7.5961099 10.3354 172.71899
-8.8924799 12.1657 173.88499
-8.4328299 11.8891 173.23801
-8.3765497 11.1298 173.761
-8.8739204 11.4972 174.379
-7.9939299 11.5684 172.586
-7.9569402 10.7608 173.19
-6.2336001 9.14149 170.35699
-6.1335001 8.9444599 170.479
-6.09833 8.9753599 170.078
-6.3343902 9.5933304 170.14999
-6.1870899 9.3691797 169.855
-6.6318302 7.0768399 172.27
-6.71345 7.06461 172.32001
-6.5388298 6.90415 172.052
-6.6030202 6.83847 172.11
-6.7193999 8.7452297 172.76401
-6.6514602 8.9985199 172.56599
-5.51723 9.2943201 170.519
-5.74929 9.0696602 170.57899
-5.6663198 9.4418602 170.782
-5.90697 9.1882296 170.862
-5.39784 9.1090603 170.304
-5.9691501 8.9348803 170.56
-6.1261101 9.0388002 170.86099
-5.33776 7.5847702 169.436
-5.1539402 7.66219 169.505
-5.2235799 7.90552 169.634
-5.4645 7.57059 169.26801
-5.4138999 7.8073301 169.565
-5.5584898 7.8319502 169.42101
-5.2945399 8.8882999 170.11301
-5.1146898 9.10116 170.05901
-5.2009501 8.6456699 169.94
-4.97261 9.2242203 170.02699
-4.8503699 9.2635098 170.032
-4.7322302 9.2603903 170.067
-4.6310401 9.2322102 170.118
-5.1149402 8.3919001 169.783
-5.0359201 8.1204596 169.63699
-5.3070402 8.15623 169.782
-5.1197901 4.8445401 169.26401
-5.17169 4.8014798 169.36301
-5.1235299 4.9023499 169.198
-5.1616502 4.8622398 169.265
-5.10533 5.0292201 169.12
-5.1456399 4.99968 169.17799
-5.8253698 7.41359 170.508
-5.7196002 7.5567698 170.341
-5.8097701 7.5237899 170.549
-5.6998701 7.6457 170.366
-5.8516402 7.3147001 170.478
-5.6080899 7.6335502 170.168
-5.5746002 7.7311101 170.19299
-4.6571298 7.2919898 169.735
-4.5881801 7.2825198 169.66
-4.711 7.2919002 169.811
-4.76196 7.2894402 169.89999
-4.8309898 7.2964802 169.979
-4.3628302 7.2463298 169.37801
-4.3521399 7.6399498 169.515
-4.42349 7.24928 169.467
-4.4149799 7.6249199 169.601
-4.5050201 7.2645798 169.567
-4.4915199 7.6227298 169.674
-5.8013101 7.6319399 170.61099
-5.6950698 7.7463198 170.42
-5.7967701 7.7176299 170.672
-5.6961002 7.8362002 170.481
-5.8926802 7.5114102 170.836
-5.56709 7.8446898 170.254
-5.57514 7.9567499 170.332
-4.4995799 7.9711299 169.784
-4.4293699 7.9868498 169.74699
-4.3675399 8.0179005 169.674
-4.3308201 8.06001 169.589
-5.5910101 8.0546198 170.407
-5.7020402 7.9040999 170.52901
-5.8022699 7.7821398 170.713
-5.8393698 7.8748498 170.757
-4.7616301 8.9547997 170.29201
-4.68606 8.9819803 170.323
-4.60989 9.0382795 170.30099
-4.5633101 9.1154203 170.239
-4.5700598 9.1835003 170.17599
-6.2178102 7.8852501 171.47099
-6.17063 7.8965402 171.392
-6.2320099 7.7639699 171.563
-4.92589 7.3232799 170.013
-4.9671698 7.1064901 169.957
-5.0434399 6.9078202 169.996
-5.1061602 6.7228999 170.034
-5.12637 6.5425801 169.987
-4.3509698 6.47894 169.04601
-4.3527398 6.1465602 168.98399
-4.3868399 5.84623 168.95399
-4.3695898 5.87078 169.03
-4.3751798 5.90832 169.10899
-4.4165602 5.6647701 169.12
-4.47751 5.4609599 169.146
-4.5482998 5.30512 169.19501
-4.6225901 5.2035799 169.278
-4.7020898 5.1517501 169.39101
-4.78866 5.1420102 169.519
-4.8020802 5.24334 169.577
-4.8541498 5.3736701 169.67799
-4.91962 5.5376701 169.80099
-4.97332 5.71661 169.903
-5.0355201 5.8744402 169.97
-5.1169801 5.7196598 170.05299
-5.1277299 5.9937201 169.995
-6.3566499 8.3465796 172.67999
-6.3505001 8.1826296 172.61099
-6.3516598 8.0887203 172.522
-5.90801 8.0402899 170.821
-6.01367 7.9913101 171.02299
-6.1012802 7.94031 171.231
-6.2923799 7.6423602 171.729
-6.15624 7.13799 171.49699
-6.0686102 7.2645001 171.33099
-5.9801602 7.3896098 171.093
-5.2790198 5.8414602 170.24899
-5.3913898 6.0532598 170.409
-5.4827199 6.7047901 170.61301
-5.4449601 6.6242099 170.71001
-5.4181299 6.5307698 170.515
-5.5906901 6.6694698 170.57401
-5.4148102 6.2989001 170.474
-5.6059499 6.2755899 169.987
-5.7210102 6.4379501 170.037
-5.7026 6.0967102 170.95799
-5.7961798 5.95855 171.036
-5.60605 6.2800498 170.899
-5.5018501 6.4691 170.81599
-5.6213498 6.5725298 170.94701
-5.7226701 6.5240598 170.608
-5.8596001 6.3683701 170.638
-5.8289499 6.62117 170.72501
-5.9608898 6.46697 170.741
-6.1466899 6.5401902 171.448
-6.1928101 6.37078 171.517
-6.3404498 6.5209098 171.69501
-6.1028099 6.6512499 171.38
-6.2906199 6.6574101 171.62
-6.0706501 6.7374401 171.311
-5.9271002 6.6540999 171.181
-5.7712202 6.6152501 171.067
-5.92452 6.6799102 170.815
-6.0293102 6.5619202 170.79401
-5.9815001 6.7454 170.823
-6.0499001 6.6661901 170.767
-5.13939 5.3613901 169.032
-5.1466799 5.6311002 169.004
-5.1608601 5.5869098 168.886
-5.1438799 5.1277699 169.095
-5.1361299 5.2988 168.922
-5.1332598 5.0334501 169.024
-5.1618099 5.9281602 169.008
-5.1949401 5.8755798 168.894
-5.2066598 4.7434702 169.425
-5.2431402 4.6592102 169.517
-5.30299 4.7287998 169.705
-5.1797199 4.7941799 169.297
-5.1954799 4.6884398 169.349
-5.2494798 4.7723398 169.595
-5.15802 4.9278698 169.187
-5.1558499 4.8194299 169.177
-4.3375001 8.0980597 169.521
-4.3928699 8.1249599 169.47
-4.6494498 7.25635 169.11301
-4.5508199 7.2608099 169.099
-4.4867301 8.1372204 169.427
-4.4584699 7.6959901 169.261
-4.4563498 7.2587299 169.123
-6.4239702 6.7717299 171.827
-6.4783502 6.6684599 171.895
-5.9732699 8.7533102 169.828
-5.8565302 8.5012598 169.605
-6.0503898 9.0921097 169.60899
-5.9218202 8.7955799 169.386
-5.3978 5.0913801 170.14799
-5.45964 5.0770502 170.217
-5.3672299 4.96804 170.00301
-5.40797 4.9683099 170.061
-5.3000202 5.01758 169.972
-5.3161998 4.95649 169.92599
-5.2046599 4.9340601 169.763
-5.2599001 4.8873 169.763
-5.7401199 8.2294102 169.394
-5.6581898 8.0831499 169.588
-5.6114502 7.9005899 169.17799
-5.7800398 8.4626198 169.12601
-5.5030799 7.7665501 168.60899
-5.50316 8.0460396 169.717
-4.9681401 7.82306 169.495
-6.1473398 9.8404303 171.821
-6.0258298 9.6836395 171.47501
-6.3515601 9.5481596 172.054
-6.3179898 9.2961998 171.689
-5.4584899 10.0058 170.957
-5.62398 9.8418503 170.995
-6.30582 9.0946703 171.22099
-6.4901299 9.0694904 171.59801
-6.0954199 9.2629004 171.21201
-6.6507902 8.92834 171.92799
-6.5707998 9.0321999 172.088
-6.5276899 9.2666903 172.319
-5.8485999 9.5592403 171.10899
-5.98634 6.8656902 170.717
-6.0303402 6.8021698 170.651
-5.9475098 7.0370102 170.564
-5.9752102 6.9552202 170.472
-5.8840098 7.2233601 170.433
-5.8980198 7.112 170.356
-5.78722 6.6118002 170.08299
-5.8310699 6.7849798 170.151
-5.8694501 6.64925 170.15601
-5.9098001 6.80969 170.228
-5.8744898 6.9600701 170.25101
-5.94416 6.9198499 170.325
-5.9909902 6.2970099 170.60001
-5.8990002 6.2803998 170.44901
-6.0970702 6.3008399 170.535
-5.9933701 6.2974701 170.37399
-6.0981698 6.38341 170.70599
-6.2133999 6.38379 170.658
-5.87851 6.37006 170.285
-5.9126301 6.5327601 170.17799
-5.9649701 6.4119501 170.224
-5.9987302 6.5922098 170.14799
-5.9600701 6.7063298 170.183
-5.99998 6.8351998 170.259
-6.05194 6.7586298 170.175
-6.0997801 6.8678398 170.25999
-6.0323901 6.8906398 170.35001
-6.0694599 6.8582501 170.46201
-6.1361499 6.90134 170.354
-6.1747298 6.8543 170.457
-6.1160498 6.7455301 170.59801
-6.1532001 6.6069498 170.709
-6.2247901 6.7421298 170.577
-6.2676201 6.6075902 170.675
-6.1546798 6.4875998 170.74699
-6.2725401 6.4881902 170.70799
-6.1697302 6.3364801 170.507
-6.2899399 6.44028 170.645
-6.06809 6.31566 170.33701
-6.0427799 6.4274802 170.19299
-6.0823598 6.6139102 170.12801
-6.1462998 6.78649 170.164
-6.2047901 6.9035201 170.259
-6.2467799 6.94979 170.366
-6.2868099 6.9155202 170.478
-6.3357902 6.8105001 170.59599
-6.3716202 6.67801 170.687
-6.3621402 6.5560899 170.70799
-5.3110299 4.8578701 169.80701
-5.36834 4.8589702 169.916
-17.311001 15.8052 173.855
-16.4993 15.8769 174.209
-16.9014 15.0069 175.274
-16.7883 16.4125 172.67101
-15.9756 16.479401 173.03
-18.1052 15.6581 173.446
-17.5784 16.266399 172.26199
-17.711 14.9251 174.929
-18.503099 14.7753 174.52299
-16.150801 16.791901 171.395
-16.9384 16.6446 170.98
-16.2225 16.823 169.653
-15.3444 16.8566 171.77
-15.4469 16.9695 170.073
-14.6608 17.032 170.465
-13.2559 16.158899 166.41299
-12.5532 16.174299 166.791
-13.2741 16.714199 167.923
-12.5395 15.5199 165.40401
-11.8491 15.5112 165.771
-13.9537 16.0446 166.028
-13.2255 15.4163 165.02901
-13.9935 16.672899 167.52901
-14.7084 16.5446 167.129
-14.7247 16.943199 168.763
-13.9732 16.999901 169.16299
-15.4707 16.802999 168.349
-15.6897 15.8836 174.52499
-15.1619 16.473101 173.36
-16.0942 15.0325 175.573
-14.541 16.8395 172.119
-13.8838 17.0079 170.838
-13.2309 16.9716 169.55499
-12.5644 16.6738 168.321
-11.8664 16.1068 167.181
-11.18 15.4122 166.157
-5.4772301 7.5086398 168.97
-5.3636498 7.0987701 168.80499
-5.3125 7.09864 168.44701
-5.1919398 6.5869002 168.317
-17.5138 3.8362801 162.855
-17.5037 3.7102101 162.746
-17.583599 3.84216 162.716
-17.452101 3.68104 162.86301
-17.455799 3.62922 162.769
-17.563999 3.95434 163.026
-17.4723 3.75214 163.015
-17.5965 3.9999399 162.834
-17.6693 4.1525998 163.024
-17.694099 4.1635499 162.79401
-17.679899 4.0004802 162.666
-17.794701 4.17171 162.608
-17.772499 4.3158002 162.989
-17.8027 4.3174801 162.73801
-17.867399 4.44029 162.92799
-19.1728 4.7005 164.651
-19.1598 4.8619399 164.442
-19.292801 4.9064798 164.47701
-19.054701 4.59726 164.554
-19.0228 4.7820702 164.332
-19.2176 4.5539999 164.77901
-19.1108 4.5062699 164.69
-19.3216 4.7645998 164.69099
-19.372801 4.6197 164.819
-18.810101 5.0266099 162.774
-18.8591 4.9460301 162.752
-18.989401 5.0423298 162.851
-18.684999 4.92909 162.69299
-18.728399 4.8392 162.664
-18.7647 5.1353998 162.808
-18.642401 5.0327401 162.73199
-18.931101 5.10396 162.866
-18.881701 5.2032199 162.895
-18.725 5.2314501 162.90401
-18.599199 5.10431 162.83
-18.6668 5.2406101 163.05
-18.542 5.0918298 162.97301
-18.854401 5.3101602 162.987
-18.832399 5.3713298 163.173
-19.394699 5.5237398 163.08
-19.446501 5.6937099 163.041
-19.599899 5.7954998 163.248
-19.275999 5.4084201 162.89999
-19.3125 5.56776 162.83501
-19.372101 5.4148998 163.099
-19.265699 5.31076 162.95
-19.531 5.6205702 163.263
-19.4867 5.4993901 163.25999
-19.676901 5.6883702 163.431
-19.601 5.5552101 163.41499
-19.8146 5.7223902 163.59
-19.709 5.5781298 163.56599
-19.7696 5.8630199 163.43401
-19.9296 5.8996902 163.605
-19.177401 4.9699998 164.31
-19.2668 5.00106 164.29601
-19.1175 4.9834099 164.22701
-19.226999 5.0568399 164.162
-19.442801 4.7703099 164.66299
-19.542299 4.7523499 164.618
-19.624201 4.6958799 164.75
-19.3927 4.8771 164.45399
-19.4799 4.8222299 164.41701
-19.5126 4.6644502 164.78799
-19.352501 4.9626598 164.257
-19.4326 4.8982301 164.214
-19.3169 5.0313001 164.09599
-19.398399 4.9751 164.03999
-19.2847 5.10074 163.957
-19.3738 5.05054 163.89799
-19.248699 5.1819501 163.81799
-19.3489 5.1252899 163.767
-19.181499 5.1189599 164.039
-19.134001 5.2079201 163.903
-19.696899 5.0260301 164.248
-19.747999 5.16645 164.293
-19.8244 5.1009998 164.526
-19.633499 5.0894699 164.062
-19.672501 5.2172999 164.09801
-19.6304 4.9313302 164.21201
-19.577499 5.0051298 164.03
-19.758301 4.95999 164.47
-19.6831 4.8635302 164.424
-19.808901 4.8977399 164.69099
-19.8881 5.0246701 164.763
-19.9205 4.9316201 164.892
-19.7313 4.8124199 164.629
-19.8297 4.8313098 164.82201
-19.7635 4.7838001 164.754
-20.265699 5.36973 164.70599
-20.2675 5.47295 164.765
-20.3703 5.6673398 164.592
-20.142799 5.14709 164.815
-20.1432 5.2686501 164.894
-20.289499 5.28053 164.605
-20.162201 5.0457802 164.679
-20.366501 5.5934 164.55099
-20.390301 5.5233598 164.485
-20.7572 5.8555799 164.392
-20.739 6.08005 164.147
-20.7339 6.18922 164.22
-20.679701 5.7760301 164.32201
-20.670099 5.9854398 164.097
-20.7181 5.5915799 164.597
-20.6348 5.5248299 164.506
-20.760799 5.9552398 164.48199
-20.730301 5.6807899 164.705
-20.544399 5.7381601 164.295
-20.5403 5.9322801 164.08501
-20.437599 5.74858 164.321
-20.430799 5.9567699 164.104
-20.4984 5.4980302 164.464
-20.4203 5.7912202 164.38499
-20.4394 5.9514298 164.23801
-20.429501 5.8298402 164.435
-20.451599 5.9547701 164.30901
-20.5007 6.05476 163.86099
-20.415199 6.1062999 163.62601
-20.521799 6.2076302 163.59801
-20.390499 6.0546799 163.867
-20.304001 6.0887299 163.65199
-20.6185 6.1314502 163.854
-20.674601 6.2442899 163.881
-20.659201 6.3628001 163.935
-20.5646 6.3393502 163.599
-20.538 6.4676199 163.632
-20.336201 6.1248398 163.843
-20.3995 6.08676 164.008
-20.365299 6.1311898 163.957
-20.2332 6.1567302 163.647
-20.2871 6.1628399 163.808
-20.166201 6.1905899 163.627
-20.0931 5.7160001 164.02901
-20.209801 5.9081302 164.03799
-20.264799 5.90065 164.14799
-20.0193 5.7186999 163.89799
-20.1437 5.91506 163.914
-19.971201 5.5660801 164.01199
-19.893299 5.5619702 163.87
-20.161699 5.7311201 164.14999
-20.051201 5.5961299 164.15199
-20.405001 6.36414 163.30099
-20.3678 6.5007801 163.314
-20.1931 6.3199801 162.989
-20.1465 6.4582601 162.985
-20.372499 6.2176099 163.32401
-20.1714 6.1704898 163.033
-20.2717 6.1009402 163.37399
-20.080099 6.0533199 163.10201
-20.158001 6.0801802 163.41499
-19.9722 6.03789 163.15601
-19.543301 5.9243798 162.981
-19.7069 6.0222802 163.21201
-19.6437 6.0769 162.93201
-19.814899 6.1640801 163.18201
-19.3916 5.7863798 162.754
-19.4755 5.9384198 162.69299
-19.234501 5.6252298 162.55499
-19.292999 5.7644501 162.48599
-19.066799 5.4582 162.394
-19.100401 5.5804901 162.32201
-19.186701 5.43084 162.651
-19.0539 5.2887902 162.49699
-19.1703 5.2843399 162.744
-19.057199 5.1542702 162.60699
-19.167299 5.19523 162.827
-19.0571 5.0717101 162.71201
-17.920601 4.4590702 162.68401
-17.957399 4.5398698 162.86099
-18.0469 4.5934501 162.65401
-18.055799 4.6367202 162.821
-17.931299 4.3446398 162.56799
-18.077499 4.50912 162.558
-18.180401 4.72579 162.664
-18.2208 4.6586399 162.578
-18.3627 4.7933998 162.617
-18.1717 4.74545 162.82401
-18.320499 4.85425 162.70599
-18.2974 4.8579302 162.86
-18.369101 4.3972101 162.30299
-18.304001 4.45645 162.19
-18.4513 4.65446 162.20399
-18.216 4.20227 162.28799
-18.153299 4.2344599 162.185
-18.4252 4.3678598 162.41
-18.2686 4.1917 162.392
-18.5072 4.5719299 162.319
-18.5518 4.5281601 162.424
-18.2813 4.51226 162.06599
-18.296499 4.5416398 161.955
-18.454901 4.8046699 161.966
-18.1243 4.2565799 162.08099
-18.118401 4.2575998 161.978
-18.430599 4.74508 162.075
-18.4632 4.9775801 162.763
-18.4212 4.9671998 162.911
-18.506001 4.9169798 162.66901
-18.8936 5.2950702 162.272
-18.912701 5.4042702 162.198
-18.7269 5.1296101 162.17999
-18.743999 5.2277598 162.10001
-18.906099 5.1431298 162.373
-18.750601 4.9918299 162.284
-18.922001 5.0177202 162.483
-18.7771 4.8761601 162.38901
-18.9226 4.9417601 162.593
-18.784401 4.80866 162.495
-18.2882 4.5625701 162.56599
-18.364401 4.4644399 162.564
-18.492399 4.60286 162.586
-18.139999 4.4074202 162.54201
-18.2127 4.3079 162.539
-18.424299 4.69838 162.59801
-18.900299 4.9165101 162.69099
-18.765699 4.7955999 162.595
-19.035299 5.03266 162.8
-19.148899 5.1398902 162.896
-19.105301 5.1240201 162.938
-19.2474 5.23736 162.992
-19.2057 5.1937099 163.024
-19.3346 5.2570901 163.37399
-19.219299 5.27984 163.36099
-19.167 5.2775002 163.23801
-19.3752 5.2347398 163.49899
-19.27 5.2522101 163.492
-19.431801 5.32059 163.382
-19.488501 5.3207502 163.541
-19.2817 5.2518702 163.25301
-19.369699 5.2980499 163.252
-19.4582 5.0398698 163.875
-19.4298 5.1134801 163.75101
-19.4914 5.15101 163.765
-19.4918 4.9626698 164.01801
-19.528601 5.0771298 163.884
-18.958401 5.2268901 163.853
-18.882999 5.2962399 163.675
-19.0082 5.3923602 163.562
-18.8619 5.0317702 163.942
-18.7738 5.0850701 163.765
-19.0179 5.1314702 164.005
-18.926701 4.9602599 164.082
-19.0767 5.3106399 163.74001
-19.201599 5.27107 163.664
-19.1434 5.3436699 163.50301
-19.3144 5.1965599 163.631
-19.4042 5.1824002 163.627
-19.4743 5.2305298 163.65601
-19.929001 5.7270598 163.748
-19.8069 5.5734601 163.72
-20.054199 5.9144502 163.767
-19.8134 5.3375502 164.32899
-19.7223 5.37321 164.12601
-19.805 5.4926 164.14301
-19.906799 5.2755599 164.57001
-19.9074 5.48352 164.343
-20.012899 5.4447999 164.571
-19.9846 5.1905298 164.811
-20.024599 5.0815001 164.929
-20.100401 5.37289 164.79201
-19.6453 5.37989 163.955
-19.717501 5.4769101 163.966
-19.584299 5.3544998 163.821
-19.6446 5.4408898 163.812
-19.608101 5.2507801 163.942
-19.568701 5.2701001 163.845
-20.0259 5.5700998 164.328
-20.1327 5.5785799 164.517
-20.141899 5.6467199 164.297
-20.2397 5.6919999 164.437
-19.9238 5.54111 164.151
-19.836 5.5115499 163.98801
-19.7579 5.4888802 163.83501
-19.68 5.4707398 163.687
-19.5774 5.3888502 163.679
-19.6001 5.45331 163.53999
-19.5207 5.4309502 163.396
-19.4368 5.3900299 163.25301
-19.343901 5.3232298 163.114
-19.2941 5.2536201 163.13
-18.4212 4.3919802 162.508
-18.544399 4.5395598 162.524
-18.2656 4.2289 162.48599
-20.223301 5.54776 164.689
-20.327 5.7033801 164.549
-20.3269 6.0500798 164.047
-20.2715 6.0700102 163.929
-20.365499 6.0242901 164.146
-20.412201 6.1019301 164.073
-20.427401 6.07516 164.144
-20.186001 6.0833201 163.784
-20.0581 6.0872698 163.614
-20.442801 6.0626302 164.133
-20.4485 6.0392199 164.209
-19.576099 5.1468801 163.914
-19.537399 5.2125602 163.80299
-19.5315 5.2986398 163.722
-19.640699 4.7627902 164.603
-19.582701 4.8134999 164.40401
-19.712099 4.73875 164.748
-19.5331 4.8839202 164.198
-19.079201 5.3758101 163.34801
-18.93 5.4208698 163.383
-19.0229 5.35952 163.19901
-18.797701 5.3145099 163.489
-18.6991 5.2585602 163.325
-18.684 5.1080699 163.575
-18.627001 5.1151099 163.431
-19.0634 5.0394602 164.12399
-18.9662 4.8789101 164.18201
-18.992201 5.3008599 163.06799
-19.1189 5.2508402 163.12399
-18.999001 5.2235599 162.98399
-19.0872 5.22015 163.048
-19.045099 5.1563802 162.95399
-19.1427 5.1940298 163.041
-19.2195 5.2277699 163.14
-20.389601 5.8330002 164.429
-20.4102 5.92904 164.332
-20.3125 5.8039498 164.368
-20.3512 5.8860202 164.323
-20.396799 5.9888501 164.239
-20.3148 5.8944001 164.25
-20.2337 5.7643299 164.26801
-18.575199 4.9495802 162.114
-18.598801 4.8310499 162.231
-18.5973 5.0324602 162.01801
-18.6395 4.7293601 162.34
-18.6642 4.6729398 162.444
-18.651199 4.6718898 162.54401
-18.6087 4.7259498 162.612
-18.556 4.8193598 162.636
-19.888201 6.07271 163.424
-19.998699 6.1976399 163.41701
-20.0767 6.1603198 163.423
-19.892799 6.12711 163.174
-17.5902 3.68349 164.056
-17.5506 3.8034301 164.086
-17.608601 3.89729 164.19299
-17.4886 3.6394701 163.94
-17.4939 3.7398601 164.004
-17.594299 3.5771699 164.007
-17.4804 3.5388501 163.85699
-17.6758 3.8001201 164.185
-17.6992 3.7024601 164.151
-17.4081 3.7264199 163.867
-17.434999 3.8209701 163.97701
-17.375799 3.8817999 163.849
-17.389099 3.90836 163.946
-17.401899 3.64889 163.755
-17.3871 3.8394599 163.72501
-17.403799 4.0202599 163.88499
-17.409599 3.9890101 163.998
-17.48 4.11731 163.95399
-17.462999 4.0654898 164.067
-17.440399 4.0101099 163.76401
-17.535101 4.1244402 163.84
-17.576401 4.1701798 164.03101
-17.5387 4.1134901 164.13901
-17.659201 4.1640601 164.12399
-17.603701 4.1308398 164.189
-17.635 4.17627 163.924
-17.715099 4.1553102 164.02499
-17.7083 4.0957398 164.229
-17.631399 4.0773201 164.26601
-17.7279 4.0001898 164.29601
-17.6665 4.0190701 164.31599
-17.7624 4.0659399 164.145
-17.7771 3.9458201 164.233
-17.7204 3.90674 164.27901
-17.644501 3.97245 164.283
-17.759899 3.82795 164.237
-17.5686 4.04181 164.23199
-17.5187 3.98824 164.153
-17.473301 3.91166 164.06799
-16.8048 2.01419 162.60699
-16.714701 1.99005 162.661
-16.633499 2.01577 162.493
-16.907101 2.03948 162.769
-16.826799 2.0059299 162.82899
-16.8899 2.0578599 162.56599
-16.9848 2.0905399 162.72
-16.7295 2.02863 162.44701
-16.820101 2.0646801 162.41499
-16.683701 2.0871 162.289
-16.7775 2.1138101 162.269
-16.6775 2.18927 162.138
-16.773399 2.2063301 162.131
-16.5844 2.08584 162.325
-16.577299 2.19766 162.16299
-16.535601 2.38552 162.05499
-16.477699 2.4381299 162.114
-16.571199 2.6287601 161.97701
-16.4909 2.22995 162.207
-16.432699 2.27581 162.263
-16.621 2.34712 162.017
-16.6297 2.5730801 161.91901
-16.7127 2.5321901 161.886
-16.4575 2.49295 162.19
-16.4769 2.54354 162.28999
-16.565001 2.7463 162.172
-16.411501 2.3225601 162.33
-16.429199 2.36182 162.41499
-16.549 2.6879001 162.05901
-17.0173 3.4470899 161.827
-17.0445 3.39429 161.737
-16.865999 3.1056001 161.77499
-17.2176 3.7537899 161.808
-17.245899 3.7112801 161.71899
-17.016399 3.4967599 161.955
-17.211201 3.78509 161.936
-16.839001 3.1642499 161.864
-16.843201 3.22455 161.992
-17.1003 3.3417599 161.67999
-16.923599 3.05039 161.71899
-17.1721 3.3004799 161.65601
-16.9979 3.00881 161.69501
-17.3022 3.6638899 161.659
-17.374001 3.62324 161.63
-17.9695 4.8009801 161.80901
-18.021099 4.7991199 161.714
-17.741899 4.4193201 161.688
-18.2173 5.1381302 161.869
-18.277901 5.14149 161.769
-17.9125 4.7425399 161.94701
-18.138901 5.0545502 162.01199
-17.7005 4.43262 161.77901
-17.6679 4.40839 161.912
-18.6805 5.21416 161.69299
-18.6276 5.2892499 161.70599
-18.808399 5.4897799 161.793
-18.469801 4.9655499 161.62199
-18.417601 5.03438 161.63499
-18.7194 5.1410098 161.733
-18.5096 4.8994098 161.661
-18.863899 5.4134402 161.78101
-18.901501 5.3385901 161.821
-16.680099 2.91098 161.944
-16.705299 2.8504601 161.858
-16.690201 2.97347 162.067
-16.763901 2.7941201 161.80099
-16.842501 2.75247 161.77299
-17.7307 3.46328 162.252
-17.651899 3.24067 162.338
-17.523899 3.1930001 162.18201
-17.8155 3.5027699 162.36
-17.755699 3.2878499 162.474
-17.8312 3.71913 162.17101
-17.8885 3.74263 162.254
-17.625 3.4228301 162.125
-17.7607 3.6893001 162.07001
-17.302099 2.91448 162.061
-17.224899 2.73406 162.125
-17.0905 2.6167901 161.996
-17.4431 3.0082099 162.237
-17.3619 2.8377099 162.28799
-17.3909 3.11974 162.00999
-17.175501 2.81357 161.91701
-17.2782 3.04545 161.862
-17.513 3.3683901 161.972
-17.6793 3.64959 161.94
-17.417999 3.3157301 161.83099
-17.604601 3.6128099 161.811
-17.7356 3.88623 162.64799
-17.8176 3.8057201 162.672
-17.904699 3.9655399 162.569
-17.644899 3.7341199 162.714
-17.7393 3.6562901 162.758
-17.8407 4.05515 162.57201
-17.547701 3.60834 162.73399
-17.625401 3.5195601 162.771
-17.463499 3.5355799 162.767
-17.5023 3.41875 162.789
-17.5711 3.0553999 162.407
-17.4711 2.8778501 162.45399
-17.671499 3.0987699 162.558
-17.540701 2.88517 162.647
-18.257299 3.68926 163.755
-18.1735 3.71331 163.78
-18.207899 3.7892799 163.90601
-18.2083 3.66078 163.545
-18.117001 3.6767199 163.606
-18.315399 3.6046901 163.78799
-18.2743 3.5611899 163.57899
-18.302299 3.72474 163.946
-18.3494 3.6500199 163.99001
-17.166201 2.2361 162.83
-17.3319 2.3752301 163.011
-17.2794 2.2876401 163.073
-17.182501 2.2951601 162.757
-17.363501 2.4794099 162.929
-17.048901 2.1545 162.687
-17.0886 2.2095399 162.668
-17.1103 2.16359 162.882
-19.076799 4.0767899 164.586
-19.252701 4.0960698 164.716
-19.2782 4.0497799 164.879
-19.0625 4.1750202 164.43201
-19.227301 4.1726699 164.57201
-18.895 4.0643301 164.44299
-18.851101 4.21064 164.217
-19.0926 4.0036201 164.758
-18.905899 3.97118 164.61501
-19.274401 4.4474802 164.73
-19.444099 4.5090199 164.778
-19.513 4.4253702 164.677
-19.1255 4.4289098 164.612
-19.3304 4.3654399 164.618
-19.164499 4.3450599 164.509
-19.3727 4.2856598 164.593
-19.4041 4.20894 164.674
-19.559999 4.35007 164.65601
-19.594 4.2864599 164.737
-19.2005 4.2602 164.49001
-19.435801 4.1511798 164.814
-19.4671 4.1289201 164.97501
-19.628901 4.2480698 164.88
-19.6614 4.2467098 165.043
-19.490801 4.15065 165.12399
-19.299999 4.0464401 165.02901
-19.500099 4.20858 165.241
-19.3109 4.0797 165.149
-19.681499 4.2864099 165.19099
-19.682501 4.35783 165.3
-16.410601 2.1798201 162.47501
-16.4203 2.2072599 162.53799
-16.4459 2.07851 162.616
-16.434799 2.11237 162.62601
-16.4375 2.14288 162.425
-16.4837 2.0473599 162.59
-16.497999 2.1078 162.373
-16.5481 2.0246899 162.545
-21.128099 10.8626 166.79601
-21.0889 11.9165 167.189
-21.5777 11.6424 168.036
-20.629101 10.8622 166.01801
-20.528999 12.0081 166.313
-21.1513 9.9134102 166.633
-20.6996 9.7757397 165.933
-21.5397 10.6767 167.50301
-21.452999 10.0101 167.159
-16.719299 2.3326001 162.002
-16.815399 2.3417799 162.006
-16.805201 2.51477 161.88
-16.8957 2.5185699 161.89301
-17.353399 3.28514 161.742
-17.5495 3.5929599 161.72
-17.302299 3.2751901 161.69299
-17.501699 3.58968 161.666
-17.1994 3.00265 161.772
-17.1383 2.9883001 161.72701
-17.6812 3.9421699 161.592
-17.613001 3.97153 161.595
-17.8825 4.3389802 161.57001
-17.4438 3.5989299 161.63499
-17.737499 3.92377 161.62601
-17.9464 4.2997398 161.561
-17.998301 4.26682 161.597
-16.718399 3.0330801 162.22
-16.8612 3.28459 162.15401
-16.7208 3.07077 162.356
-16.8531 3.3327 162.30299
-16.601601 2.7962501 162.308
-16.6119 2.8162 162.424
-16.5184 2.58038 162.409
-16.4701 2.3840301 162.515
-16.49 2.37289 162.595
-16.535 2.5833499 162.505
-17.4067 4.0787702 162.084
-17.616699 4.3552098 162.092
-17.3459 4.0869699 162.252
-17.525299 4.32581 162.27499
-17.205 3.8080001 162.09599
-17.1656 3.83867 162.252
-17.4298 4.0873299 161.91499
-17.0231 3.54355 162.116
-17.000999 3.5883999 162.269
-17.8708 3.5601699 162.468
-17.891701 3.6368899 162.571
-17.842199 3.4670601 162.698
-17.933001 3.7713101 162.343
-17.9561 3.81704 162.439
-17.822201 3.3657899 162.597
-17.7332 3.1894801 162.67799
-17.743099 3.3085301 162.756
-17.6077 3.16412 162.812
-17.614 3.0320401 162.75999
-17.8769 4.3848801 163.179
-17.954599 4.3481598 163.34801
-17.8347 4.2232099 163.366
-17.9629 4.48139 163.117
-18.037399 4.4237199 163.3
-17.7612 4.2326398 163.209
-19.0494 4.27701 164.347
-18.897499 4.3381901 164.159
-18.905399 4.50037 164.166
-19.031 4.3775902 164.35699
-17.540701 2.5657699 163.226
-17.489599 2.46328 163.28799
-17.749399 2.7782099 163.388
-17.700899 2.66131 163.467
-17.5791 2.67399 163.192
-17.7715 2.8885701 163.34
-17.724501 3.3137801 163.46001
-17.8391 3.3862 163.513
-17.9182 3.43659 163.37601
-17.6357 3.38028 163.547
-17.7537 3.33815 163.647
-17.6087 3.2148499 163.397
-17.513599 3.4678299 163.436
-17.8132 3.2667899 163.37399
-17.7005 3.08218 163.35201
-17.922001 2.9822299 163.444
-18.065701 3.1652 163.467
-18.019699 3.0183799 163.627
-17.929701 3.1056399 163.35699
-18.063299 3.30301 163.343
-17.875601 2.8494 163.565
-17.1457 2.56532 162.198
-17.012699 2.4513099 162.09
-17.0868 2.43541 162.28101
-16.9599 2.3261099 162.19501
-17.2687 2.66168 162.332
-17.1912 2.53176 162.35699
-17.3477 2.6905501 162.47301
-17.211201 2.5139699 162.44901
-17.3841 2.6660099 162.621
-17.2384 2.4904799 162.576
-17.073601 2.36588 162.382
-17.1001 2.3371201 162.50301
-16.9855 2.21386 162.436
-16.952101 2.2494099 162.30901
-17.428699 3.6227901 163.151
-17.3936 3.4793401 163.17799
-17.382099 3.4028599 163.048
-17.466299 3.6668301 163.26199
-17.423901 3.5563099 163.255
-17.507 3.80286 163.162
-17.555401 3.83356 163.28999
-17.409901 3.5722401 163.01801
-17.041 2.1031201 162.942
-16.9709 2.0596499 163.006
-17.214701 2.21334 163.14
-17.1437 2.15165 163.201
-17.421801 2.36761 163.36099
-17.325001 2.2674999 163.409
-17.628901 2.54162 163.558
-17.4727 2.3522699 163.617
-19.1075 3.9699199 164.907
-19.1147 3.96668 165.026
-18.918301 3.8708501 164.869
-18.914801 3.91102 164.755
-17.981899 4.2339101 162.537
-18.045 4.1369801 162.528
-18.2498 4.0461798 163.84801
-18.388 4.17275 163.871
-18.478399 4.0447302 164.05701
-18.1763 4.2014999 163.66299
-18.2894 4.3119798 163.66
-18.1357 3.9346499 163.828
-18.0802 4.1058002 163.66901
-18.332001 3.9165001 163.992
-18.7306 4.4340301 163.93201
-18.569799 4.5405202 163.696
-18.6166 4.6545501 163.726
-18.6651 4.3491201 163.925
-18.509501 4.4737601 163.683
-18.760599 4.5735998 163.94299
-18.584299 5.1258898 163.20799
-18.4743 4.9809699 163.131
-18.538401 4.9796801 163.375
-18.445299 4.8386302 163.30701
-17.8071 2.7132399 163.688
-17.9573 2.8745699 163.778
-17.9116 2.7349801 163.93401
-17.723 2.55195 163.81
-18.280899 3.25213 164.089
-18.216801 3.0908501 164.16701
-18.156799 3.046 164.05
-18.3612 3.3603499 164.23399
-18.314301 3.18998 164.332
-18.318399 3.38046 163.98399
-18.3773 3.4728401 164.13901
-18.1966 3.1482301 163.967
-18.249901 3.2874501 163.842
-17.445299 3.2154901 162.931
-17.486099 3.0590601 162.944
-17.3878 3.22806 163.097
-17.4223 3.0602601 163.121
-17.4163 3.37798 162.894
-17.560499 3.29445 162.815
-17.417601 3.5318401 162.871
-17.5112 3.04634 163.269
-17.4701 2.9154999 163.091
-17.5788 2.90154 163.226
-17.4946 2.78652 163.033
-17.435801 3.20715 163.28101
-16.631901 1.98454 162.716
-16.559 1.99287 162.75
-16.7526 1.98737 162.888
-16.672501 1.96945 162.93401
-17.6273 4.0223098 163.19501
-17.688999 4.0360298 163.33701
-19.603001 4.5815001 164.769
-19.7274 4.6615901 164.771
-19.864 4.66822 164.72301
-19.6891 4.51511 164.694
-19.746901 4.4527102 164.68201
-19.9263 4.59588 164.68401
-19.9853 4.5644398 164.765
-19.7883 4.4046798 164.765
-19.875 4.4554901 165.224
-19.8624 4.4029102 165.07899
-20.072399 4.59934 165.084
-19.863199 4.5348301 165.323
-20.075199 4.6617999 165.224
-20.0487 4.7457099 165.313
-19.8295 4.3860202 164.912
-20.0389 4.5658498 164.91499
-18.6656 5.05093 161.96001
-18.7302 5.0486698 161.90401
-18.8916 5.2447 161.993
-18.505301 4.81601 161.897
-18.5434 4.8152299 161.834
-18.815599 5.24963 162.049
-18.7446 5.0788298 161.81799
-18.540899 4.8435001 161.746
-18.918501 5.2743402 161.907
-18.5574 5.3590002 161.75999
-18.7351 5.5609999 161.845
-18.485001 5.4063702 161.84
-18.659401 5.6112099 161.925
-18.3479 5.0984602 161.689
-18.4186 5.4043102 161.944
-18.589899 5.6145802 162.03
-18.331699 5.31497 162.092
-18.504801 5.53405 162.18401
-20.129 14.6826 168.62199
-19.436501 14.868 167.48
-18.888201 15.4515 167.89101
-20.5839 13.9212 168.14
-19.9165 14.1009 167.076
-20.743401 14.3186 169.759
-21.182199 13.561 169.19299
-19.589899 15.2706 169.097
-20.2054 14.9109 170.299
-20.913799 12.9754 167.657
-20.2939 13.1241 166.683
-21.4671 12.6461 168.61501
-21.2514 13.7598 170.85001
-21.6782 13.0161 170.205
-21.6134 12.9919 171.862
-22.0308 12.2911 171.159
-20.7164 14.3411 171.44501
-21.0886 13.5292 172.48801
-19.494699 4.2990599 165.314
-19.3113 4.1431699 165.239
-19.490999 4.45158 165.332
-19.3349 4.2852101 165.32401
-19.6639 4.4562001 165.353
-19.632799 4.59903 165.34
