# .PCD v.7 - Point Cloud Data file format
VERSION .7
FIELDS x y z
SIZE 4 4 4
TYPE F F F
COUNT 1 1 1
WIDTH 1732
HEIGHT 1
VIEWPOINT 0 0 0 1 0 0 0
POINTS 1732
DATA ascii
41.371498 8.2446804 9.4567099
40.821999 8.82938 8.6794395
40.672901 9.0209198 8.5292797
40.893299 8.9352102 8.8521795
40.717499 9.1255798 8.65522
41.334599 8.6246099 9.5424299
41.157001 8.8440504 9.2918997
41.396099 8.8224297 9.7783699
41.213501 9.0134296 9.4981804
41.470798 8.4378004 9.7450705
41.536499 8.6630402 10.0051
40.9571 9.0629997 9.0323801
40.773102 9.24086 8.8089304
41.0084 9.2077799 9.2103996
40.822498 9.3702297 8.9699402
41.428501 9.0410604 9.9857998
41.245602 9.1977301 9.6821404
41.427299 9.2825203 10.158
41.248699 9.3972998 9.8369799
41.569099 8.9137697 10.2336
41.5639 9.1915798 10.4213
41.0396 9.3622198 9.37257
40.8521 9.5069399 9.1172895
41.046101 9.5224895 9.5085402
40.861301 9.6419497 9.24055
41.386902 9.54914 10.2871
41.218498 9.6140299 9.9562702
41.301701 9.8348703 10.3638
41.152 9.8458796 10.0326
41.5154 9.4983902 10.5579
41.416599 9.8248396 10.6335
41.029099 9.6861897 9.6158304
40.862099 9.7660799 9.3502598
40.986099 9.8533602 9.6851196
40.869202 9.8569298 9.4486599
41.169399 10.1297 10.381
41.0476 10.0884 10.0584
40.993801 10.4248 10.3359
40.903301 10.3364 10.026
41.264198 10.1579 10.6429
41.0648 10.4882 10.5887
40.9091 10.0297 9.7028904
40.7967 9.9552898 9.4000702
40.7952 10.2212 9.6718102
40.6959 10.1016 9.3501701
40.784401 10.71 10.2345
40.723999 10.5816 9.9370804
40.555901 10.9728 10.0941
40.5257 10.8102 9.8101597
40.830799 10.8063 10.4805
40.5769 11.0988 10.3338
40.646801 10.4233 9.5963802
40.567299 10.2741 9.2827301
40.4795 10.6197 9.4915504
40.421501 10.4532 9.1999397
40.316601 11.2008 9.9250202
40.320499 11.0078 9.6596203
40.310501 11.3527 10.1546
40.312599 10.7928 9.3781004
40.281399 10.6212 9.1283598
39.8741 9.9584503 8.0112104
39.870399 10.0919 8.0971498
39.756901 10.1518 8.0124197
39.920898 9.8104601 7.9700098
39.791698 9.9444799 7.9113598
39.851002 9.7742596 7.8704901
39.687901 9.9115496 7.7839999
39.621399 10.0926 7.8316202
39.764099 9.7319403 7.75527
39.7388 10.4323 8.20084
39.844601 10.4998 8.38169
39.840302 10.2905 8.20718
39.945202 10.356 8.3880997
39.6483 10.3405 8.0313902
39.920799 10.1902 8.2285404
40.017101 10.2428 8.3908796
39.544498 10.2659 7.8731499
40.150902 9.71805 8.19133
40.254799 9.72083 8.3299103
40.203201 9.5889196 8.17805
40.310501 9.5818396 8.3154497
40.061798 9.7058096 8.0715399
40.120098 9.6099701 8.0848904
40.003101 9.3236504 7.7957001
39.941399 9.4253998 7.77845
40.103199 9.2927904 7.8971701
40.062599 9.4550104 7.9312201
39.852501 9.56814 7.7575002
39.935299 9.61796 7.8729701
39.996799 9.6677799 7.9712701
40.101101 9.5519695 8.0287104
40.634102 9.3563099 8.6478796
40.5751 9.24471 8.4952002
40.534302 9.4339399 8.5419798
40.425201 9.3383598 8.33214
40.687698 9.4789801 8.8087101
40.5933 9.5466204 8.7032099
40.254799 9.2396297 8.0573797
40.243 9.3744698 8.1097898
40.410099 9.18608 8.2312698
40.230301 9.4821196 8.1510201
40.3601 9.4671803 8.3137598
40.543701 9.1275301 8.3867302
40.7136 9.6146898 8.9485703
40.6115 9.6849499 8.83146
40.721802 9.7492504 9.0702295
40.583698 9.8775501 8.9405603
40.5242 9.7226295 8.7204399
40.515701 9.5979004 8.6186199
40.441601 9.7349005 8.6026697
40.459499 9.6375599 8.56042
40.483601 9.8790903 8.77666
40.3988 9.8769102 8.6433897
40.7393 9.8637304 9.2017899
40.629902 9.9958696 9.1235905
40.353901 9.7294798 8.4719601
40.301201 9.8753996 8.5007401
40.402802 9.60394 8.4568195
40.459999 9.5095997 8.4789801
40.241501 10.016 8.5199499
40.186298 10.1366 8.5355501
40.333 10.0201 8.6549501
40.270802 10.1184 8.6409903
40.1422 10.2438 8.5610905
40.082199 10.364 8.57833
40.275799 10.1794 8.7003803
40.2626 10.3026 8.7890501
39.977299 10.5227 8.5725298
40.112499 10.5215 8.7587795
40.500301 10.1674 9.0552797
40.445702 10.0962 8.8979101
40.355701 10.354 8.98351
40.396 10.0461 8.7735996
40.216702 10.5386 8.9330997
39.634499 11.8809 9.7937002
39.990601 11.7081 10.1225
39.957001 11.8825 10.3901
39.267899 11.9874 9.41605
39.554699 12.0767 10.0215
39.137402 12.2018 9.6001596
38.930099 12.0136 9.0279703
38.646099 11.9553 8.65172
38.749699 12.2384 9.1712503
38.4202 12.1813 8.7559404
38.429298 11.8156 8.2983904
38.282902 11.6024 7.9730501
38.162701 12.0327 8.3612204
37.9823 11.796 7.99196
38.2024 11.3231 7.67523
38.176998 10.9789 7.39891
37.876499 11.4753 7.64926
37.837502 11.0762 7.3294601
38.2029 10.5742 7.1454401
38.292099 10.1283 6.9344501
37.864399 10.6091 7.0364199
37.966801 10.0981 6.7905102
38.453499 9.6679096 6.7892499
38.6744 9.2129602 6.7223301
38.1535 9.5728798 6.6180601
38.408501 9.0565395 6.5359702
38.936298 8.7842503 6.7388401
39.2309 8.4104404 6.8397102
38.710499 8.5733004 6.55268
39.047798 8.1561098 6.6676202
39.5532 8.1140499 7.02315
39.892502 7.8971601 7.2850699
39.414101 7.8302002 6.87605
39.801601 7.5964699 7.1732998
40.2356 7.7543802 7.6181202
40.565399 7.6858401 8.0093002
40.1964 7.4463601 7.55059
40.576099 7.3765602 7.9923902
40.865398 7.6906099 8.4357004
41.1199 7.7603102 8.8586998
40.917 7.3845701 8.4709997
41.2001 7.4644399 8.9408398
41.319698 7.8849101 9.2453098
41.468899 8.0590897 9.5896101
41.417801 7.6090202 9.3642998
41.5784 7.81214 9.7362604
41.575401 8.2770395 9.8981199
41.644501 8.5294304 10.1758
41.692902 8.0651302 10.0667
41.766602 8.3545198 10.3648
41.677898 8.8098297 10.4227
41.6707 9.11901 10.6284
41.802399 8.6743298 10.6346
41.794201 9.0241003 10.8651
41.617599 9.45856 10.7798
41.511799 9.8170204 10.8656
41.737499 9.4051304 11.0414
41.627499 9.80128 11.1505
41.348999 10.1798 10.8801
41.1339 10.5396 10.8278
41.459499 10.1959 11.1844
41.231602 10.5889 11.1447
40.878101 10.8882 10.7193
40.6003 11.208 10.5679
40.949501 10.9769 11.0389
40.637901 11.3342 10.8803
40.309399 11.4827 10.376
40.3134 11.6359 10.6719
39.914101 -12.0253 8.9697304
40.013599 -12.0356 9.1135597
40.074902 -11.8979 9.0838099
39.862099 -12.1314 8.9904804
39.954399 -12.1555 9.1361399
39.829899 -12.0103 8.8489799
39.807999 -12.0964 8.8910503
39.969101 -11.8962 8.9382401
39.876801 -11.884 8.8091402
39.846001 -12.9672 9.8710499
39.666801 -13.0117 9.6594601
39.496399 -13.2992 9.8129997
39.962898 -12.7246 9.7409296
39.8349 -12.7391 9.5610199
40.017502 -12.8822 10.0453
40.048801 -12.7206 9.8808298
39.735901 -13.2273 10.0715
39.9711 -13.1064 10.2935
39.792801 -11.0876 8.2341204
39.977402 -10.9605 8.3746004
39.943501 -10.693 8.2233801
39.853699 -11.2816 8.3962402
39.995201 -11.1864 8.5075502
39.620998 -11.2499 8.1452599
39.7323 -11.4071 8.33675
39.712799 -10.8511 8.0506296
39.490501 -11.0548 7.9356399
39.061001 -12.7167 8.6373196
39.0201 -12.572 8.4758902
38.7463 -12.7371 8.3901501
39.284599 -12.5005 8.6574097
39.207901 -12.4491 8.5404797
39.132999 -12.8338 8.8165903
39.368999 -12.5823 8.8165102
38.780899 -12.9378 8.5938501
38.849899 -13.0945 8.8078699
39.490101 -13.023 9.4343996
39.272999 -13.3208 9.5412998
39.336899 -12.996 9.2130499
39.0868 -13.2915 9.27736
39.692001 -12.7451 9.3685999
39.558998 -12.7227 9.1735401
39.636101 -13.4595 10.2867
39.556301 -13.6434 10.4808
39.881901 -13.4708 10.7679
39.345001 -13.5533 9.9846697
39.2243 -13.7556 10.1436
39.922501 -13.3104 10.5456
39.077702 -13.5852 9.6677904
38.9203 -13.7963 9.79
38.8559 -13.5532 9.3587999
38.666801 -13.7616 9.4426203
38.6908 -13.46 9.07092
38.476101 -13.6538 9.1146898
38.577499 -13.3134 8.8042898
38.348598 -13.4818 8.8100405
38.948502 -13.2138 9.0335302
39.220798 -12.9303 9.0074701
39.453899 -12.6646 8.98878
38.507999 -13.1185 8.5535898
38.278301 -13.2528 8.5261497
38.480202 -12.8706 8.3140097
38.257099 -12.9648 8.2567997
38.497898 -12.5687 8.0892601
38.283298 -12.6193 8.00387
38.571701 -12.2278 7.8994699
38.368 -12.2328 7.7880101
38.756001 -12.4895 8.2024603
38.818298 -12.2066 8.0472498
39.030998 -12.3855 8.3379498
39.089199 -12.1654 8.2264605
39.2631 -12.313 8.4832602
39.329102 -12.136 8.4115496
38.704498 -11.8714 7.7648602
38.5177 -11.83 7.6322198
38.888302 -11.513 7.6935501
38.722698 -11.4268 7.5476899
38.932499 -11.9073 7.9393601
39.090599 -11.6042 7.8835902
39.185699 -11.9279 8.1482401
39.312801 -11.6857 8.1071901
39.4104 -11.9452 8.3533697
39.5093 -11.7499 8.3192396
39.1101 -11.1676 7.6879702
38.966499 -11.0401 7.53824
39.358101 -10.8622 7.7514701
39.240601 -10.6967 7.6072602
39.280499 -11.3117 7.8810301
39.4603 -11.4534 8.1048298
39.618599 -11.5664 8.3136702
39.622501 -10.6173 7.8854699
39.537399 -10.4178 7.75524
39.896301 -10.4282 8.0862999
39.847099 -10.2037 7.9788299
40.1707 -10.287 8.3454704
40.157501 -10.0497 8.2703505
40.432098 -10.2041 8.6502705
40.454498 -9.9618998 8.6179104
40.177502 -10.5706 8.4453297
40.398998 -10.4942 8.7003603
40.171299 -10.8599 8.5596399
40.355099 -10.7925 8.7667503
40.1576 -11.1081 8.6661797
40.316002 -11.0466 8.8403997
40.667198 -10.1884 8.9822397
40.724998 -9.9446001 9.0013399
40.8666 -10.2292 9.3148899
40.9557 -9.9871702 9.38694
40.5933 -10.4756 8.9695597
40.753502 -10.5082 9.2346401
40.510502 -10.765 8.9720697
40.630001 -10.7808 9.1624699
40.4492 -11.0004 9.0011396
40.5415 -10.9607 9.1172895
41.0261 -10.3108 9.62712
41.139301 -10.0763 9.7463303
41.147701 -10.4284 9.9160604
41.277302 -10.2081 10.074
40.880501 -10.5796 9.4846601
40.979099 -10.6834 9.72192
40.717499 -10.8419 9.3398895
40.787998 -10.9355 9.5191698
40.565399 -11.0422 9.2034197
40.6091 -11.1378 9.3360205
41.235901 -10.5799 10.1853
41.375401 -10.3802 10.3743
41.296001 -10.7604 10.4339
41.439301 -10.5862 10.6487
41.0546 -10.8152 9.9508696
41.109798 -10.9696 10.168
40.8508 -11.0504 9.7074099
40.901001 -11.1823 9.8946896
40.6637 -11.2421 9.4970503
40.712002 -11.36 9.6663303
41.326401 -10.9635 10.6555
41.4697 -10.8197 10.8935
41.322899 -11.1918 10.8437
41.4618 -11.0831 11.0997
41.140202 -11.1403 10.3639
41.141399 -11.3281 10.5318
40.930801 -11.3249 10.0668
40.935799 -11.4749 10.2133
40.740398 -11.4859 9.8225203
40.748299 -11.6117 9.9546003
41.279499 -11.4482 10.9907
41.409801 -11.379 11.2569
41.190701 -11.7271 11.0869
41.3069 -11.6987 11.3549
41.108799 -11.5353 10.6656
41.0396 -11.7605 10.7577
40.917099 -11.6302 10.3315
40.8722 -11.7915 10.412
40.748001 -11.7275 10.0724
40.754299 -11.8111 10.1767
41.054501 -12.0191 11.1245
41.150002 -12.0293 11.3875
40.874599 -12.3154 11.1001
40.945702 -12.3614 11.3565
40.931999 -11.9998 10.8002
40.784199 -12.2484 10.7851
40.7929 -11.9655 10.4419
40.676201 -12.1577 10.4242
40.680302 -11.912 10.1351
40.577301 -12.0605 10.0955
40.660801 -12.6057 11.0189
40.706699 -12.6849 11.2708
40.427898 -12.8762 10.8973
40.448002 -12.9854 11.145
40.601101 -12.4979 10.7136
40.398998 -12.7335 10.603
40.524799 -12.3635 10.3631
40.354301 -12.5655 10.2722
40.446098 -12.2363 10.0402
40.297501 -12.4195 9.9701099
40.184601 -13.1138 10.7447
40.177101 -13.2495 10.9842
40.190399 -12.9398 10.4667
40.184502 -12.7449 10.1712
40.1548 -12.591 9.9104204
39.752701 -12.0051 8.7514
39.6702 -11.9973 8.6509199
39.6329 -12.1965 8.7658701
39.8013 -11.861 8.7002001
39.731499 -11.8313 8.5985298
39.747398 -12.1319 8.8462095
39.566399 -11.9724 8.5217104
39.644901 -11.7963 8.4807997
39.4977 -12.1487 8.5815697
39.611599 -12.4626 8.9729605
39.5219 -12.3821 8.79774
39.715099 -12.3219 8.9695301
39.716999 -12.5183 9.1578703
39.819599 -12.3755 9.1543598
39.796902 -12.2212 8.9839201
39.893101 -12.2631 9.1493397
39.418598 -12.3176 8.6348495
40.033199 -11.7557 8.9144402
39.943901 -11.7511 8.79422
40.087101 -11.6285 8.8923502
40.003502 -11.6552 8.8009596
40.137501 -11.7496 9.0527201
40.195 -11.6127 9.02878
39.8894 -11.3893 8.4932098
39.9902 -11.3524 8.5922098
39.826199 -11.4912 8.4829702
39.947498 -11.5112 8.6372299
39.7355 -11.6339 8.4718304
39.817902 -11.6763 8.5903101
39.879002 -11.7196 8.69168
39.985001 -11.6012 8.7410097
40.522598 -11.3675 9.3445396
40.575199 -11.4787 9.5132103
40.421398 -11.4514 9.24436
40.479599 -11.5528 9.4127302
40.4646 -11.2666 9.1847801
40.312901 -11.3701 9.0287304
40.143002 -11.2896 8.7482204
40.2994 -11.2255 8.9178305
40.129501 -11.4201 8.80966
40.115501 -11.5243 8.8581104
40.245998 -11.4991 9.0192499
40.434299 -11.1574 9.0686998
40.599899 -11.6042 9.66185
40.606701 -11.7296 9.7923098
40.496399 -11.6816 9.5500097
40.466499 -11.8655 9.6719398
40.408199 -11.7263 9.4419804
40.365799 -11.8778 9.50875
40.325001 -11.7461 9.3254805
40.280499 -11.8843 9.3758097
40.401001 -11.6092 9.3319702
40.344002 -11.6523 9.2767
40.623199 -11.8344 9.9312496
40.511799 -11.9708 9.8624496
40.2369 -11.7491 9.19487
40.287498 -11.6256 9.1711702
40.182499 -11.892 9.2335701
40.345901 -11.5306 9.18678
40.120899 -12.0302 9.2623796
40.212898 -12.0255 9.3971796
40.064201 -12.1487 9.2862101
40.1493 -12.124 9.3900499
40.0187 -12.2533 9.3190403
40.153599 -12.1806 9.4534101
39.9571 -12.3715 9.3445101
40.139198 -12.297 9.5502701
39.850101 -12.5291 9.3496704
39.985901 -12.5161 9.5352097
40.3797 -12.1455 9.8062096
40.2323 -12.3354 9.7475996
40.325401 -12.0852 9.6444998
40.275902 -12.0437 9.5172005
40.0905 -12.5218 9.7101297
39.491901 -13.796 10.6613
39.409901 -13.9751 10.9021
39.816399 -13.7595 11.2561
39.122501 -13.9249 10.2921
38.9893 -14.1251 10.4906
39.851799 -13.604 10.977
38.783001 -13.9743 9.9068899
38.599602 -14.1871 10.0654
38.498798 -13.939 9.5276003
38.269699 -14.155 9.6472101
38.283001 -13.8214 9.1655102
38.013302 -14.0308 9.2431803
38.138802 -13.6293 8.8262596
37.8354 -13.8176 8.8584404
38.0616 -13.37 8.5099201
37.733501 -13.5196 8.4943895
38.040401 -13.0452 8.2105999
37.699501 -13.1428 8.1478796
38.0714 -12.6596 7.9300499
37.7323 -12.6974 7.8235602
38.1661 -12.2308 7.6891799
37.841099 -12.2063 7.5434198
38.333199 -11.7842 7.5130401
38.034199 -11.6976 7.3357401
38.5597 -11.3386 7.4154301
38.295502 -11.1925 7.2188702
38.827 -10.9138 7.4028001
38.603401 -10.7141 7.2028198
39.1264 -10.5382 7.4780302
38.945999 -10.295 7.2891898
39.452702 -10.2341 7.64081
39.3167 -9.9603701 7.4749098
39.7953 -10.0036 7.8871598
39.707802 -9.7112303 7.7553601
40.141102 -9.8415804 8.2093496
40.1054 -9.5394201 8.12117
40.473 -9.7488403 8.59443
40.487301 -9.4424 8.5566101
40.774399 -9.7258902 9.0194902
40.8297 -9.4193897 9.0339003
41.029499 -9.7671099 9.4455299
41.113499 -9.4676104 9.5072803
41.229198 -9.8649101 9.8390198
41.331001 -9.5827103 9.9387999
41.377499 -10.0145 10.1937
41.490601 -9.7591295 10.323
41.482601 -10.2099 10.5158
41.603298 -9.9877701 10.6692
41.549599 -10.4416 10.8096
41.6745 -10.2547 10.9858
41.580601 -10.7033 11.0747
41.707699 -10.554 11.2765
41.570301 -10.9966 11.3008
41.695999 -10.886 11.5301
41.513401 -11.3242 11.4752
41.635101 -11.2531 11.7322
41.403 -11.6751 11.5856
41.5201 -11.6402 11.8684
41.235298 -12.0351 11.6254
41.3466 -12.0308 11.9298
41.0149 -12.3965 11.5984
41.112999 -12.4245 11.9177
40.7537 -12.7505 11.5146
40.824799 -12.8175 11.8395
40.4706 -13.0784 11.3861
40.507301 -13.1832 11.7064
40.174801 -13.364 11.2141
40.177502 -13.4967 11.5198
47.487801 10.5915 22.6192
47.7785 10.5587 22.9438
47.4188 9.9622002 22.7572
47.7047 9.9461098 23.098801
47.479698 -11.4347 23.070299
47.403 -10.819 23.1998
47.7785 -11.3832 23.375401
47.696602 -10.7847 23.523701
34.5849 13.3997 16.2889
35.117401 13.3997 16.2938
35.762901 13.2666 17.544201
33.9702 13.4389 15.4438
34.354801 13.4979 15.1998
34.549198 13.3697 16.8153
33.281101 13.3676 15.7047
33.3307 13.4279 14.2609
32.7981 13.3267 14.3238
32.3839 13.1749 13.2153
33.6422 13.5174 14.0425
32.743801 13.2739 13.1106
32.971901 13.3713 12.9227
32.104401 12.9228 12.1242
32.288502 13.0099 11.9346
31.5434 12.4306 11.2417
31.7118 12.4994 11.04
31.8549 12.8532 12.2671
31.3451 12.396 11.4075
28.779301 12.8164 14.953
28.934 12.7985 14.3939
30.264099 12.9937 14.6215
27.654699 12.5845 14.6665
27.791599 12.5689 14.0508
28.6152 12.8035 15.5047
27.497601 12.5643 15.1991
30.046499 13.0259 15.361
29.843201 13.0241 15.9364
31.4995 13.2323 15.91
31.2145 13.2468 16.537001
32.984901 13.3678 16.6024
32.627899 13.3995 17.231899
31.743799 13.2143 15.1451
28.443199 12.7672 16.066999
27.3447 12.5223 15.7268
28.2675 12.7138 16.6362
27.198 12.4625 16.2498
29.629101 13.0024 16.514999
29.410601 12.9639 17.1141
34.254398 13.3783 17.4555
33.837101 13.4256 18.0445
35.267899 13.2886 18.325399
36.081001 13.1653 19.1129
36.805099 13.1035 18.705
33.467098 13.483 18.5772
32.293999 13.4366 17.7962
33.143501 13.5465 19.097601
31.9879 13.4676 18.3585
31.1521 11.8043 10.3478
30.9662 11.8034 10.5228
30.6518 10.855 9.3976097
31.3214 11.8693 10.161
30.923201 11.0226 9.4471502
31.0968 11.0914 9.30441
30.833799 10.0779 8.6099596
31.013399 10.1348 8.5084801
30.8909 8.9948502 7.8411498
31.1094 9.0225296 7.7708302
30.649599 9.9274302 8.5274801
30.697599 8.9493504 7.8236899
36.442001 -0.71640801 7.6648798
36.139999 -0.76022899 7.5103302
36.217899 -1.05044 7.5839901
36.158501 -0.41136101 7.43257
36.007099 -0.539994 7.3921299
36.7556 -0.65636998 7.8330002
36.418098 -0.27175799 7.5289798
36.5476 -1.04638 7.76753
36.877102 -1.04196 7.9618301
37.088699 -0.61264902 8.0323696
36.739399 -0.182301 7.6842599
37.425701 -0.57009798 8.2475004
37.078899 -0.106682 7.8643298
37.208401 -1.0369999 8.1732702
37.536098 -1.0316499 8.3958702
31.2778 7.79457 7.2182002
31.992201 6.4896202 6.76757
32.256199 6.5089102 6.6968899
31.037901 7.7894201 7.22017
31.7118 6.4699798 6.7768502
31.5329 7.8019199 7.1558399
32.884499 5.1262202 6.4642701
33.9361 3.81846 6.3559599
34.183201 3.9730101 6.2992401
32.622601 5.0486102 6.4999199
33.687401 3.6607001 6.3898602
33.1436 5.1977801 6.3912902
35.811901 -0.75763297 7.3407898
35.7192 -0.45423201 7.2308202
35.288799 -0.37111601 7.0297599
35.875702 -1.0543801 7.4021301
35.424099 -0.73702902 7.1585898
35.492298 -1.05812 7.2189898
35.731701 -0.134261 7.1509099
35.1623 0.083736002 6.8787799
35.883598 0.144766 7.1448398
34.904099 0.77277797 6.6958098
36.159199 0.30649099 7.22507
35.292 0.99206197 6.7719498
36.474499 0.40929899 7.3395801
35.5812 1.10619 6.83179
34.172401 1.97677 6.4419498
33.016399 3.21141 6.3032098
32.716202 3.05967 6.2037001
34.439899 2.0922201 6.4882998
33.240299 3.3579099 6.3646402
33.775501 1.88686 6.3510699
38.846901 -0.47583699 9.2658005
38.240501 -0.46345499 8.7982502
38.2925 -1.01825 8.94028
38.955601 -0.022077 9.1855097
38.005699 0.191165 8.3661604
39.557899 -0.497114 9.8537197
39.535 -0.160338 9.7237101
38.847801 -1.00767 9.3604002
39.559101 -0.99286503 9.9323196
37.7817 -0.50865799 8.4786901
37.433102 0.0085699996 8.0483799
37.876499 -1.0257699 8.6367397
39.313202 0.33650601 9.32335
40.075298 -0.019847 10.1662
41.009998 0.29364201 11.0423
38.301701 0.6857 8.3320599
39.7248 0.73000801 9.4743404
38.567799 1.0984 8.29426
35.089802 2.68642 6.4772701
34.868698 2.4505999 6.4998798
36.024899 1.50019 6.8670602
35.317001 2.93452 6.4433398
36.230301 1.79654 6.84828
36.4412 2.1254001 6.81534
37.282902 1.14722 7.4756298
37.498199 1.5344 7.4159298
37.041901 0.80503702 7.49051
36.769199 0.55916798 7.4374399
35.817299 1.26589 6.8636799
34.6591 2.2474699 6.5054998
33.455101 3.5066299 6.39329
40.3755 -0.46568701 10.5923
41.324001 -0.40476799 11.622
40.407398 -0.97228998 10.6964
41.348801 -0.94332099 11.7212
48.7798 9.35884 25.074499
48.922501 9.3689804 25.3979
49.0765 10.0407 25.504299
48.696999 8.7656002 25.040899
48.8246 8.9061499 25.2708
48.6096 9.3325005 24.728901
48.5187 8.6648798 24.7337
48.913601 10.0283 25.0744
48.724201 10.01 24.652201
44.625401 -0.19947299 16.746799
45.053299 -0.198273 17.5149
45.091301 0.41909099 17.5061
44.606098 -0.79218602 16.764299
45.036201 -0.76865 17.528099
44.196201 -0.217122 15.9662
44.172501 -0.81618202 15.9831
44.6684 0.423417 16.728901
44.250999 0.40568301 15.9523
44.724998 1.08559 16.707899
45.1362 1.10104 17.4858
45.1633 1.79758 17.4375
44.326801 1.06301 15.9489
44.784 1.74807 16.697901
44.4254 1.73729 15.9944
44.8274 2.24634 16.711
44.582901 2.39381 16.198799
45.120399 2.43486 17.291201
44.929001 3.0945599 16.8659
48.671398 5.7150898 25.5485
48.788898 6.0452099 25.9739
48.7911 6.3096399 25.783001
48.7262 5.5594501 25.837999
48.796001 5.8359599 26.073799
48.5611 5.3695102 25.220501
48.637001 5.1859198 25.542101
48.653099 5.89711 25.3018
48.532799 5.53935 24.948099
47.464401 0.118374 22.0173
47.3335 -0.62750399 22.087299
47.420898 -0.611368 22.575001
47.335999 0.154597 21.583799
47.221401 -0.64189202 21.6458
47.7654 0.84543103 21.924999
47.599998 0.90723503 21.511
47.5466 0.014372 22.5222
47.894798 0.71975398 22.5606
49.467098 10.7878 26.082199
49.3046 10.7423 25.5347
49.5998 10.8434 26.6236
49.223598 10.0437 25.9571
49.348999 10.0393 26.409401
49.1199 10.7053 25.013399
48.901402 10.6692 24.524099
49.0476 9.3233604 25.7251
48.880699 8.7178602 25.4032
48.979 8.5195599 25.615101
49.164501 9.2454596 26.063299
49.174301 9.1998997 29.9034
49.052101 8.0722103 29.896099
48.948898 8.1479397 30.3832
49.234299 9.13276 29.457701
49.115002 8.0047398 29.4098
49.349602 10.376 29.9256
49.4156 10.3023 29.510401
49.078999 9.2645903 30.349701
49.257198 10.438 30.333099
49.515301 11.436 30.042801
49.405399 11.5006 30.4305
49.609901 11.3556 29.636499
48.821999 5.4436598 26.2477
48.876801 5.9019399 26.4576
48.946201 5.3859801 26.719299
48.9771 5.9765301 26.957399
48.765499 5.0032902 25.9711
48.940899 4.89189 26.463699
48.9165 6.3852 26.5485
48.951698 6.8431001 26.442499
49.024601 6.6654501 27.1492
49.114601 7.57934 27.283199
48.6898 8.2790499 25.0611
48.758598 7.8982601 25.1642
48.470901 8.0279303 24.704201
48.469898 7.3284101 24.6387
42.668598 8.4028502 35.7118
42.332699 7.81987 35.7827
43.1059 8.3085203 35.794899
42.732601 7.4294 35.941399
42.032101 7.04881 35.9011
42.393799 6.7043099 36.036201
42.195599 6.2526002 36.084999
41.6348 7.3436899 35.747601
41.928299 6.33319 36.022999
41.5648 6.4693198 35.924801
32.246899 7.1373 31.045601
31.963301 6.3965702 31.0312
30.991699 6.1317902 30.180401
33.1856 7.4945202 31.774401
32.898399 6.6582799 31.7721
32.550201 7.81529 31.068701
31.4694 6.8642998 30.364901
31.803499 7.64186 30.378799
30.9445 13.2521 17.1141
30.688 13.2427 17.7006
46.7952 0.48338199 36.386299
46.793301 1.01888 36.294102
46.234402 0.46475899 36.301201
46.227798 0.98253 36.221001
46.796398 -0.131787 36.444099
46.241199 -0.13122299 36.3526
45.628201 0.423145 36.162998
45.628899 0.91072899 36.119999
44.844898 0.37900099 36.018799
44.878899 0.84941101 36.017399
45.637699 -0.132614 36.194698
44.851398 -0.135024 36.030399
49.013802 7.1570501 29.919399
48.908199 7.25108 30.4445
49.063999 6.4769101 29.9788
48.959499 6.5843301 30.5396
49.082699 7.07722 29.396
49.1362 6.38482 29.417
49.1642 5.9600902 30.0693
49.044399 6.06006 30.659599
49.322498 5.56882 30.226801
49.181801 5.6626201 30.830601
49.2533 5.87115 29.4734
49.439999 5.4821701 29.6334
47.634499 -0.12771 23.066799
47.538898 -0.59478801 23.081699
47.715698 -0.57906997 23.5746
47.861099 0.29042101 23.1598
47.780701 -0.23448899 23.588699
47.9506 0.087833002 23.676001
48.439701 -0.242236 24.6224
48.384998 -0.54808801 24.6085
48.200001 -0.25999701 24.373501
48.152401 -0.55518001 24.3564
48.564899 0.036885001 24.66
48.329899 0.014877 24.422501
48.3494 3.8968501 24.350599
48.492401 3.7639999 24.6483
48.507599 4.29 24.927099
48.366901 3.3224199 24.1411
48.5168 3.2563801 24.4263
48.308498 4.0288501 24.0681
48.324501 3.38186 23.851299
48.381199 4.4783702 24.6224
48.344398 4.6512899 24.345301
48.416 2.9300799 24.0319
48.556702 2.8105099 24.236099
48.408401 2.82617 23.7572
48.548698 2.3261199 23.870001
48.7356 4.5713601 25.6754
48.732899 4.1304698 25.378901
49.209801 4.0742602 26.1394
48.5583 4.7659001 25.233101
48.9888 4.4759598 26.2337
47.9911 -0.268076 24.0359
47.940102 -0.56548297 24.0145
48.126999 0.015696 24.1063
50.663399 4.8607101 31.8815
50.521801 4.8670502 31.583799
50.893501 4.7569199 31.270599
50.485802 4.9286098 32.213799
50.235199 4.9672999 31.961901
50.8988 4.8241701 31.928801
50.742298 4.8973799 32.412601
52.238201 4.8920999 32.930698
52.413399 4.8337302 32.4352
51.680599 4.8355999 32.442699
51.8465 4.7569799 31.928699
52.050598 4.8905902 33.435398
51.495701 4.8747201 32.954102
51.241798 4.8092399 32.101799
51.379398 4.7220201 31.553699
51.0658 4.8757401 32.6217
52.579601 4.7174501 31.8911
52.7393 4.5504498 31.329201
51.9832 4.6403098 31.332701
51.991299 4.42834 30.4331
50.214298 4.9260702 31.1926
49.943298 5.0343499 31.6588
49.638699 5.1605 31.349001
50.4515 4.8189101 30.7085
49.855701 5.0585399 30.814501
50.042301 4.95925 30.275299
49.553101 5.2723799 30.482201
49.380402 5.3672199 31.065201
49.699402 5.1817398 29.9016
48.458099 4.9714899 24.9186
48.425098 5.1500101 24.640499
29.7432 6.6779299 6.2846098
29.5938 7.3071399 6.5145702
29.0765 7.1715298 6.2551298
30.1905 6.7276802 6.4727602
30.072901 7.3305001 6.7116299
29.9517 6.2112098 6.1687198
30.249701 6.3671999 6.3393898
29.252399 6.4865098 6.0194602
29.509199 5.9741602 5.9135599
29.5259 8.1549196 6.9281101
29.962601 8.1500902 7.1010098
29.933901 9.0707397 7.6664
29.0387 8.0944901 6.7103601
29.557899 9.0896902 7.5257502
29.125099 9.0860596 7.3550601
29.6768 9.9251699 8.2318497
30.006399 9.8994999 8.3308601
30.0896 10.4146 8.8212404
29.275 9.9459801 8.1003199
29.875401 10.5555 8.9002504
29.4114 10.7178 8.9567404
30.2425 5.73037 6.0879302
30.5362 6.0437698 6.3126998
30.694099 5.0298901 6.01402
31.024 5.3441401 6.2371001
29.815599 5.4539299 5.8337302
30.2621 4.7497101 5.7726102
33.223499 1.8163199 6.2150002
34.021702 0.896945 6.4394202
32.6604 1.74331 6.0731702
33.3536 0.89909297 6.27633
32.290798 2.8974099 6.0584002
31.7838 2.7289901 5.8752699
34.506699 0.18647601 6.6606398
34.775501 -0.336687 6.84517
33.869701 0.20185301 6.4933901
34.224201 -0.34082201 6.6851501
34.966599 -0.732059 6.9808798
35.0453 -1.06134 7.0391302
34.4547 -0.74271703 6.8199501
34.539299 -1.06372 6.875
31.3766 4.03371 5.9787898
31.7575 4.2852001 6.1743498
30.9331 3.7934899 5.77282
30.606501 6.4626999 6.51021
30.488199 7.1152601 6.7662101
31.157499 5.7365198 6.42731
31.1001 6.4336901 6.6835699
30.298401 8.0306301 7.1710601
30.2022 9.0319996 7.7502198
30.566601 7.8679399 7.17662
30.3776 8.9650202 7.7670598
31.9916 4.5584302 6.3314199
32.163399 4.8074498 6.4454098
32.372799 4.9598699 6.4986701
31.4328 6.44556 6.7523398
30.805901 7.79076 7.1922202
30.526899 8.9197798 7.77565
28.324699 12.4391 12.6023
28.1409 12.5042 13.0681
27.921301 12.4624 12.9786
28.750401 12.4766 12.6228
28.580601 12.5672 13.1539
28.513901 12.3027 11.9836
28.9067 12.3438 12.0427
27.979 12.401 12.5851
28.117201 12.2557 11.9138
31.448 12.7751 12.4072
31.771999 13.0362 13.2788
31.094101 12.8982 13.3067
31.045 12.3866 11.5774
30.953899 12.6922 12.5304
30.673901 12.3838 11.7437
29.461 11.4966 10.0539
29.839001 11.2263 9.7052698
30.1271 11.598 10.2946
29.0644 11.1853 9.4972601
29.0844 11.8004 10.578
28.569901 11.5638 10.0814
29.7831 11.7881 10.5994
29.431299 11.9866 10.9878
28.757299 12.0829 11.2597
28.340799 12.0027 11.0868
29.123301 12.176 11.4758
30.046301 12.0854 11.1986
30.280701 12.3751 11.8849
29.8489 12.3695 12
30.3904 11.9952 10.9752
29.6861 12.1723 11.4366
30.4589 12.621 12.6127
29.923 12.5649 12.6523
30.5119 12.8037 13.3168
29.913799 12.731 13.3141
29.394699 12.2406 11.64
29.369801 12.3658 12.0625
29.318399 12.5181 12.6487
29.2227 12.6493 13.2516
31.8675 13.1704 14.225
30.9326 13.0023 14.0264
30.448 12.905 13.8276
29.907801 12.8586 13.9239
29.0847 12.7437 13.8297
28.3258 12.6105 13.6106
30.708 11.8885 10.7436
30.432301 11.391 10.0069
30.1639 10.9884 9.4553604
30.3197 10.6094 9.0816202
27.857401 12.5106 13.3837
27.6415 12.4377 13.0729
27.356701 12.446 13.5486
27.1612 12.3688 13.119
27.600901 12.3537 12.5765
27.7115 12.2086 11.8785
27.1413 12.2857 12.5695
27.2623 12.1551 11.8637
27.8971 11.9663 11.0359
27.4396 11.949 11.0539
27.476 11.6788 10.2558
27.954599 11.6326 10.1641
47.757599 6.9284501 23.4349
47.555698 6.96912 23.117201
47.595001 6.4288001 23.0028
47.771 7.45858 23.551201
47.556599 7.51933 23.222601
47.9291 6.8765302 23.693399
47.9664 7.3937001 23.8536
47.7943 6.4717202 23.3526
47.913898 6.5415502 23.568899
47.8908 6.07055 23.346001
48.026001 6.3653302 23.681101
48.055302 5.74998 23.449499
48.197498 6.1702299 23.867201
47.674099 5.8624301 22.8932
47.8451 5.1809802 22.8137
47.822201 8.05439 23.647499
47.888199 8.6866102 23.6717
47.6493 8.7199297 23.3116
48.029701 8.0014801 23.982
48.107201 8.6556797 24.026699
47.596401 8.1073599 23.2987
48.113201 6.7785702 23.959
48.181499 7.3264399 24.1894
48.316299 6.6388698 24.2348
48.064301 10.564 23.283701
48.3517 10.5917 23.6532
47.976898 9.9548998 23.4436
48.241199 9.9720898 23.8146
48.245201 7.9645 24.336
48.318901 8.6392899 24.387899
48.407501 9.3222504 24.349701
48.181702 9.3220596 23.963301
48.496498 9.9907598 24.2244
47.942699 9.3264399 23.596201
47.686199 9.3338604 23.2404
48.639198 10.6296 24.067499
46.362301 -0.077459998 19.872601
46.322399 -0.69616801 19.883699
46.7248 -0.67237198 20.6597
45.907398 -0.16260999 19.028601
45.880199 -0.722462 19.0299
46.450199 0.57771301 19.8888
45.9674 0.462356 19.0576
46.786098 0.032035001 20.631399
46.920399 0.73116302 20.6171
47.485699 4.23352 21.740101
47.8866 4.30021 22.3599
47.558601 3.5257499 21.478001
47.9767 3.5506999 22.030399
47.019001 4.1065102 21.042
47.043598 3.4123399 20.836
47.424599 4.9850202 22.0424
47.015598 4.8638301 21.3398
47.616798 2.84846 21.297001
48.0466 2.87819 21.7696
47.637901 2.1992199 21.1968
48.0448 2.2458799 21.5975
47.103199 2.74635 20.7353
47.124298 2.0901101 20.6861
46.5397 1.2782 19.934999
46.034199 1.17445 19.105
46.592499 1.98607 19.989201
46.079201 1.91075 19.150299
47.054501 1.41934 20.6415
46.5938 2.66378 20.040701
46.090199 2.6085601 19.190001
46.565899 3.3084199 20.131701
46.086899 3.26247 19.275299
46.562302 3.99298 20.3211
46.090199 3.92661 19.463301
46.581902 4.7705898 20.6231
46.127998 4.7297702 19.7889
46.603001 5.6498299 21.0037
46.624599 6.48911 21.380501
46.1954 6.5198202 20.669901
47.0121 5.68262 21.674101
46.991001 6.4542899 21.9767
46.164001 5.6416001 20.2223
47.367199 5.7385802 22.3106
47.32 6.4292402 22.5284
46.631901 7.17168 21.673401
46.230301 7.24793 21.0422
46.6451 7.7506599 21.883499
46.280102 7.8724298 21.3265
46.973801 7.09551 22.2066
46.977699 7.65939 22.371599
47.326 8.1620102 22.9076
47.289299 7.5854101 22.8239
47.016998 8.2272701 22.482901
47.375099 8.7567101 22.9298
47.066898 8.8120403 22.5263
45.567501 1.12299 18.2794
45.516899 0.41759399 18.2659
45.5965 1.85633 18.269199
45.473301 -0.19690201 18.2516
45.453701 -0.74624902 18.2563
45.581001 2.55825 18.215
45.558201 3.23489 18.205799
45.578602 3.9327099 18.377199
45.045502 3.9853001 17.1661
45.632099 4.7479601 18.743099
45.135399 4.8281398 17.59
45.7976 7.3495202 20.269199
45.368698 7.5113702 19.3577
45.323399 6.7221398 18.796801
45.850201 8.0235205 20.641001
45.406601 8.2337303 19.822201
45.7519 6.5886698 19.799101
45.699902 5.68677 19.251499
45.241001 5.8043199 18.167801
46.686699 8.3220997 22.0312
46.336899 8.4775105 21.527599
46.734798 8.9123802 22.1001
46.385101 9.0979404 21.632799
45.920898 8.6992598 20.9209
45.4533 8.9787397 20.197599
45.991901 9.3835602 21.101299
45.490299 9.7343302 20.4736
47.290401 7.0275502 22.697599
46.045101 10.0609 21.196301
45.546001 10.4623 20.6668
46.4156 9.7414303 21.652
47.5242 1.5497299 21.1364
47.877899 1.59681 21.509399
47.317501 0.86158103 21.128
47.117001 0.121159 21.1723
47.028198 -0.65526402 21.218201
47.4044 9.35326 22.8766
47.095001 9.4065905 22.493401
46.7626 9.5243196 22.085899
37.594501 13.0853 18.207001
38.368401 12.9987 19.2514
38.374699 13.0989 17.6257
39.124699 12.9969 18.807199
36.737301 13.2389 17.064301
37.517799 13.2729 16.393801
39.098 12.9893 20.145901
39.856201 12.9711 19.791401
42.308601 -0.35245001 12.9225
42.298199 -0.90657902 12.9756
43.1143 -0.87007302 14.202
42.325199 0.27543101 12.7787
43.143002 -0.30370301 14.1803
43.202499 0.30978999 14.1341
43.6828 4.29177 14.0261
43.352299 4.5240598 13.249
42.895199 3.6865799 12.4305
43.957001 5.2307801 14.7171
43.660599 5.4223399 14.0172
44.087002 4.1582298 14.9617
44.296501 5.0909901 15.5391
43.313 3.4219799 13.3661
43.835499 3.2946999 14.4956
40.645302 12.898 19.3999
41.445202 12.7682 19.0168
39.900799 12.9428 18.339399
40.699501 12.806 17.921801
43.7411 -0.25450501 15.1632
43.713001 -0.84066498 15.1793
43.805401 0.36157599 15.149
42.365601 1.00978 12.5717
43.277699 0.99406898 14.0656
43.3993 1.73011 14.0544
41.201 1.1033 10.8791
42.535599 1.80536 12.5203
41.423901 2.0641501 10.6752
44.115601 6.2164402 15.3759
43.820301 6.3772602 14.6895
44.2048 7.2202802 15.9978
43.896301 7.3728299 15.295
44.444 6.0921302 16.1716
44.542 7.0806799 16.813
43.891602 1.02499 15.1423
44.006199 1.7293 15.1836
42.890598 2.6054499 12.816
42.295601 2.8963001 11.6091
43.5919 2.49371 14.1878
35.804001 13.4277 15.9125
36.5047 13.4968 15.262
34.853901 13.5838 14.7935
35.432701 13.6903 14.2226
34.0242 13.6416 13.6758
34.511101 13.779 13.1844
33.2649 13.508 12.6153
33.670101 13.6579 12.2005
32.539501 13.135 11.6527
32.9034 13.2775 11.2852
31.9461 12.6005 10.7639
32.287399 12.7206 10.4253
31.5515 11.9572 9.9067497
31.8804 12.0634 9.6015196
31.3263 11.1688 9.0864697
31.6441 11.2649 8.8171701
31.248699 10.1969 8.3271599
31.563101 10.2832 8.0903397
31.376801 9.0656404 7.62638
31.711 9.1404696 7.4242902
31.8183 7.83075 7.0246301
32.155102 7.8962698 6.8373399
32.525902 6.5450501 6.5629902
32.856899 6.6207199 6.3913398
33.407501 5.2771502 6.2828898
33.743099 5.3971 6.1507201
34.435501 4.1299601 6.2263699
34.765999 4.3248901 6.1361499
39.951698 1.28518 9.3562403
38.7752 1.55711 8.1769896
40.095299 1.94522 9.0998001
39.000099 2.0757799 8.0452204
37.7141 1.93708 7.3413701
36.670101 2.4665201 6.77279
37.9827 2.37464 7.2707
36.960899 2.83517 6.7178102
35.557899 3.18819 6.3991299
35.8703 3.47335 6.3359199
44.219799 8.1524 16.581699
43.892799 8.3222399 15.8507
44.173199 9.0450602 17.1381
43.815102 9.2390003 16.360001
44.5728 7.9658399 17.413601
44.550201 8.8006496 17.9769
42.2202 12.544 18.700399
42.9161 12.1564 18.4687
41.4879 12.5604 17.612301
42.2257 12.1939 17.412901
44.164799 2.46416 15.3379
44.358002 3.2395401 15.6244
44.542099 4.0631099 16.009399
44.690701 4.9605699 16.499599
44.8195 5.9537001 17.111601
44.916199 6.9103999 17.764999
44.959499 7.7333598 18.3671
44.965401 8.5074997 18.899599
43.4622 11.567 18.280001
44.167198 11.2966 19.205
43.827 10.81 18.0366
44.3596 10.5005 18.915899
42.865601 11.6739 17.279499
43.341702 10.9805 17.105499
44.046398 9.94522 17.6474
43.639198 10.1402 16.797199
44.4827 9.6524496 18.4998
44.959599 9.3068399 19.372299
44.921501 10.1181 19.742001
44.895699 10.8914 20.016701
35.406101 6.2025199 5.7451301
34.559502 7.23737 5.8549399
33.863701 6.96029 6.0218701
36.129501 6.6445398 5.6974802
35.395699 7.58814 5.7611399
36.305901 5.34094 5.8404102
36.903198 5.85709 5.8285699
34.7719 5.8558302 5.8659701
35.759701 4.9303098 5.9217501
33.852798 8.3775101 6.1774402
33.132198 8.1697702 6.3898301
33.376099 9.5267696 6.6530399
32.6637 9.3824701 6.9089198
34.7617 8.6230097 6.03159
34.3092 9.66922 6.4535499
34.542198 13.4664 10.0643
35.326599 13.794 10.8127
34.715199 13.8271 11.252
35.295898 13.3398 9.6448202
36.019901 13.6276 10.3405
33.913101 12.95 9.3143396
34.720402 12.8727 8.9302998
33.919899 13.4721 10.4563
33.277401 12.9252 9.68361
36.2258 13.8877 11.5684
35.6217 13.9303 12.0912
37.214001 13.7854 12.3254
36.6357 13.8315 12.954
36.853199 13.7085 11.0125
37.752998 13.6052 11.6716
38.2663 13.5463 13.0674
37.785599 13.6104 13.8245
39.358299 13.1833 13.6894
39.210098 13.2211 14.9113
38.6688 13.3599 12.31
39.535 13.0019 12.8662
40.344601 12.697 14.0946
40.504398 12.7303 15.0965
41.152699 12.1427 14.3148
41.380901 12.2014 15.2014
40.309399 12.5537 13.2777
40.987701 12.0341 13.5371
41.789001 11.5562 14.4138
42.055801 11.6315 15.2403
42.2686 10.9359 14.4181
42.551399 10.9975 15.2082
41.566002 11.465 13.6678
42.0257 10.8662 13.6944
42.611099 10.2718 14.344
42.8964 10.2831 15.0918
42.8549 9.5630398 14.1842
43.138699 9.5029697 14.87
42.3568 10.2473 13.6379
42.585701 9.6047802 13.5071
43.0131 8.80968 13.92
43.282799 8.6754704 14.5307
43.081501 8.0046701 13.5317
43.333199 7.7971401 14.0744
42.742901 8.92974 13.2927
42.821201 8.2113304 12.966
43.049301 7.1665201 13.0224
43.2845 6.8840499 13.5173
42.939999 6.3989301 12.4517
43.156601 6.0423498 12.8973
42.804798 7.4699402 12.5197
42.713902 6.7927299 12.011
42.739799 5.7402201 11.8552
42.441399 5.1603899 11.2071
42.549198 4.6217999 11.4968
42.545898 6.2174702 11.4796
42.2985 5.7232299 10.8986
42.915699 5.29707 12.2275
42.025002 4.62849 10.4681
41.4674 4.1953602 9.6427097
41.3713 3.51595 9.7878799
41.9571 5.2810702 10.2286
41.494999 4.9098902 9.4779396
42.038502 3.9995301 10.6834
40.762501 3.92873 8.7728004
40.5611 3.26105 8.8492002
39.935699 3.8487101 7.92556
39.654301 3.2309201 7.9539399
40.893299 4.6511998 8.6844702
40.162998 4.5436502 7.8996801
39.032299 3.95081 7.1702199
38.1091 4.2291398 6.5563998
37.7328 3.71421 6.5893798
39.342499 4.6113901 7.1788902
38.499699 4.8522902 6.57442
38.702702 3.38678 7.18853
37.2043 4.6858702 6.1119299
36.752499 4.22017 6.1656499
37.688202 5.2618599 6.1222401
33.182098 10.5941 7.2171402
32.497601 10.5017 7.51404
33.236198 11.5269 7.8570199
32.579498 11.4691 8.1875801
34.099602 10.6527 6.9657698
34.118198 11.5266 7.5560098
33.480598 12.3068 8.5676804
32.839901 12.2672 8.9217901
34.3256 12.2665 8.2207203
35.810101 8.8913498 6.0036402
36.821499 9.1599102 6.1220598
36.523499 9.9218502 6.4038
36.333099 7.9967299 5.79357
37.228001 8.4158297 5.9700999
35.4268 9.8013802 6.3580399
35.233101 10.6731 6.8054099
35.227001 11.4621 7.3266301
36.3647 10.6646 6.7779002
36.345699 11.3465 7.2171102
35.385799 12.135 7.91083
35.709702 12.6771 8.5371199
36.456902 11.9293 7.7024102
36.692501 12.391 8.2186499
36.181 13.0751 9.17278
36.778801 13.3112 9.7950201
37.0411 12.7177 8.7509604
37.491199 12.9069 9.2879295
37.473598 13.3774 10.396
38.226799 13.285 10.9902
38.025501 12.9629 9.8248997
38.6199 12.89 10.3694
38.9897 13.0598 11.5751
39.700001 12.7362 12.0919
39.2369 12.7016 10.9098
39.8167 12.4284 11.3833
40.319302 12.341 12.4818
40.870602 11.8768 12.7442
40.3214 12.0942 11.736
40.776501 11.6906 11.9817
41.3759 11.3483 12.8997
41.796799 10.7893 12.9569
41.206799 11.2151 12.1503
41.575802 10.7103 12.2373
42.0989 10.2287 12.9227
42.3064 9.6575899 12.8101
41.8461 10.2149 12.2317
42.033298 9.7163095 12.1411
42.4519 9.0585604 12.6229
42.529701 8.4347296 12.343
42.162998 9.1940804 11.9749
42.233601 8.6641598 11.7313
42.525799 7.8101201 11.9644
42.237999 8.15485 11.4148
42.185398 7.6873899 11.0528
42.4552 7.23807 11.53
42.320801 6.7434402 11.071
42.121399 6.3193498 10.5664
42.082001 7.27036 10.665
41.9244 6.90768 10.2376
41.846802 5.95438 9.9846697
41.472099 5.6525202 9.3259001
41.705898 6.6071901 9.7486
41.404499 6.3720498 9.18643
40.974998 5.4342699 8.6150303
40.359699 5.3379698 7.8979001
41.001999 6.2112498 8.56213
40.501598 6.14995 7.9214301
39.6577 5.3949699 7.22857
38.931999 5.6054201 6.6570001
39.929199 6.2108798 7.3211999
39.334301 6.3956599 6.8056102
38.235901 5.9638801 6.2179799
37.573399 6.4856601 5.92033
38.7607 6.7028999 6.4031601
38.2174 7.1462898 6.1237302
36.933998 7.17555 5.76968
37.702202 7.7286201 5.9732099
39.160801 7.3547802 6.6494198
38.719898 7.72967 6.4046898
39.626801 7.0910802 6.9983902
40.106098 6.9270301 7.44205
40.566399 6.8599601 7.9591298
40.972698 6.8873601 8.5139599
41.303398 6.9978499 9.05336
41.552601 7.1789198 9.5341101
41.733501 7.4247298 9.9513397
41.863098 7.72824 10.3192
41.946301 8.07376 10.6521
41.987801 8.4550896 10.9585
41.98 8.8702602 11.2252
41.917198 9.3157301 11.4338
41.7999 9.7674599 11.5729
41.6259 10.2061 11.6355
41.3806 10.6437 11.6154
41.060299 11.0869 11.5138
40.6973 11.4999 11.3467
40.318199 11.8458 11.1202
39.900799 12.128 10.8052
39.424801 12.3553 10.3846
38.925598 12.5078 9.9028502
38.455898 12.5605 9.4165697
38.047001 12.5061 8.94454
37.715099 12.3447 8.4877501
37.468201 12.0725 8.0494404
37.310001 11.6894 7.6336098
37.2407 11.2064 7.2420702
37.265999 10.6406 6.8845401
37.3918 10.0262 6.5820599
38.308601 8.2166405 6.2699199
37.936699 8.7861996 6.2551498
37.622101 9.3989601 6.3639398
42.052601 3.3943801 10.9539
41.255699 2.8501401 9.9708099
42.663502 4.1076398 11.8431
35.049702 13.8844 12.6363
34.161201 13.7731 11.7242
36.040199 13.7857 13.5879
43.105801 4.87465 12.665
43.394299 5.7054801 13.4128
43.541698 6.6093702 14.0698
43.604301 7.5739799 14.6575
43.577702 8.50389 15.1711
43.4641 9.3951302 15.5995
43.244801 10.251 15.9247
42.9109 11.0279 16.129601
42.404099 11.6793 16.228399
41.722698 12.2151 16.2768
37.183998 13.5768 14.5557
38.282799 13.3178 15.6834
40.896198 12.6538 16.345699
40.006001 12.9607 16.563801
39.1609 13.0889 17.027901
32.576599 8.0082598 6.6176701
33.297298 6.7558899 6.2073898
32.122898 9.2490196 7.17521
34.205799 5.5879102 6.0085702
35.2262 4.59164 6.02984
33.372299 13.3993 10.87
32.737202 12.8375 10.0566
31.971901 10.3908 7.8136902
32.059898 11.3726 8.5136299
32.313 12.1755 9.2692699
40.308601 2.60922 8.9291897
39.314201 2.6403601 7.9783602
36.289001 3.81774 6.2512698
37.333599 3.2522099 6.6511798
38.332298 2.8619599 7.2207499
48.178299 4.2707901 22.8444
48.175499 4.98382 23.2442
48.316299 4.2009201 23.262899
48.3218 4.8882499 23.6089
48.242599 3.5222299 22.497801
48.360901 3.46524 22.9554
48.257599 5.5500698 23.676399
48.381001 6.0060301 24.0954
48.391102 5.43015 23.978901
48.494499 5.86549 24.355301
48.304401 2.84742 22.2104
48.410599 2.78686 22.7024
48.279499 2.19364 22.009899
48.377701 2.1255 22.5208
48.869801 7.6305299 25.363501
49.086102 8.35501 25.8848
48.9562 7.4253602 25.6798
49.1506 8.2041702 26.265699
48.659199 7.0018501 24.8983
48.759998 6.7897701 25.163401
48.502899 6.4675102 24.487301
48.608799 6.2895999 24.735201
49.2659 9.16467 26.4198
49.443298 10.029 26.8486
49.312099 9.0897703 26.85
49.488899 10.0294 27.3141
49.742401 11.0316 28.1612
49.717201 11.1193 28.684601
49.490101 10.018 27.839701
49.433102 9.8235798 28.426201
49.740799 10.9605 27.644501
48.080502 1.53532 21.9109
48.1973 1.47763 22.433201
49.6898 10.8995 27.1381
48.649399 6.0941901 25.021299
48.795898 6.56212 25.487
48.529701 5.7082701 24.6539
48.977299 7.1872602 26.0979
49.155701 7.9995799 26.7759
49.310299 8.9734602 27.386499
49.2668 8.7053404 27.870501
48.4235 2.76756 23.261801
48.432499 2.1424799 23.148701
48.3573 3.4192801 23.435499
48.3204 1.54768 23.076799
48.528702 1.72426 23.73
48.185101 1.01682 23.1574
48.4613 1.25951 23.7166
48.329601 4.1254201 23.691601
48.353001 4.7869 23.995899
48.428398 5.3036699 24.3186
43.771801 0.36181501 35.910198
42.452702 0.358008 35.745701
42.451599 1.1270601 35.826099
43.776699 -0.137256 35.910099
42.470299 -0.140453 35.740601
43.871101 0.86932498 35.943401
41.051201 0.337841 35.415501
39.713902 0.319116 34.9333
39.630901 0.97006398 34.984901
41.077599 -0.146927 35.412102
39.731499 -0.15644599 34.933201
40.908798 0.99796301 35.462399
30.3379 0.270787 29.7586
29.622299 0.323024 29.189699
29.5923 0.96486098 29.271999
30.351299 -0.25389799 29.736601
29.637899 -0.26712999 29.1605
31.123699 0.241798 30.3116
31.139 -0.24208701 30.298901
30.312901 0.896604 29.831699
31.092699 0.86261499 30.3722
30.3039 1.67328 29.9097
30.303801 2.5510199 29.970501
31.0625 2.65272 30.538099
29.5784 1.68062 29.3431
29.576 2.4442401 29.389099
31.073999 1.6883301 30.457399
30.2908 3.43942 29.990499
29.5644 3.20732 29.400499
29.5242 3.9248199 29.326401
31.041901 3.63551 30.579399
30.251499 4.26724 29.922001
31.006201 4.5478601 30.537001
31.9988 0.26616201 30.8813
32.018902 -0.23067901 30.879601
32.959801 0.31635699 31.477501
32.9832 -0.219372 31.4828
31.952101 0.90598899 30.925301
32.896999 0.98603499 31.511299
31.9093 1.76097 31.008499
32.8251 1.85843 31.591999
31.878901 2.76635 31.102699
32.769299 2.87568 31.6938
31.856899 3.7982099 31.169701
32.741299 3.92343 31.780001
31.838699 4.7621398 31.170099
32.734299 4.9155402 31.817101
34.007 0.35109499 32.087898
34.0261 -0.208382 32.093601
35.121399 0.36109 32.699299
35.1339 -0.19766299 32.702999
33.943901 1.04217 32.123901
35.066299 1.05946 32.742699
33.854198 1.9306 32.210098
34.970001 1.96235 32.840099
33.772499 2.9554 32.316799
34.868301 2.99575 32.952301
33.725201 4.0050101 32.407001
33.7057 5.0128498 32.453499
34.742599 5.0478702 33.070702
34.793301 4.0398202 33.036098
38.521198 0.321742 34.407501
37.4039 0.33734801 33.868599
37.353401 1.01692 33.918499
38.5312 -0.16665 34.409401
37.413799 -0.17674001 33.872501
38.466702 0.98436302 34.4608
47.013699 11.9555 34.191101
46.598598 11.9789 34.407001
46.657299 10.9973 34.510601
46.169498 11.039 34.763699
47.435699 11.9585 33.879002
47.164001 10.9693 34.155998
47.8815 11.951 33.458801
47.666199 10.9341 33.702702
48.300999 11.9175 32.952
48.116001 10.8835 33.171101
46.179699 12.0283 34.575699
45.6777 11.1318 34.918999
48.639198 11.8553 32.413502
48.472801 10.8174 32.604198
48.882801 11.7781 31.922199
48.730202 10.7434 32.073101
49.050301 11.7019 31.525499
48.9076 10.6685 31.621401
49.1763 11.6313 31.177999
49.039001 10.5917 31.2047
48.901402 6.1757498 31.2834
48.842499 6.7107401 31.158701
48.737 6.2852998 31.9277
48.7113 6.8260398 31.799
49.006901 5.76758 31.446301
48.802799 5.86938 32.084801
48.9711 9.34589 30.8405
48.854 9.4300003 31.3451
48.8354 8.2440205 30.933901
48.714901 8.3365002 31.5056
49.152599 10.512 30.768299
48.792599 7.36622 31.040001
48.6759 7.4728498 31.657
48.513599 7.5627298 32.283699
48.271702 7.6079302 32.924999
48.333099 8.4726601 32.6665
48.535099 6.9176998 32.457699
48.268799 6.9505 33.1278
48.556 8.4170103 32.074501
48.7085 9.5081997 31.8381
48.509102 9.5758495 32.359299
49.291698 11.5648 30.8141
44.990299 10.1972 35.269199
44.293701 9.1822596 35.591999
45.576199 10.0559 35.1394
44.9799 9.0033798 35.493
43.745098 8.0937996 35.858002
43.277401 7.0896001 36.039001
44.480499 7.87361 35.788898
44.082001 6.5776 36.0284
46.180401 9.9632797 34.882999
46.787998 9.8778 34.517799
46.4231 8.7392797 34.885502
45.7089 8.8633003 35.247898
41.203701 5.73804 35.948601
41.4137 4.9530401 36.0359
40.740101 4.89996 35.859501
41.674801 5.7157602 36.050098
41.929001 5.02457 36.128502
41.093899 6.5700998 35.803398
40.570702 5.7553701 35.773399
40.472198 6.62817 35.6273
42.7733 4.5222502 36.200699
43.264599 3.8716199 36.1894
42.724701 3.6170001 36.161098
43.265202 4.7725501 36.2066
43.773701 4.1206398 36.190601
42.3591 5.1310101 36.172001
42.7929 5.36759 36.188599
42.279099 4.3366399 36.168201
42.0536 5.71698 36.113701
42.414799 5.8744702 36.145199
48.225399 9.6388102 32.942402
47.839901 9.7082396 33.534599
48.017502 8.5086403 33.300701
47.593399 8.5532303 33.915001
47.353401 9.7904501 34.066399
47.0597 8.6315098 34.443501
47.921299 7.6019902 33.584099
47.4506 7.57934 34.206001
47.882401 6.9039302 33.794899
47.369999 6.8057199 34.417198
46.8573 7.58181 34.739399
46.144501 7.6290598 35.188
46.7388 6.7071099 34.955002
45.9972 6.6493602 35.4048
45.326199 7.7214198 35.555401
45.152599 6.63937 35.77
46.670601 6.0089402 35.113602
45.978699 5.8484902 35.5429
46.679901 5.4510298 35.242298
46.070801 5.1991601 35.628101
47.303902 6.1880398 34.591499
47.2855 5.6940999 34.751099
45.7752 4.3216 35.929199
46.265598 4.62326 35.688702
46.608501 4.06147 35.7547
45.482101 4.9649301 35.920799
45.294601 4.0390902 36.075001
44.902302 4.7128901 36.104099
46.199501 3.6994801 35.944801
45.789001 3.3919401 36.050999
46.793701 4.9523001 35.353401
47.355202 5.2666001 34.901501
47.560101 4.8561702 35.059299
47.059799 4.46278 35.469601
43.830502 5.14153 36.191002
43.312 5.81844 36.173599
44.3218 4.41503 36.176701
44.506599 5.50634 36.1026
45.247799 5.7182498 35.882801
42.822399 6.32479 36.129299
37.8022 5.8246999 34.659
37.8951 4.9028001 34.7211
36.875401 4.9622898 34.2174
38.792702 5.7818198 35.102901
38.894699 4.868 35.1744
37.810101 6.7269802 34.5658
38.773602 6.6768899 34.990501
36.784901 5.8906698 34.164398
36.811501 6.8045301 34.087898
39.740799 5.7607298 35.486401
39.875401 4.8656802 35.569401
39.672401 6.65414 35.349201
38.041302 3.9477501 34.745602
39.059799 3.9151599 35.213001
39.259102 2.9008 35.1884
36.995399 3.9939101 34.221699
38.200199 2.9296801 34.700001
37.124298 2.9707301 34.1591
38.352001 1.8892 34.582401
39.465801 1.86597 35.092499
37.252399 1.9286 34.036701
40.622799 1.8990999 35.538898
41.708698 2.0834501 35.855099
40.308201 2.9239299 35.600201
41.265999 3.0581 35.893398
40.056301 3.92312 35.608799
40.960499 4.0088301 35.898701
36.269299 0.35376 33.297901
36.279499 -0.18708999 33.301601
36.218102 1.04714 33.345299
35.901699 4.0314102 33.647301
36.003899 2.9981699 33.572601
35.814201 5.0218301 33.663101
36.1194 1.9585 33.454102
