# .PCD v.7 - Point Cloud Data file format
VERSION .7
FIELDS x y z
SIZE 4 4 4
TYPE F F F
COUNT 1 1 1
WIDTH 1656
HEIGHT 1
VIEWPOINT 0 0 0 1 0 0 0
POINTS 1656
DATA ascii
22.7635 -4.1013198 40.1866
23.669399 -3.9739201 41.058601
21.8316 -4.8391199 39.102901
21.8589 -4.1533399 39.2631
22.773199 -3.3080001 40.3601
23.6199 -3.17328 41.232601
22.8237 -2.4789801 40.519699
23.610001 -2.3336 41.385201
21.9261 -3.39872 39.424301
22.0284 -2.58722 39.577999
24.537701 -3.3994501 41.799099
24.4487 -2.58863 41.978401
24.658199 -4.14327 41.603901
24.3941 -1.74976 42.136501
24.389099 -0.91405398 42.272701
23.6411 -1.4913 41.5159
23.7169 -0.69362003 41.628101
24.459499 -0.098466001 42.371201
24.641399 0.70102 42.375702
23.8458 0.078897998 41.722801
24.065001 0.84484202 41.744499
22.912201 -1.64508 40.661598
22.1618 -1.77336 39.713501
22.320999 -0.99171501 39.8428
23.033501 -0.83675599 40.7948
23.1959 -0.059586 40.912201
23.438 0.73053002 40.956902
22.516701 -0.241188 39.9664
22.789499 0.53650802 40.040699
23.8186 1.58927 40.881401
24.419001 1.64147 41.636902
24.4042 2.5548899 40.678902
24.9466 2.51878 41.369701
23.2036 1.4121701 40.020599
23.8438 2.4223599 39.903599
27.6392 5.2146602 40.3736
28.312901 5.89575 39.850201
28.589199 5.80721 40.371601
27.339899 5.3048701 39.902401
28.007799 5.9463401 39.334599
26.834801 4.3453102 40.955399
26.492599 4.4669299 40.4827
27.930599 5.12012 40.818802
25.215099 3.62183 40.366798
26.1534 4.5880299 39.952301
24.741199 3.5432 39.703201
25.796101 4.6068301 39.398399
25.655399 3.49159 40.9781
27.0532 5.3674898 39.4561
27.700199 5.9222102 38.954201
26.7974 5.4257102 39.021
27.411501 5.8415399 38.759499
24.966801 1.51078 42.232899
25.4466 2.38241 41.937
26.0758 3.3551099 41.487499
28.181499 5.0376101 41.205502
28.7612 5.6863499 40.808601
28.8025 5.5400701 41.130402
28.411301 4.9966602 41.539902
28.745199 6.3754201 39.4655
29.0567 6.2579699 40.171398
28.365801 6.3900199 38.828201
28.6693 5.0040998 41.881599
29.061199 5.6624799 41.299099
24.805201 -4.7892599 41.407902
29.1891 6.0459099 40.767601
20.9319 -4.7312999 38.2453
20.990101 -4.0975499 38.382099
20.1003 -4.5689502 37.455101
20.1709 -3.9763899 37.565201
21.091 -3.3787799 38.518902
21.2288 -2.6103499 38.6455
20.2808 -3.30006 37.666901
20.4279 -2.57974 37.7575
21.392401 -1.84548 38.755699
21.5842 -1.10342 38.868599
20.6077 -1.86475 37.839901
20.824699 -1.15452 37.932301
22.6057 1.28778 39.130798
22.1416 0.407655 39.0937
21.464899 0.36270201 38.150398
23.3046 2.31898 39.0994
21.986601 1.23601 38.221001
22.7479 2.2590101 38.251099
21.821699 -0.36911401 38.993099
21.0977 -0.42129099 38.044102
26.535999 5.42135 38.5644
25.4186 4.56675 38.814999
24.9951 4.5339799 38.147598
27.415701 5.9854202 38.388802
26.2083 5.4174299 37.989201
27.206699 6.0390501 37.855
27.9669 6.26718 38.463699
27.892401 6.4644699 37.851299
24.275801 3.4702599 39.0014
23.7824 3.4188001 38.236301
33.411301 -5.5963998 15.8259
33.480202 -5.3670301 15.7115
33.358002 -5.3017502 15.615
22.201799 -12.4339 32.586201
22.08 -12.3321 32.803902
21.930599 -12.2712 32.8134
55.623299 -2.9324801 51.566502
56.157501 -2.7516201 51.057098
56.489899 -3.36707 52.2155
55.4412 -2.14059 50.177898
56.0107 -1.99681 49.5867
55.0457 -3.1968801 51.903599
54.801701 -2.3676901 50.618999
55.9576 -3.5580201 52.7099
55.3876 -3.82688 53.034401
54.473701 -3.4456 52.047401
54.796902 -4.0535898 53.178101
54.233898 -4.2431998 53.284
54.183498 -2.58289 50.863899
53.935501 -3.6401801 52.157799
53.6185 -2.77373 51.0401
58.479698 -3.9928501 51.116501
57.942402 -3.8324699 51.856602
57.429298 -3.4431601 50.992199
59.042 -4.4307399 51.830601
58.476501 -4.2735701 52.560398
58.967701 -4.2787099 50.302502
59.557201 -4.7032199 51.006599
57.906399 -3.6433401 50.249199
58.362701 -3.89429 49.435101
56.626202 -2.7451799 50.457001
56.975399 -3.3276601 51.633598
57.0369 -2.87674 49.8144
56.453999 -2.01686 48.958302
56.816101 -2.1703899 48.320499
57.432098 -3.0850599 49.131699
57.8092 -3.35165 48.418999
57.146099 -2.36449 47.668499
57.446899 -2.5892701 47.0172
58.169498 -3.62976 47.625301
57.6992 -2.8529601 46.3974
57.885899 -3.1164801 45.859901
58.757301 -4.17138 48.6096
58.437099 -3.8570099 46.960899
59.061401 -4.4352899 47.893101
59.573399 -5.06179 52.4781
58.980801 -4.9455199 53.247799
60.082298 -5.3041401 51.615501
58.3438 -4.92383 53.9296
57.719601 -4.9592099 54.52
57.271801 -4.2860999 53.815601
57.874699 -4.2385001 53.221699
55.0788 -4.382 54.187
55.687199 -4.1757102 53.982498
56.0839 -4.5423298 54.743599
54.469101 -4.57795 54.3311
55.453201 -4.7286301 55.035
54.794102 -4.9301801 55.237301
55.8549 -5.3720102 55.803902
56.505199 -5.1861 55.461399
55.159199 -5.5791001 56.043301
57.383099 -3.7934699 52.523899
56.818298 -3.8559301 53.120098
57.1152 -5.0472999 55.030998
56.6819 -4.3912401 54.332298
56.268799 -3.99137 53.618
59.386299 -4.6365099 49.4375
59.978699 -5.119 50.103699
59.681801 -4.9849801 48.641998
60.317501 -5.63412 49.053001
60.480598 -5.6726999 50.664501
60.759499 -6.0997901 49.670399
60.919899 -6.4897299 48.727501
60.672699 -6.2087002 48.368801
60.4837 -6.0422702 47.953201
60.308601 -5.8978601 47.575802
60.249599 -5.6814198 48.240398
60.202499 -5.6964998 47.848999
59.837299 -5.2232599 48.030899
59.934799 -5.4147902 47.5853
59.2715 -4.6731 47.3675
59.429298 -4.9125099 46.967602
60.0508 -5.6500301 47.203899
59.5765 -5.1855602 46.595501
58.6227 -4.0506101 46.4524
58.752899 -4.2564201 46.0457
58.000999 -3.3484399 45.3894
58.0606 -3.56675 44.995201
58.856201 -4.4885702 45.652599
58.8834 -4.68573 45.211498
58.091 -3.7836299 44.623299
58.086399 -3.9675801 44.188301
58.788799 -4.7852101 44.715599
58.0504 -4.1373901 43.761799
52.150398 -4.0756102 52.623199
52.463699 -4.6614099 53.6838
51.735699 -4.8681202 53.533798
52.837502 -3.9169099 52.5741
53.1329 -4.5279899 53.660702
51.8577 -3.3705201 51.535599
52.508801 -3.15783 51.459202
51.432999 -4.3045802 52.493801
51.1735 -3.64241 51.4664
53.416 -3.7871599 52.367901
53.082401 -2.9630201 51.2603
53.700699 -4.3913999 53.480301
49.6689 -6.50002 53.367001
49.570301 -6.0655699 52.379398
50.265598 -5.6117401 52.855
49.023602 -7.0293198 52.840199
48.923901 -6.5320702 51.845001
49.724499 -7.00805 54.208401
49.100899 -7.59553 53.674999
50.375 -6.05901 53.791
50.463902 -6.5649199 54.607399
50.754101 -4.6398301 52.222198
50.510601 -4.0077901 51.254299
50.0816 -5.0623298 51.831402
49.865002 -4.44699 50.919998
51.004101 -5.1870799 53.2533
49.389 -5.5306201 51.3419
49.214802 -4.8952498 50.501598
48.705898 -6.0106301 50.7659
48.5839 -5.3364501 50.0103
48.158001 -6.4298301 50.217602
47.729099 -6.7966199 49.726501
47.560902 -6.1126299 48.9034
48.373001 -7.0437698 51.259602
47.951801 -7.5083098 50.728199
48.016701 -5.7571702 49.4566
49.9203 -7.7319002 54.941502
49.269402 -8.2950897 54.374802
50.653702 -7.2488699 55.372799
51.4268 -6.8371201 55.694698
51.230598 -6.1849499 54.919998
51.991199 -5.86027 55.165901
52.213402 -6.51052 55.926201
53.870899 -4.7522602 54.498299
54.120098 -5.1348 55.376099
53.432499 -5.34865 55.421799
53.250099 -4.9262199 54.6129
54.4324 -5.7856498 56.1674
53.6978 -5.9987798 56.178902
51.097599 -5.6854801 54.131302
51.826 -5.3803401 54.397202
52.965599 -6.2357502 56.091301
52.725601 -5.58568 55.3442
52.567799 -5.1301699 54.574902
48.495499 -7.6490102 52.216801
48.086601 -8.1923103 51.601002
48.581799 -8.2715101 53.0121
48.106899 -9.0116701 52.168999
48.7234 -8.9248505 53.664902
48.276199 -9.5527802 52.855999
47.9231 -10.0847 52.044201
47.812401 -9.7659798 51.6506
47.688 -9.5816803 51.218601
47.8176 -9.1202097 51.412899
47.581001 -9.4184198 50.823799
47.685299 -9.1588898 51.043301
47.811901 -8.5496101 51.099701
47.674099 -7.8810401 50.327099
47.632198 -8.8177795 50.7248
47.492802 -8.2142496 50.013699
47.488499 -9.1248798 50.409698
47.348 -8.5680799 49.716099
47.452301 -7.1238499 49.327499
47.257301 -6.3763399 48.448399
47.271 -7.42941 48.980202
47.037601 -6.5887198 48.028702
47.130299 -7.73207 48.645
46.8792 -6.8016601 47.615299
47.008202 -7.97052 48.242001
46.773899 -7.0311499 47.171902
46.905899 -8.0721397 47.7481
46.708698 -7.25319 46.687801
56.187901 -1.29585 47.626801
56.5308 -1.45944 46.972801
55.8685 -0.68379301 46.5844
56.2019 -0.87408602 45.907001
55.7621 -1.23695 48.283001
55.4506 -0.57814199 47.2672
55.229599 -1.31625 48.900398
54.955799 -0.58672398 47.888599
54.622501 -1.49028 49.407398
54.280701 -0.61381602 48.359001
54.003799 -1.70125 49.774502
53.673801 -0.993249 49.0014
53.4091 -1.9141001 50.057899
53.073799 -1.24252 49.363899
56.817501 -1.674 46.327099
57.0453 -1.91187 45.708199
56.441502 -1.0999399 45.269699
56.603001 -1.3673 44.678398
57.214401 -2.1823299 45.126499
57.327599 -2.4588499 44.615799
56.693298 -1.6497101 44.123402
56.644699 -1.8952399 43.4673
57.398998 -3.11812 43.566601
57.3717 -3.3525801 43.237099
56.701698 -2.6865599 42.684299
56.615898 -2.9200201 42.380299
57.409698 -2.91453 43.884899
56.7589 -2.4762199 42.973202
57.390999 -2.70454 44.216801
56.7691 -2.2522399 43.248001
57.332401 -3.62378 42.887699
56.530998 -3.1838901 42.072899
50.0811 -3.4180801 50.494598
50.765301 -2.9976499 50.6586
49.566399 -2.9426301 49.935699
50.2463 -2.4683399 50.072899
49.447102 -3.87796 50.2155
48.945301 -3.43522 49.688099
51.4837 -2.64939 50.673599
52.184502 -2.36341 50.5485
50.934898 -2.06234 50.0658
51.6092 -1.60675 49.823799
52.820599 -2.12639 50.323101
52.445702 -1.44862 49.6549
48.863602 -4.3322101 49.863701
48.411701 -3.8889201 49.366699
48.325199 -4.75981 49.445
47.9636 -4.3154602 48.9827
47.8475 -5.1670699 48.954601
47.572498 -4.7058902 48.5261
47.463001 -5.5239501 48.444599
47.1968 -5.0241599 47.927101
46.834801 -6.1998801 47.077499
46.992599 -6.0150299 47.542801
46.773102 -5.7853198 46.647598
46.8811 -5.6047602 47.1147
46.706001 -6.3874898 46.5504
46.698002 -5.96103 46.083
47.188801 -5.8024902 47.979801
47.019501 -5.3901701 47.527401
46.6106 -6.5805202 45.985802
46.661999 -6.1374898 45.428101
55.5513 -0.21537501 45.815701
55.8606 -0.43959001 45.131401
55.249599 0.17620499 45.202801
55.516102 -0.079438999 44.517899
55.1563 -0.061829001 46.488499
54.890301 0.369921 45.872601
53.1712 0.81538898 47.104
52.852699 1.30478 46.739899
53.103298 1.37343 46.471401
52.896301 0.65948302 47.4165
52.5322 1.18283 47.0611
53.504002 0.44265801 47.372398
53.2813 0.21969999 47.728001
53.381401 0.90204901 46.8587
53.589199 0.60175699 47.115501
55.237499 0.001942 43.291801
55.1525 0.29588899 43.956902
54.770599 0.68648601 43.341702
55.649601 -0.34046701 43.868999
55.243599 -0.26682499 42.670799
55.687801 -0.60821003 43.2911
54.8297 0.43928301 42.572399
54.797401 0.196604 41.9422
54.938599 0.57729799 44.660301
54.6199 0.79206598 45.331799
54.344101 1.2581 44.778801
54.612099 1.00091 44.070099
54.256599 0.89720798 45.904202
53.908401 0.92480302 46.339298
53.6521 1.38992 45.859402
54.505699 0.45706901 46.433899
54.1399 0.486929 46.832401
54.006401 1.34488 45.380901
54.722099 -0.011279 47.0709
54.278801 0.034003001 47.4338
53.614399 0.92776 46.635201
53.8167 0.53403699 47.047699
53.3531 1.39774 46.2033
52.496399 0.445584 47.7878
52.898399 -0.036290001 48.113602
52.383701 -0.28123501 48.478699
52.095901 1.00761 47.4403
51.983299 0.21308 48.154701
51.563099 0.79292399 47.816601
53.286999 -0.47678199 48.485199
52.729801 -0.73476201 48.863499
53.696602 -0.161008 48.0177
53.8657 0.18354 47.506599
56.124199 -1.92655 42.436501
56.059399 -2.1447401 42.188702
55.4837 -1.7138 41.692501
55.3405 -1.93104 41.444801
56.086102 -1.69116 42.570999
55.566502 -1.51735 41.898998
54.734402 -1.5036401 40.886299
54.5229 -1.74896 40.642502
53.91 -1.22923 40.022099
53.613098 -1.60685 39.7724
54.905399 -1.28213 41.130699
54.161499 -0.91373801 40.307598
56.048302 -0.68006402 44.4916
56.141899 -0.93701398 43.9184
55.992699 -1.51059 42.585602
56.121201 -1.4220999 42.933701
55.6688 -1.13691 42.401699
55.620899 -1.33578 42.101101
55.035599 -1.0289201 41.395901
54.392502 -0.61175698 40.659
55.1399 -0.770253 41.7206
54.5853 -0.32130599 41.042
55.207802 -0.51743299 42.133701
55.693401 -0.89378798 42.811901
54.718201 -0.054651 41.455601
56.178902 -1.21053 43.4081
54.251999 -2.0369401 40.3974
53.274101 -1.90927 39.618999
52.856602 -2.27841 39.442299
55.131802 -2.1853199 41.180401
53.8927 -2.35637 40.158298
54.841301 -2.4685199 40.890499
55.933102 -2.36801 41.9091
55.748299 -2.6117301 41.598598
49.980801 -4.44034 39.049099
49.688 -4.3347902 39.1339
49.292801 -4.4977198 39.2784
50.383598 -4.3092699 38.991699
50.098598 -4.1788101 39.053799
50.272099 -4.53018 38.953201
50.532799 -4.4120402 38.928501
49.577099 -4.5971298 39.166
49.878201 -4.6877999 39.052601
50.162998 -3.88111 39.0779
50.566799 -3.7353699 39.083401
50.148899 -3.6205699 39.074501
50.521702 -4.04353 39.034401
50.951302 -3.9176099 39.047298
49.781502 -4.0359001 39.133701
49.859901 -3.75053 39.126202
49.5256 -3.89346 39.1824
50.9977 -3.5912499 39.117401
51.526501 -3.4201801 39.202702
50.783798 -3.3424599 39.097198
51.455101 -3.7774701 39.1022
52.328602 -3.5836999 39.2864
50.442501 -3.4914701 39.077099
50.584999 -4.6154499 38.8368
50.173199 -4.7799201 38.9137
50.8414 -4.4265599 38.860001
55.533298 -2.8777101 41.264099
55.4533 -3.15924 41.022202
54.4823 -2.7497201 40.5453
54.091301 -3.06935 40.186699
55.647701 -3.4411399 40.996899
54.667301 -3.33992 40.3493
52.179901 -3.20172 39.373402
52.8657 -2.9400799 39.627201
51.796902 -2.9182999 39.240101
53.091702 -3.3006001 39.632301
51.246601 -3.14783 39.1474
53.433498 -2.6717601 39.915901
52.354301 -2.6276801 39.332401
53.880699 -3.4678099 39.869598
53.306 -3.6730599 39.495899
50.792 -4.2298498 38.952702
51.234299 -4.15942 38.937801
49.0937 -2.5903101 49.518799
49.7244 -2.08622 49.6436
48.6563 -2.3089299 49.181301
49.215801 -1.80057 49.3078
48.506302 -3.1056299 49.278801
48.114399 -2.8316901 48.928699
50.487598 -0.27524599 48.756901
50.190102 -0.394804 48.829399
49.760601 0.041735999 48.555099
50.7915 -0.62916899 49.015202
50.484501 -0.63303298 49.007099
50.8936 -0.15287 48.644501
51.250702 -0.57788903 48.949001
50.077702 0.195623 48.466999
50.482601 0.36015099 48.334099
47.2449 -3.0429699 48.197701
46.9645 -2.9126 47.673
47.181801 -2.3629301 48.086201
46.972 -3.45856 47.8167
46.804298 -3.3634901 47.2537
47.649601 -3.28462 48.579399
47.276199 -3.67908 48.171501
47.6656 -2.5845001 48.563702
48.158401 -2.0651801 48.842499
47.609501 -1.7682 48.456902
48.116001 -1.1914099 48.683601
48.683601 -1.5523 49.000599
49.190498 -1.12488 49.035702
48.650101 -0.771312 48.734901
49.108898 -0.41176599 48.698502
49.738098 -1.38723 49.321098
49.619701 -0.80063802 48.988899
50.150799 -1.07031 49.248901
50.3256 -1.66707 49.640499
50.7626 -1.30457 49.507702
49.935101 -0.561845 48.908501
49.464199 -0.14806899 48.630299
50.396301 -0.81419802 49.1245
51.416 0.0082019996 48.447399
50.996899 0.56484699 48.1217
51.8036 -0.464614 48.767899
52.1185 -0.9217 49.1553
51.495701 -1.00255 49.305199
50.911201 -0.95859301 49.2757
46.8064 -5.0892601 47.016998
46.868301 -4.8677201 47.3041
46.675999 -4.95823 46.424801
46.722698 -4.7851 46.781101
46.7257 -5.28053 46.594299
46.638302 -5.1258702 45.961102
46.568501 -4.8443298 45.781502
46.5947 -4.6641998 46.231499
46.486198 -4.7279501 45.0168
46.494999 -4.5184102 45.5061
46.562698 -5.0084801 45.2584
46.499401 -4.9178801 44.515099
48.0107 -3.5578301 48.9529
47.6119 -3.95912 48.569901
46.882401 -4.7086501 47.398499
46.775299 -4.6039801 47.077801
46.854 -4.3639598 47.4007
47.041302 -4.59266 47.729599
46.630798 -4.4290099 46.6567
46.6996 -4.1532502 47.065899
46.5284 -4.2806201 45.993198
46.588501 -4.0131202 46.4524
46.812698 -3.83202 47.451
46.6796 -3.7158899 46.858601
47.005299 -4.0471702 47.7687
47.292999 -4.3280301 48.152199
46.5919 -5.1529002 44.6273
46.674999 -5.2473001 43.895199
46.5368 -5.05618 43.258701
46.6292 -5.2781401 45.373501
46.683899 -5.39923 44.653301
46.446999 -4.9914699 43.943001
46.6754 -5.44943 46.069599
46.675598 -5.5989599 45.4189
49.226002 -4.73281 39.372299
49.499599 -4.8191099 39.246498
48.986 -4.84795 39.578098
49.246201 -4.89467 39.421001
48.935398 -4.6381602 39.495201
48.649101 -4.7579598 39.739899
48.089199 -4.7351398 40.165699
47.838699 -4.5822802 40.281799
47.6143 -4.6574998 40.5173
48.344299 -4.6354799 39.896999
48.1157 -4.4847798 40.005001
48.452702 -4.8650198 39.991402
47.909 -4.8248 40.456501
48.287498 -4.96735 40.245098
47.744999 -4.91677 40.7654
47.459702 -4.7171302 40.771
47.294102 -4.7843199 41.0732
48.118301 -5.0802002 40.5485
47.5686 -5.0215201 41.157101
47.9286 -5.2649398 41.028999
49.741901 -4.9165301 39.116501
49.320999 -4.9822402 39.393902
46.737202 -5.7286201 44.665901
46.852402 -5.4860702 43.8298
46.832802 -5.8741498 44.011902
47.132599 -5.5377898 42.9189
46.902302 -6.0747499 43.635101
47.177299 -5.7293801 42.774399
47.360001 -5.1376801 41.687698
47.094002 -4.87746 41.486698
46.8601 -4.9681201 42.007599
47.520802 -5.38867 41.8564
47.1185 -5.2390499 42.346298
46.846901 -5.2757001 43.1115
46.665699 -5.0378098 42.602501
47.540401 -5.6030898 41.966099
47.907101 -5.5233402 41.231701
48.873699 -4.95925 39.719002
48.791801 -5.0721402 39.852501
54.085201 1.65687 44.1833
47.564899 -0.88611501 48.312199
52.504101 1.91495 46.357101
52.159199 2.6222401 46.0172
52.480598 2.6387899 45.700802
52.140099 1.82529 46.695301
51.6838 2.6580901 46.325401
52.7939 1.9513 46.0583
53.069698 1.9477 45.750999
53.386101 1.911 45.363998
52.7957 2.58973 45.3479
53.1483 2.4424601 44.9034
49.622299 0.78610998 48.172199
49.284901 0.58614302 48.272701
48.803501 1.20933 48.047199
50.0378 0.99645698 48.016399
49.1521 1.4443001 47.9324
49.517101 1.80269 47.704601
48.961102 0.35564601 48.347
48.455601 0.91815001 48.121799
48.577 0.051548 48.4062
48.053799 0.49335399 48.165001
50.806499 3.04831 46.5051
51.228901 2.4009299 46.788601
50.689899 2.2040999 47.165699
51.177399 3.2318101 46.162498
50.418301 3.7144699 46.185902
50.805698 3.8388801 45.876801
50.292599 2.8624599 46.861301
49.925999 3.5441401 46.530102
51.668999 1.68275 47.084
51.121101 1.48455 47.466999
51.311901 3.4223001 45.922001
51.553001 3.3046801 45.864101
51.065899 3.9056001 45.657001
51.3116 3.9117899 45.483002
53.7528 1.8329 44.848202
53.5228 2.27141 44.320202
52.5755 3.1464701 44.953999
52.222099 3.2565701 45.335899
52.006802 3.8394899 44.939301
52.9576 2.97263 44.469002
52.4128 3.7063899 44.5429
51.877499 3.2647901 45.656101
51.629002 3.8922601 45.254799
49.7714 2.6403 47.1716
49.430302 3.3372099 46.838299
49.321999 2.50631 47.362
49.018002 3.1623001 47.060799
50.1343 1.96662 47.482899
50.553902 1.24087 47.7836
49.0322 2.54005 47.4058
48.7332 3.0318601 47.208
48.948799 2.29249 47.5508
48.513199 2.86742 47.345798
48.097 -0.35918799 48.429501
47.561501 -0.0078210002 48.139599
47.979198 1.3945 47.944801
47.515701 1.88827 47.808899
47.895199 2.3111601 47.680302
47.564499 0.93056202 47.983799
48.358898 1.77202 47.84
48.701801 2.03355 47.7104
48.2393 2.62995 47.5126
51.734901 -4.0504098 38.976101
52.316502 -3.95276 39.066399
52.951302 -3.94521 39.179199
48.643101 -5.1891999 40.067101
48.466301 -5.3297901 40.329899
48.280499 -5.5019398 40.564701
49.398201 -4.2017202 39.233101
49.1605 -4.0566301 39.278801
48.789001 -4.2221298 39.4464
49.018299 -4.3671198 39.385601
48.6591 -4.5159502 39.632702
48.438599 -4.3654799 39.708302
49.529099 5.2416201 45.4216
49.057598 5.0741801 45.786999
49.913898 5.3583498 45.077202
46.6922 -3.0420401 38.220501
46.910099 -2.9198301 38.0084
46.494301 -3.1693499 38.4669
50.3904 4.5738401 45.498699
47.277802 -2.78865 37.619301
47.1064 -2.83324 37.816799
52.741402 -1.40368 38.896702
51.252102 -1.72825 37.869598
50.0606 -1.97469 37.528
50.878601 -2.16413 37.9408
48.970402 -2.20454 37.522499
47.869598 -2.50196 37.637501
48.719501 -2.35815 37.796001
48.553902 4.8891401 46.095299
48.082699 4.7139602 46.354401
46.260201 -3.37463 39.0047
46.353401 -3.2773099 38.740501
48.587101 3.9180901 46.724701
46.1017 -3.62075 39.4184
46.184601 -3.4828899 39.228199
46.200199 -4.52529 43.797798
46.184601 -4.14008 41.347301
45.976101 -4.3509002 42.390202
46.1591 -4.4472599 41.874001
46.426998 -3.5845799 39.8083
46.3904 -3.85111 40.535702
46.568802 -3.6893301 40.227901
49.9925 4.4637699 45.819801
49.509701 4.2986898 46.170399
47.1917 -2.91185 38.367599
47.439098 -2.7409599 38.117001
47.7626 -2.9486101 38.634102
48.226002 -2.7585299 38.407101
46.967602 -3.07429 38.646702
47.445801 -3.1215601 38.8936
49.972599 -3.4031 39.004398
49.855301 -3.5143001 39.055401
49.5952 -3.3524699 38.965401
49.648399 -3.4509101 39.023701
50.115501 -3.2669699 38.936298
49.468399 -3.1465099 38.8204
48.973 -3.9321301 39.284302
49.327999 -3.7679601 39.176102
49.158401 -3.66064 39.145302
48.610199 -4.0964899 39.4631
48.814602 -3.82493 39.265099
48.4613 -3.9868901 39.452499
48.6539 -3.7120199 39.228901
48.982899 -3.5477099 39.0965
48.792801 -3.4031501 39.014301
48.312302 -3.87131 39.424198
48.491699 -3.57019 39.1591
48.164299 -3.72895 39.362202
47.990299 -3.1019599 38.837002
48.351299 -3.0180299 38.738701
48.152802 -3.2630601 38.9575
48.379902 -3.15904 38.8521
47.663799 -3.25545 39.057098
47.841599 -3.41432 39.167801
48.3209 -3.41047 39.059898
48.574699 -3.2486999 38.913101
48.007702 -3.5667801 39.267799
49.6381 -3.6281099 39.1063
49.454201 -3.5253699 39.0648
49.280899 -3.41136 39.002399
49.061798 -3.2565401 38.902
48.744499 -3.0941999 38.785198
48.9258 -2.92575 38.623501
52.3218 -1.89631 38.731602
51.814701 -2.2632101 38.680801
51.343498 -2.5933101 38.681
50.502602 -2.4268501 38.136799
50.158501 -2.6701701 38.3661
50.859001 -2.8810899 38.7686
49.778099 -2.25105 37.767399
49.487099 -2.4714899 38.051601
50.408001 -3.1024301 38.8507
49.800499 -2.91484 38.6255
49.187401 -2.6951799 38.3423
48.470001 -2.5239401 38.070099
47.663502 -2.60253 37.879799
49.0172 4.1024098 46.478901
46.8009 -3.2007999 38.9589
47.176399 -3.2437401 39.1758
46.672901 -3.3115799 39.273602
46.983501 -3.41746 39.603001
47.305599 -4.48843 40.665501
47.087002 -4.4912701 40.855202
47.319199 -4.2987199 40.4841
47.084702 -4.1493502 40.508598
47.487301 -4.4836702 40.510601
47.443001 -4.36414 40.448101
48.269402 -4.23453 39.7327
48.1311 -4.1205101 39.724701
47.831902 -4.2244501 40.0233
47.959099 -4.3453398 40.0331
47.992599 -3.99997 39.695801
47.851799 -3.8515601 39.630501
47.572399 -3.9333301 39.905499
47.7034 -4.0964699 39.9883
47.370399 -3.38344 39.340199
47.5518 -3.5331299 39.432201
47.2075 -3.5306499 39.6488
47.378201 -3.6057701 39.636101
47.7062 -3.68397 39.529701
47.450901 -3.7444501 39.767799
47.6959 -4.4327598 40.303902
47.585999 -4.30685 40.2845
47.462299 -4.1798701 40.2533
47.3321 -3.9992599 40.155399
47.228802 -3.7595699 39.9408
46.998699 -3.7809999 40.119801
46.2687 -4.7089 43.187401
46.2785 -4.7645102 42.641701
46.4109 -4.7340798 42.064098
46.557098 -4.6399598 41.577202
46.543301 -4.31284 41.1535
46.321899 -4.4145298 41.518398
46.382599 -4.0904298 40.997898
46.576 -3.98103 40.688999
46.794201 -4.5446501 41.157501
46.768501 -4.20575 40.820599
46.792999 -3.85603 40.3722
46.753502 -3.5390201 39.923199
46.5522 -3.4344699 39.5541
52.050598 -5.77738 42.2929
51.681301 -4.91715 41.753201
51.335499 -4.9981699 41.858299
52.333698 -5.7270598 42.171501
51.971802 -4.8745899 41.6376
52.349098 -6.6258101 42.703201
52.614601 -6.5726099 42.587399
51.7118 -5.8584399 42.400398
52.0462 -6.69771 42.8008
52.540798 -7.4552302 42.8848
52.7775 -7.4057899 42.791599
52.659698 -8.2684698 42.799301
52.872898 -8.2241898 42.738899
52.309799 -7.5068798 42.956799
52.4995 -8.2989998 42.841499
53.040298 -5.8298602 40.971401
52.6684 -5.2976599 40.752102
52.6922 -5.2140002 40.905701
52.9855 -5.88977 40.729198
52.637402 -5.3761401 40.614201
53.373798 -6.3164902 41.0895
53.285301 -6.3310699 40.7766
53.0644 -5.7752399 41.235298
53.419601 -6.3143601 41.436001
52.8978 -5.9481101 40.551899
52.589699 -5.4507298 40.494499
52.784199 -6.0032301 40.444801
52.494301 -5.4976201 40.361099
53.163502 -6.3563099 40.571098
53.045502 -6.4136801 40.495499
53.650902 -6.73032 41.043098
53.751701 -6.8158498 41.422298
54.076599 -7.2776098 41.195999
53.512699 -6.6623101 40.718102
53.894001 -7.0812201 40.845001
53.692299 -6.9165101 40.575298
53.055199 -5.73277 41.4739
52.990898 -5.7052898 41.6707
53.348099 -6.3687201 41.992699
52.695801 -5.1192498 41.057499
52.6441 -5.0265899 41.197899
53.418301 -6.3323598 41.743301
52.538898 -5.7010899 42.060699
52.183701 -4.8709698 41.532101
52.703098 -5.6912899 41.9529
52.354301 -4.8993702 41.431801
52.828499 -6.5224299 42.472801
53.017601 -6.4700098 42.348202
53.790199 -6.9080601 41.7658
53.723801 -7.0078101 42.059601
54.1227 -7.6277699 41.8615
54.179798 -7.4584699 41.535999
53.022598 -7.33004 42.678101
53.1618 -8.1251602 42.638199
53.5144 -7.9762702 42.4589
53.281399 -7.2292099 42.525398
54.567299 -7.9787998 41.118599
54.5149 -8.2259197 41.4575
54.805599 -8.7709303 40.951599
54.396702 -7.7023602 40.813301
54.871899 -8.4485798 40.624001
54.665501 -8.0878401 40.349899
55.013401 -8.8615999 40.110901
54.9725 -9.2541399 39.4883
54.811199 -8.8026304 39.234699
54.915798 -9.2444401 40.3997
54.862099 -9.6824598 39.7174
54.819901 -8.4432001 39.8438
54.207802 -10.0956 37.438599
54.495499 -9.9524698 37.9436
54.383301 -10.5088 37.875198
54.118 -9.71702 37.3951
54.3745 -9.5024204 37.837898
53.9725 -10.1236 37.168098
53.921398 -9.8295603 37.1572
54.1605 -10.4787 37.347198
53.945099 -10.4255 37.098701
52.760601 -9.0647602 42.455601
52.869999 -9.8284502 41.898499
53.1054 -9.7622004 41.877701
52.625301 -9.08745 42.4799
52.698299 -9.8635798 41.924801
52.973202 -9.0183802 42.424801
53.298801 -8.8976698 42.3475
53.730499 -8.7055302 42.158699
53.4384 -9.6080999 41.814602
53.8955 -9.3705301 41.6385
52.9813 -10.5368 41.1759
52.723701 -10.6027 41.223202
52.694099 -11.2707 40.383202
53.255199 -10.4299 41.1376
53.049702 -11.1673 40.3055
53.3717 -11.0149 40.235199
53.563099 -10.2257 41.064999
53.979801 -9.9376202 40.918598
53.6576 -10.7652 40.1436
54.011299 -10.4393 40.029499
53.958302 -10.7482 37.135601
54.008598 -10.8924 37.2929
53.698002 -10.9881 36.961102
53.830101 -10.6466 36.9874
53.720699 -10.854 36.926102
53.714001 -10.7539 36.8992
53.024899 -11.6813 39.3242
52.601799 -11.8102 39.436501
52.4505 -12.1277 38.499699
53.395199 -11.4994 39.217999
52.869301 -11.9982 38.3671
53.245899 -11.8227 38.082199
54.7775 -9.6453104 38.701
54.637299 -9.1765404 38.508099
54.694302 -10.1118 38.850201
54.3867 -10.5261 38.960098
54.475201 -10.0764 39.8941
54.202999 -10.8944 38.060101
54.0089 -10.8931 39.0471
53.9188 -11.2217 38.130798
53.472698 -11.5935 37.4319
53.271801 -11.4906 36.962502
53.462002 -11.3113 36.982101
53.200901 -11.777 37.331299
53.0602 -11.635 36.910702
53.6357 -11.5274 38.170799
53.7085 -11.352 37.428699
53.695202 -11.2281 39.128101
53.909901 -11.1039 37.3899
53.610901 -11.1395 36.981098
54.192799 -8.4717903 41.834301
53.872898 -7.8031602 42.184898
54.421299 -9.0815496 41.3223
54.502499 -9.6039305 40.685001
53.536598 -7.1173801 42.3162
53.2019 -6.4169502 42.192001
52.862202 -5.6923599 41.827599
52.518101 -4.9516902 41.322498
53.3647 -6.6338 40.5345
53.260101 -6.6809301 40.497299
53.515499 -6.8337402 40.4673
53.402901 -6.8199902 40.4729
52.600899 -12.0686 37.598202
52.837502 -11.9566 37.396801
52.331001 -11.9558 37.089298
52.527401 -11.8713 36.988098
52.262402 -12.1754 37.710499
52.083698 -12.0341 37.163799
52.903999 -11.8434 37.098999
52.849998 -11.7044 36.828499
52.6465 -11.7847 36.860699
52.6982 -11.709 36.764198
53.812599 -10.1091 37.017601
53.799999 -9.8797798 37.025902
53.713902 -10.0817 36.925598
53.7346 -9.89855 36.946899
53.778702 -10.3576 36.956902
53.661301 -10.2897 36.869701
53.499199 -10.3902 36.739399
53.585602 -10.4661 36.807999
53.506802 -10.6016 36.757702
53.5812 -10.236 36.797001
53.441898 -10.3333 36.651299
53.5369 -10.2013 36.704601
53.421101 -10.509 36.692402
53.355701 -10.4388 36.606098
53.698601 -10.5544 36.8834
53.612 -10.697 36.826302
52.237099 -11.2625 36.5541
52.163601 -11.1556 36.441101
52.320702 -11.0963 36.4156
52.083599 -11.3215 36.591301
51.992298 -11.2147 36.443401
52.340401 -11.4394 36.6273
52.1861 -11.4978 36.668499
52.393799 -11.203 36.5233
52.492001 -11.381 36.594299
52.4673 -11.6334 36.7113
52.319199 -11.698 36.768799
52.602901 -11.5755 36.671501
51.935398 -11.3775 36.6306
51.857101 -11.276 36.511299
51.789001 -11.4247 36.669201
51.728699 -11.3191 36.547798
52.0261 -11.5549 36.711201
51.8606 -11.6059 36.7537
52.1446 -11.7628 36.824799
51.951801 -11.8223 36.876598
52.553799 -11.1391 36.505501
52.646702 -11.3172 36.5779
52.721802 -11.0598 36.509899
52.812302 -11.2331 36.584801
52.4846 -11.034 36.398399
52.654999 -10.9588 36.401501
52.752201 -11.5216 36.666
52.923901 -11.4398 36.687599
52.894798 -10.9592 36.537701
52.987499 -11.1218 36.6138
53.0541 -10.8529 36.575802
53.1497 -11.0028 36.6502
52.825401 -10.8637 36.4277
52.979698 -10.7629 36.4673
53.1068 -11.3141 36.7211
53.274899 -11.1732 36.752701
53.182201 -10.7591 36.610199
53.277 -10.8977 36.6796
53.277699 -10.678 36.636902
53.368599 -10.8045 36.701698
53.104401 -10.673 36.5075
53.2005 -10.5956 36.542198
53.404202 -11.0467 36.7733
53.491501 -10.9326 36.784901
53.351501 -10.6001 36.660801
53.438301 -10.71 36.724201
53.279202 -10.5222 36.572201
53.550201 -10.818 36.797401
51.369801 -5.9657001 42.466702
51.739899 -6.7943001 42.8587
51.0783 -6.0743399 42.491901
51.4627 -6.8912401 42.881302
50.9893 -5.1085601 41.929798
50.698601 -5.2267699 41.962601
52.078899 -7.5829701 43.002701
52.345299 -8.3554497 42.879501
51.8353 -7.6663899 43.032001
52.1366 -8.4278803 42.9268
50.060299 -6.65414 41.731899
50.133701 -6.5859199 41.983299
49.994202 -5.96031 41.5942
50.098202 -7.2225599 41.9254
50.217602 -7.2000799 42.253201
50.022301 -6.7094202 41.485401
50.031898 -7.2309799 41.6068
49.984001 -6.0402002 41.437199
49.983601 -6.1101999 41.291401
50.037201 -6.7393699 41.281898
50.0438 -7.2192502 41.367199
50.101398 -6.7453098 41.129398
50.126598 -7.2210698 41.240398
50.002102 -6.1664801 41.1548
50.036999 -6.17732 40.988201
50.069599 -7.7209301 41.957001
49.9683 -8.1671 41.846802
50.083099 -8.3822403 42.215099
49.9953 -7.6352501 41.6157
49.919498 -7.9601102 41.538101
50.2047 -7.7969799 42.3274
50.2267 -6.5151701 42.195801
50.3647 -7.17699 42.522598
50.5466 -7.1436501 42.7076
50.0135 -5.8612099 41.742001
50.349701 -6.4358702 42.3447
50.070202 -5.7385302 41.854801
50.861801 -6.1649899 42.488701
51.226299 -6.96562 42.881599
50.685501 -6.2493901 42.467701
51.003101 -7.0272298 42.862202
50.490299 -5.3393698 41.964298
50.331001 -5.4590402 41.948101
50.3741 -7.8529601 42.6376
50.245201 -8.5468302 42.5401
50.515598 -8.6255198 42.782001
50.603699 -7.8708601 42.855801
51.563599 -7.7336102 43.050499
51.251801 -7.7906199 43.043301
51.408901 -8.5586796 42.996201
51.826401 -8.4945698 42.979
50.019402 -9.2368002 42.279202
49.796799 -9.8523903 41.919102
50.1493 -10.0589 42.139801
49.877201 -8.9524803 41.966599
49.654701 -9.4738798 41.6287
50.330002 -9.3835001 42.525501
49.661201 -10.342 41.4767
49.484501 -9.9190302 41.205299
49.392899 -10.3014 40.617401
50.049198 -10.5906 41.641499
49.603802 -10.7392 40.858398
49.996799 -11.0282 40.959
49.6702 -11.3508 38.5965
49.850498 -11.6709 38.446999
49.933701 -11.7396 39.0107
49.739799 -11.2944 38.248199
49.875599 -11.5512 38.137199
49.534801 -10.9848 38.564701
49.630798 -11.0164 38.252102
49.610298 -11.3037 39.1903
49.435902 -10.8685 39.098202
52.501701 -9.1363897 42.521702
52.305599 -9.2030497 42.5951
52.322102 -9.9788599 42.077599
52.540501 -9.91959 41.982601
51.9678 -9.26583 42.687199
51.9688 -10.0146 42.189602
51.465698 -9.3319998 42.736698
51.431301 -10.0521 42.2673
52.477001 -10.6763 41.3046
52.3419 -11.363 40.486198
52.202099 -10.7212 41.406399
51.994598 -11.3958 40.586601
51.839199 -10.7025 41.504902
51.617699 -11.3295 40.6642
51.3209 -10.6731 41.597198
51.142799 -11.2328 40.761501
50.038502 -11.8325 38.135799
50.174801 -11.8348 37.831001
50.272499 -11.9357 37.8353
50.019501 -11.7007 37.959801
50.119301 -11.7482 37.816601
50.1409 -11.9622 38.2799
52.171001 -11.9175 39.542099
52.013699 -12.2349 38.585499
51.757 -11.9526 39.636101
51.518101 -12.3006 38.523201
49.5881 -11.0807 40.025299
49.943298 -11.4259 40.062599
49.380001 -10.6307 39.849701
50.4245 -11.622 39.971199
50.925301 -11.746 39.834
50.338699 -11.9633 39.046299
50.742699 -12.1002 38.941299
50.557701 -11.1601 40.893799
50.945801 -12.2924 38.076801
50.650002 -12.198 38.209202
50.616001 -12.0985 37.708401
51.121498 -12.2229 38.812401
51.194099 -12.3321 37.843399
50.837101 -12.164 37.583801
51.042999 -12.1929 37.4254
51.359699 -11.8741 39.724098
50.361 -12.0855 38.295601
50.4203 -12.022 37.7953
50.859798 -9.3937101 42.684898
50.754601 -10.0958 42.257999
50.932999 -8.6163597 42.935101
50.661701 -10.6663 41.6651
50.9123 -7.8432698 42.985901
50.768902 -7.0899301 42.812801
50.510399 -6.3428798 42.427799
50.184299 -5.59723 41.917999
50.010601 -7.5615902 41.3904
49.9641 -7.8160701 41.3736
50.095501 -7.5562701 41.304901
50.044601 -7.74891 41.329899
51.9058 -12.2609 37.7756
51.826599 -12.0953 37.217999
51.583599 -12.3035 37.716801
51.5928 -12.1299 37.226601
51.3456 -12.2745 37.4967
51.404202 -12.1284 37.1777
51.197899 -12.1614 37.250099
51.285599 -12.0998 37.124699
49.785702 -11.223 38.0452
49.9044 -11.4292 37.945499
49.8055 -11.1628 37.923
49.920799 -11.3244 37.8242
49.687698 -11.0173 38.075298
49.710701 -11.0116 37.973801
50.033199 -11.3489 37.623901
50.128502 -11.4198 37.5327
50.1381 -11.5334 37.617401
50.0093 -11.2828 37.527199
50.105 -11.338 37.435699
49.922501 -11.248 37.730701
49.897701 -11.2079 37.633301
50.035702 -11.448 37.713902
50.027199 -11.5699 37.820301
50.135799 -11.6585 37.713402
51.321999 -11.5157 36.787701
51.161499 -11.5439 36.837799
51.1166 -11.4294 36.7229
51.362701 -11.7098 36.876801
51.2057 -11.7368 36.9226
51.482601 -11.4877 36.744598
51.525501 -11.6805 36.837101
51.274899 -11.4015 36.6679
51.4333 -11.3694 36.585999
51.398899 -11.9289 36.984001
51.251099 -11.9494 37.016499
51.5672 -11.906 36.960701
51.638699 -11.4596 36.706299
51.692501 -11.6472 36.796299
51.5951 -11.3485 36.578201
51.754902 -11.8706 36.924301
51.002201 -11.5682 36.901402
50.955601 -11.457 36.788601
50.8395 -11.5805 36.990299
50.7924 -11.474 36.876801
51.051201 -11.7585 36.9851
50.888901 -11.7651 37.0756
51.110199 -11.9757 37.084999
50.951199 -11.9855 37.191002
50.673199 -11.5737 37.104599
50.629902 -11.471 36.987999
50.518902 -11.5542 37.222801
50.4827 -11.4536 37.1045
50.716202 -11.75 37.193401
50.552898 -11.7211 37.312901
50.7677 -11.9611 37.318001
50.587101 -11.9166 37.438599
50.392502 -11.5308 37.322201
50.3634 -11.4312 37.207001
50.293301 -11.5035 37.398399
50.269001 -11.4064 37.290298
50.419399 -11.6881 37.408798
50.315201 -11.649 37.4809
50.437801 -11.8672 37.5303
50.322102 -11.8093 37.5938
50.2108 -11.4688 37.462299
50.187801 -11.3773 37.361099
50.2271 -11.5983 37.543701
50.2281 -11.7369 37.645199
53.9632 -9.43435 37.265099
54.153801 -9.1417999 37.671398
53.773701 -9.2685699 37.0938
53.889801 -8.8983898 37.4911
53.828602 -9.6277599 37.0569
53.705799 -9.53444 36.902699
53.225101 -6.8247399 40.507702
53.224098 -7.0271502 40.301998
52.746201 -6.7607999 40.395302
53.452 -6.9696798 40.443802
53.5187 -7.1811399 40.207699
52.944698 -6.5303798 40.5019
54.474998 -8.0123196 39.6264
54.490501 -8.3675804 39.0047
54.1334 -8.0329504 38.848598
54.334202 -7.6979098 40.129398
54.117199 -7.6788902 39.5168
54.0079 -7.3956599 40.028999
51.9674 -6.36835 40.493401
51.448799 -6.54355 40.627102
51.168301 -5.9080601 40.216702
52.1703 -6.8665099 40.478802
51.586399 -7.0380902 40.6301
52.3797 -6.1919899 40.4058
51.6385 -5.73944 40.114601
52.030602 -5.58183 40.101101
51.680302 -10.5885 36.169701
51.750198 -10.8723 36.234299
51.554901 -10.9415 36.2756
51.8937 -10.4965 36.141102
51.9473 -10.7823 36.2052
51.5802 -10.1621 36.1632
51.811401 -10.0777 36.139
51.462299 -10.6635 36.214298
51.3428 -10.2372 36.208
53.037998 -9.9760103 36.2304
53.122799 -10.1105 36.298901
53.000301 -10.2063 36.2397
53.165298 -9.8963099 36.312698
53.243401 -10.0275 36.363201
52.928101 -9.8015804 36.180901
53.0541 -9.6764402 36.295399
52.9202 -10.0563 36.168098
52.859402 -9.9179697 36.122398
51.488201 -9.5657501 36.353802
51.502201 -8.8536501 36.8601
51.8013 -8.83671 36.773899
51.225899 -9.6367197 36.400799
51.165798 -8.9281101 36.933498
51.741402 -9.5041304 36.326302
52.781502 -9.5896397 36.203098
52.5961 -9.4173698 36.2598
52.6912 -8.8452997 36.713001
52.754902 -9.8789902 36.100399
52.605999 -9.8519297 36.094799
52.9006 -9.3354397 36.394901
53.824001 -7.5110102 39.5383
53.816399 -7.8418698 38.783901
53.512299 -7.7139902 38.762001
53.751801 -7.2592802 40.085201
53.5509 -7.4043002 39.612999
52.158199 -7.1988702 39.846199
51.9618 -7.5601802 38.797699
51.344898 -7.6971698 38.969601
52.739498 -7.1466799 39.715199
52.57 -7.6065102 38.4804
51.5187 -7.3600202 40.0159
51.689999 -8.13414 37.714699
51.2062 -8.2336903 37.8442
52.0774 -8.1764803 37.4828
53.7225 -8.2843103 37.9841
53.6138 -8.7707195 37.3232
53.330101 -8.7080498 37.1702
54.035801 -8.4606304 38.118099
53.4118 -8.1742601 37.878601
54.359901 -8.7643499 38.299
54.126598 -7.3958602 40.534801
53.8573 -7.1501498 40.364101
53.5611 -9.20296 36.9193
53.556 -9.5243998 36.738701
53.387501 -9.5550203 36.581299
53.3335 -9.1923504 36.753399
53.065701 -8.0944796 37.747398
52.669498 -8.1487799 37.489101
53.031898 -8.6884098 37.0028
53.148399 -7.58459 38.708698
53.207001 -7.2541599 39.659302
52.634899 -6.0726299 40.394699
52.315399 -5.5166502 40.205399
52.493099 -10.2421 36.089199
52.554298 -10.4943 36.147701
52.355099 -10.5887 36.16
52.661499 -10.1755 36.094799
52.730801 -10.4004 36.1548
52.431499 -9.8712997 36.098099
52.302299 -10.319 36.099098
52.237099 -9.9267998 36.105701
52.387501 -9.3813105 36.2756
52.353401 -8.86765 36.620701
52.179501 -9.4289503 36.2696
52.1651 -9.0271902 36.4935
52.280701 -8.43606 37.073502
52.026798 -8.9078302 36.631199
51.970501 -9.4655704 36.2925
52.0303 -9.9976702 36.120201
52.1012 -10.4045 36.118
52.149799 -10.6855 36.180901
52.800598 -10.1186 36.121799
52.875099 -10.3043 36.188
53.641701 -7.0349202 40.360001
53.1008 -9.2147598 36.586201
53.214298 -9.5996504 36.433201
53.652599 -10.0593 36.8508
53.695702 -9.9072599 36.8815
53.626301 -10.055 36.752701
53.673801 -9.9322596 36.759399
53.753601 -9.7389297 36.957001
53.6745 -9.6957998 36.830502
53.719799 -9.7972202 36.909199
53.665901 -9.7837 36.811401
53.704498 -9.8296604 36.881199
53.669201 -9.8437595 36.8022
53.299301 -9.8339396 36.4156
53.357899 -9.9610701 36.438599
53.4342 -9.7776804 36.539501
53.469299 -9.8975096 36.5415
53.5639 -9.7220201 36.682598
53.5769 -9.8298903 36.675701
52.603199 -10.6735 36.164001
52.393101 -10.783 36.176601
52.641602 -10.807 36.127399
52.419701 -10.9295 36.137402
52.788799 -10.5613 36.173801
52.8367 -10.6793 36.142799
52.178101 -10.8888 36.1982
51.9739 -10.9862 36.223301
52.193298 -11.041 36.157902
51.983898 -11.1361 36.1833
51.7873 -11.0691 36.252701
51.610901 -11.13 36.290901
51.801899 -11.2107 36.213001
51.6376 -11.2648 36.249599
52.939701 -10.446 36.213402
52.994701 -10.5496 36.190498
53.069 -10.3283 36.2701
53.130501 -10.4178 36.254002
53.192902 -10.2132 36.327599
53.260799 -10.288 36.313301
53.309799 -10.1139 36.381901
53.381001 -10.1752 36.3652
53.414501 -10.037 36.4426
53.481899 -10.0889 36.421299
53.510899 -9.96766 36.534698
53.567799 -10.0169 36.505798
53.600101 -9.8965998 36.667599
53.639198 -9.9515495 36.627701
49.4561 -10.6811 38.415298
49.557999 -10.809 38.146801
49.4417 -10.4668 38.1992
49.536098 -10.6878 37.966801
49.3526 -10.4699 38.896599
49.3526 -10.1534 38.648899
50.196098 -7.66259 41.280701
50.2617 -7.2725201 41.1866
50.474998 -7.38902 40.974899
50.0672 -7.9059701 41.307598
50.202999 -7.8628001 41.073002
50.013901 -8.1506004 41.1021
49.437801 -9.4056501 40.9118
49.4963 -8.9570503 40.695999
49.356899 -9.3541698 40.067501
49.616199 -9.0029402 41.333401
49.6702 -8.5955 41.135899
49.3204 -9.7976704 40.3241
50.9142 -6.6596599 40.7621
50.687401 -6.0025401 40.3573
50.479599 -6.7175798 40.890701
50.3102 -6.0576901 40.5401
50.996498 -7.1911998 40.7784
51.2421 -10.7097 36.281601
51.107899 -10.2928 36.283699
51.0243 -10.737 36.362999
50.882301 -10.3347 36.376099
51.355999 -10.9813 36.3349
51.1511 -11.0025 36.408298
49.951599 -10.8297 37.018002
50.0513 -10.8499 36.900299
50.095699 -11.0097 36.980999
49.927601 -10.6315 36.946602
50.009499 -10.7063 36.849701
49.854099 -10.8122 37.1577
49.823399 -10.5701 37.1199
49.9837 -10.9788 37.099998
49.881599 -10.9574 37.2211
50.973301 -9.7081699 36.485199
50.7407 -9.78092 36.581699
50.572399 -9.1766195 37.087502
50.844002 -9.0357199 37.028
49.945 -10.3742 36.926899
49.8181 -10.1881 37.181499
49.880199 -9.6228199 37.430302
50.059399 -10.6246 36.7882
50.026299 -10.1282 36.9156
50.155701 -10.5297 36.7201
49.645 -8.6669703 40.604801
49.832001 -8.4329901 40.562
49.630699 -8.7876797 39.752602
49.821899 -8.3463202 41.0881
49.473801 -9.0430899 39.892101
50.8839 -7.5513601 40.171398
50.3629 -7.80407 40.321701
50.7379 -7.8987498 39.1101
50.161201 -8.27279 39.0951
50.736198 -8.3979702 37.958099
50.361801 -8.6510496 37.9207
49.401299 -9.4795904 39.086899
49.534401 -9.2467804 38.868099
49.537701 -9.7570601 38.138
49.311001 -9.76756 39.323799
49.423199 -9.9298801 38.392601
49.2953 -10.1653 39.5914
49.807201 -8.5906696 41.6371
49.814301 -8.2684498 41.395901
49.491699 -10.3286 37.957802
49.5835 -10.2296 37.7104
49.6418 -10.5911 37.537201
49.570599 -10.6268 37.755699
49.6973 -9.0262299 38.606998
49.817799 -8.5058899 39.558701
49.677601 -9.6162596 37.858799
49.905998 -8.9131804 38.194302
50.038502 -8.1306 40.4678
50.224899 -6.7392602 41.009701
50.111099 -6.12637 40.767899
50.427101 -10.8136 36.616402
50.612301 -10.7865 36.530399
50.730499 -11.0381 36.5746
50.297798 -10.4615 36.642601
50.4743 -10.4144 36.555599
50.270802 -10.8368 36.704899
50.529499 -11.0544 36.664398
50.3545 -11.0577 36.7612
50.172699 -9.9939404 36.840801
50.349602 -9.9351196 36.736599
50.103802 -9.4898996 37.194801
50.2658 -9.5525599 36.978199
50.151699 -9.0249701 37.616798
50.373501 -9.36514 37.053101
50.534698 -9.86273 36.658901
50.670601 -10.3738 36.467201
50.813301 -10.7607 36.446602
50.941101 -11.0198 36.4893
50.1507 -10.8516 36.7981
50.214298 -11.0403 36.867001
49.918701 -8.0647202 41.310001
49.694599 -10.157 37.455502
49.727402 -10.5642 37.323002
49.807201 -11.1229 37.832199
49.781101 -11.1186 37.734001
49.714901 -11.0084 37.8974
49.6889 -11.0345 37.776299
49.6236 -10.8813 38.011002
49.655899 -10.9213 37.946301
49.605598 -10.8213 37.8689
49.646099 -10.8956 37.8372
49.670601 -10.9455 37.910599
49.668598 -10.9504 37.823101
49.7691 -10.8104 37.316399
49.695801 -10.8117 37.4935
49.797001 -10.946 37.347301
49.728401 -10.9323 37.496101
49.6353 -10.8087 37.685101
49.674702 -10.9093 37.671501
50.5868 -11.2312 36.6786
50.397301 -11.2228 36.7841
50.6063 -11.37 36.646801
50.404598 -11.352 36.7635
50.803501 -11.2226 36.582199
50.837002 -11.3673 36.541302
51.0261 -11.2075 36.492199
51.0704 -11.3516 36.4445
51.238098 -11.1898 36.411098
51.285301 -11.3294 36.361599
51.431702 -11.1675 36.343399
51.4716 -11.3021 36.297298
50.245701 -11.1912 36.900799
50.116798 -11.1449 37.023499
50.244301 -11.3103 36.892399
50.1068 -11.2542 37.0256
49.993599 -11.0982 37.1441
49.881802 -11.0621 37.256699
49.972301 -11.1976 37.1525
49.850601 -11.1517 37.266201
49.792999 -11.0387 37.366798
49.7281 -11.014 37.500099
49.7579 -11.119 37.3717
49.696201 -11.0878 37.493801
49.686001 -10.9793 37.6665
49.665401 -11.0507 37.6418
60.2061 -6.4676099 45.164902
60.291901 -6.4502802 45.3274
60.305801 -6.3479199 45.159
60.216499 -6.6336198 45.2994
60.320099 -6.63627 45.498501
60.143799 -6.4765201 45.009899
60.129101 -6.6216402 45.095299
60.220901 -6.37115 45.0289
60.168701 -6.3908401 44.9496
60.396599 -6.4176798 45.4884
60.515301 -6.3735399 45.638401
60.5368 -6.2593899 45.480999
60.429001 -6.6100998 45.659698
60.535702 -6.5599999 45.779701
60.4114 -6.3059001 45.313801
61.4165 -8.5012903 46.225201
61.552502 -8.56779 46.295601
61.573502 -8.3395796 46.416199
61.430698 -8.6494198 46.092201
61.572899 -8.7173405 46.164398
61.323299 -8.39013 46.111099
61.346802 -8.54317 46.034302
61.451801 -8.2799397 46.366001
61.342899 -8.1504202 46.273602
61.4902 -6.5682998 46.367001
61.5872 -6.6778202 46.455002
61.647301 -6.6825099 46.393299
61.438499 -6.5806899 46.4776
61.532902 -6.68507 46.5555
61.386501 -6.4706101 46.259899
61.336399 -6.4888501 46.365898
61.542702 -6.5658498 46.285702
61.435101 -6.46105 46.168598
61.378201 -6.65587 46.581501
61.4856 -6.7578301 46.670101
61.288502 -6.7830601 46.6031
61.422199 -6.9274902 46.748001
61.2724 -6.5671401 46.445499
61.1842 -6.6939201 46.4454
61.991402 -6.9492502 46.901699
62.082802 -7.1484599 47.017799
62.153801 -7.1328402 47.191898
61.964802 -6.9730802 46.794701
62.040001 -7.14712 46.896099
61.916199 -6.7597699 46.767799
61.894699 -6.8147998 46.675098
62.050999 -6.90765 47.068298
61.966999 -6.6890998 46.921001
62.186901 -7.3382101 47.103901
62.276901 -7.3456802 47.2799
62.285 -7.5200701 47.1553
62.3941 -7.5438199 47.3354
62.116299 -7.3178 46.968399
62.187302 -7.48667 47.007401
61.4991 -8.1458597 46.461601
61.459499 -8.05093 46.466
61.589401 -8.1496696 46.492901
61.5812 -8.0050297 46.535099
61.676899 -8.5672503 46.300999
61.716301 -8.7143297 46.208698
61.833801 -8.6991501 46.238499
61.6758 -8.3434095 46.386799
61.784 -8.5475998 46.2808
61.768902 -8.3322201 46.330299
61.681599 -8.1349096 46.452702
61.683701 -7.9641299 46.505199
61.7691 -8.1177702 46.386101
61.775501 -7.934 46.445599
61.684101 -7.8154202 46.560699
61.564999 -7.87006 46.584599
61.680801 -7.6645002 46.6278
61.5499 -7.7183599 46.659401
61.784199 -7.7827001 46.506901
61.7897 -7.6434498 46.5686
62.019199 -8.1982803 46.5215
62.028599 -8.4330597 46.477699
62.080502 -8.4890003 46.624599
61.962299 -8.15732 46.4226
61.9655 -8.3807802 46.375999
62 -7.9966898 46.566002
61.952499 -7.96135 46.478001
62.059299 -8.2391701 46.666401
62.030102 -8.0283298 46.697399
62.0275 -8.6645002 46.437401
62.0177 -8.8031702 46.383999
62.090599 -8.8815804 46.4921
61.965698 -8.5954199 46.3452
61.968498 -8.7270298 46.329102
62.0886 -8.7403297 46.572102
62.470001 -8.7380199 46.9175
62.604099 -8.5888901 47.127499
62.598701 -8.6223803 47.205002
62.516102 -8.6535301 46.819599
62.641998 -8.5371103 47.052101
62.325001 -8.8371296 46.703701
62.374699 -8.7187099 46.590401
62.458801 -8.7853899 47.025799
62.307899 -8.9014997 46.8321
63.021301 -8.4981499 47.3811
63.004601 -8.5769396 47.4888
63.038601 -8.2941599 47.696602
62.9361 -8.7130604 47.1367
62.9235 -8.8124104 47.235901
62.961498 -8.4204197 47.2939
62.8755 -8.6121302 47.0602
63.059898 -8.2346001 47.5812
63.003799 -8.1800098 47.480999
62.835701 -8.3674202 47.251099
62.752201 -8.5430298 47.026901
62.725899 -8.3673401 47.261799
62.879902 -8.1444397 47.424599
62.7691 -8.1352701 47.448601
62.694599 -8.4214001 47.309898
62.692299 -8.4681902 47.353199
62.747101 -8.2676802 47.456001
62.742699 -8.3391304 47.466202
62.8927 -7.90587 47.5247
63.009102 -7.91886 47.6026
62.973202 -7.6412201 47.652599
62.783798 -7.8873701 47.523102
62.862701 -7.6542001 47.552299
62.7486 -7.65552 47.535099
63.057999 -7.9465299 47.718498
63.014999 -7.6395001 47.784698
63.030899 -7.9843001 47.841301
62.981899 -7.65342 47.914902
62.736599 -7.8452201 47.5896
62.696999 -7.79599 47.623199
62.739201 -7.9610801 47.607101
62.680801 -7.6287498 47.601002
62.620201 -7.5910001 47.631599
62.7607 -8.0229597 47.568401
62.456699 -8.0088196 47.1954
62.495998 -8.1405201 47.223099
62.597301 -8.14538 47.3936
62.341301 -7.97965 47.042198
62.3876 -8.1304903 47.0868
62.4146 -7.8648901 47.184399
62.2976 -7.8250799 47.023399
62.568802 -8.02563 47.389702
62.532501 -7.8901601 47.383701
62.927299 -7.3123202 47.7784
62.889999 -7.3413501 47.634102
62.791698 -6.9658298 47.701099
62.760201 -7.0176501 47.556
62.8885 -7.3029699 47.914799
62.747501 -6.93854 47.837502
62.7803 -7.3776598 47.520599
62.660198 -7.39364 47.501598
62.6553 -7.0749798 47.444
62.537701 -7.10531 47.431801
62.1595 -6.8494101 47.294102
62.062901 -6.6082101 47.132599
62.268902 -6.8098602 47.443298
62.1591 -6.55269 47.2798
62.266701 -7.1006098 47.416302
62.3792 -7.0819302 47.556702
61.9547 -6.3949599 46.9505
61.885799 -6.4959302 46.765099
61.827499 -6.21699 46.765999
61.791199 -6.3299198 46.606701
62.027802 -6.3277302 47.083698
61.876999 -6.1427798 46.8815
61.848301 -6.5964599 46.627701
61.8265 -6.6841602 46.5466
61.769001 -6.4503102 46.4832
61.744999 -6.5598402 46.410801
60.643002 -6.3338299 45.776501
