# .PCD v.7 - Point Cloud Data file format
VERSION .7
FIELDS x y z
SIZE 4 4 4
TYPE F F F
COUNT 1 1 1
WIDTH 1826
HEIGHT 1
VIEWPOINT 0 0 0 1 0 0 0
POINTS 1826
DATA ascii
0.43256801 16.1178 106.853
0.64197099 16.241199 106.633
0.92939502 16.0348 106.934
0.102917 16.337999 106.496
0.72061503 15.9252 107.168
-0.16643301 16.466101 106.191
0.74789101 16.301001 105.333
1.03768 16.1595 105.623
1.38068 15.9565 105.987
1.13729 16.177999 106.19
1.6813999 15.7918 106.291
1.4323699 15.9868 106.479
0.881338 16.2652 106.408
1.1732399 16.0597 106.698
0.71300697 14.1721 106.464
0.99293298 14.0141 106.845
-0.20550799 17.9473 105.645
-0.17280801 17.892799 105.665
-0.33468899 17.879999 105.799
-0.072304003 17.970501 105.499
-0.038468 17.9151 105.516
-0.364894 17.934799 105.781
-1.44942 18.0835 105.492
-1.43554 17.857401 105.496
-1.3974 17.917101 105.051
-1.30068 18.025801 105.836
-1.28886 17.869801 105.846
-1.3873301 18.164 105.074
-1.10499 18.209999 104.712
-1.12831 17.9583 104.678
-0.71575499 17.9617 104.48
-0.69336402 18.207899 104.514
-0.28319499 18.1646 104.529
-0.28211701 17.948099 104.512
0.017615 17.990601 104.688
0.010165 18.158701 104.711
-1.05144 17.994699 105.978
-1.03045 17.9067 106.004
-0.77572298 17.9517 105.972
-0.75985903 17.889 105.989
-0.54696202 17.934299 105.895
-0.52477801 17.8778 105.91
0.024773 18.004499 105.344
0.062746003 17.9473 105.351
0.090203002 18.0501 105.158
0.130034 17.9881 105.156
0.108309 18.108601 104.933
0.145817 18.0275 104.933
-0.708529 16.306801 106.029
-0.37980801 16.453501 105.911
-0.1182 16.516899 105.755
0.118426 16.5369 105.57
0.31281999 16.493401 105.35
-1.06156 16.105 104.562
-1.3087 16.152901 104.982
-0.69525701 16.1665 104.307
-1.35533 16.2535 105.456
-1.22597 16.3155 105.834
-0.31553799 16.258101 104.256
0.0096380003 16.3053 104.352
-0.97864598 16.297701 106.037
-0.33949101 16.5257 105.946
-0.093557 16.570499 105.784
-0.323746 16.7617 105.976
-0.072481997 16.7729 105.841
-0.60756302 16.4785 106.078
-0.622145 16.7717 106.063
-0.29744101 17.7612 104.481
0.015453 17.8137 104.653
-0.31613001 17.5012 104.436
0.0034709999 17.5539 104.592
-0.71774101 17.7262 104.467
-0.72088301 17.448999 104.444
-1.42795 17.664301 105.503
-1.38782 17.6751 105.053
-1.42585 17.4139 105.495
-1.37147 17.389299 105.049
-1.2857701 17.7006 105.851
-1.28273 17.459801 105.851
-1.02165 17.746901 106.009
-1.00846 17.503099 106.015
-0.72788203 17.7918 106.015
-0.69877899 17.538799 106.023
0.125947 17.870001 105.36
0.204143 17.6469 105.331
0.112546 17.6399 105.542
0.19024201 17.9006 105.156
0.233918 17.6355 105.086
0.020835999 17.838301 105.536
-0.48447901 17.797199 105.935
-0.43036401 17.57 105.955
-0.28646401 17.801901 105.824
-0.212584 17.598 105.849
0.16868 17.865299 104.901
0.181153 17.6019 104.827
-1.12954 17.711901 104.667
-1.11067 17.4048 104.662
-0.118385 17.815599 105.69
-0.030344 17.622101 105.713
-0.945898 16.513201 106.054
-0.959351 16.792999 106.047
-1.2306499 16.5147 105.853
-1.24906 16.782301 105.853
-1.07409 16.363199 104.568
-1.3164999 16.379299 104.982
-1.08728 16.658701 104.593
-1.33505 16.6565 104.99
-0.70860302 16.4275 104.333
-0.72228903 16.709801 104.362
-1.37113 16.4473 105.458
-1.39139 16.717501 105.461
0.13462 16.589899 105.607
0.32432899 16.5543 105.399
0.142518 16.7934 105.674
0.29469401 16.802601 105.451
-0.32462299 16.489901 104.289
-0.33825901 16.7652 104.322
0.0035570001 16.5103 104.382
-0.014226 16.7943 104.423
-1.10255 17.034599 104.628
-1.3563499 17.0264 105.019
-0.72668803 17.0821 104.403
-1.4125 17.069799 105.477
-1.26964 17.126301 105.851
-0.98531699 17.1542 106.03
-0.65866399 17.161501 106.041
-0.372996 17.1714 105.965
-0.137291 17.190201 105.845
-0.333819 17.1364 104.377
-0.01252 17.1786 104.502
0.061705001 17.2125 105.695
0.20792399 17.226999 105.498
0.28008199 17.226299 105.241
0.275029 17.2164 104.962
0.322276 16.7826 104.851
0.35416499 16.791901 105.157
0.18705399 17.202801 104.708
0.20487601 16.791201 104.602
0.419429 16.2153 104.761
0.43951499 16.366899 105.095
0.239778 16.490999 104.557
0.37858999 16.473301 104.808
0.243031 16.2759 104.509
0.41800001 16.4923 105.124
0.083469003 18.0949 105.401
0.21637601 18.1591 105.526
0.278898 18.2551 105.37
-0.019646 18.0599 105.543
0.108606 18.118099 105.671
0.025622999 18.052401 105.353
-0.071763001 18.017099 105.5
0.150089 18.146099 105.239
0.090563998 18.101601 105.18
0.17116401 18.2377 105.049
0.277504 18.4035 105.187
0.170127 18.5889 105.013
0.110541 18.1674 104.965
0.087338001 18.413401 104.871
0.02465 18.265699 104.758
-0.153267 18.603201 104.756
-0.069633 18.776501 104.911
-0.43963999 18.9163 104.92
-0.243881 18.413 104.607
-0.56113899 18.7101 104.731
-0.64278901 18.470501 104.595
-0.98924601 18.1654 106.056
-0.89290798 18.374201 106.189
-0.66282499 18.216101 106.193
-1.19179 18.3622 105.95
-1.07654 18.573601 106.063
-1.04626 18.058201 105.982
-1.27352 18.1936 105.868
-0.74879402 18.058399 106.04
-0.776371 18.005899 105.979
-0.52516598 18.029301 105.961
-0.43132201 18.117901 106.113
-0.219981 18.0849 105.982
-0.55176997 17.982599 105.902
-0.332647 18.0243 105.838
-0.37064099 17.9807 105.785
-0.161805 18.0361 105.691
-0.038075 18.0954 105.827
-0.20833901 17.9932 105.644
-0.97095698 18.7309 104.916
-1.05449 18.4771 104.79
-1.25474 18.683599 105.258
-1.34444 18.428301 105.141
-0.83915901 18.9568 105.094
-1.10682 18.913 105.422
-1.31216 18.566401 105.655
-1.415 18.333799 105.543
-1.15473 18.775499 105.804
-0.45603299 19.3211 105.533
-0.533126 19.257299 105.448
-0.233501 19.229099 105.292
-0.62102199 19.3263 105.726
-0.75302398 19.2416 105.7
-0.41543701 19.333 105.572
-0.53136402 19.3512 105.715
-0.226394 19.315001 105.419
-0.24772 19.3445 105.495
0.032841999 19.3109 105.402
0.28102499 19.3407 105.477
0.186143 19.4601 105.552
0.075787 19.1614 105.266
0.39327899 19.082001 105.405
-0.036159001 19.3883 105.491
-0.27921101 19.4182 105.719
-0.36919001 19.433399 105.881
-0.43656099 19.355101 105.773
-0.167114 19.562 105.863
-0.25746101 19.5744 106.04
-0.114825 19.429399 105.65
0.0022239999 19.562201 105.78
-0.34564999 19.339399 105.636
-0.195389 19.3563 105.574
0.092060998 19.471901 105.665
0.218752 19.5805 105.781
0.25760499 19.5298 105.703
0.397762 19.6152 105.813
-0.0063260002 19.411301 105.588
0.139991 19.471399 105.63
-0.689331 19.3388 105.974
-0.829512 19.1975 105.998
-0.63807398 19.389601 106.236
-0.72296202 19.1562 106.343
-0.58979499 19.395 105.914
-0.56106699 19.466299 106.147
-0.52649599 19.389799 105.895
-0.50313503 19.4618 106.109
-0.47168699 19.394199 105.954
-0.46673399 19.441401 106.106
-0.479534 19.342699 105.721
-0.38515499 19.3234 105.596
-0.241559 19.341801 105.535
-0.052827999 19.4018 105.543
0.148139 19.4851 105.605
-0.176632 19.6684 106.707
-0.31321999 19.598301 106.62
-0.28934801 19.648199 106.562
-0.162176 19.5777 106.781
-0.30939999 19.4907 106.71
-0.052797001 19.719801 106.739
-0.020926001 19.635799 106.809
-0.171609 19.7131 106.651
-0.070317999 19.7677 106.673
-0.48616901 19.4921 106.461
-0.491918 19.351999 106.581
-0.439448 19.559401 106.382
0.448089 18.796301 106.491
0.25042 18.810801 106.641
0.304905 18.967199 106.721
0.34420401 18.5916 106.327
0.14291599 18.602501 106.486
0.59300703 18.815599 106.318
0.48943999 18.6094 106.15
0.49090099 18.951401 106.585
0.634404 18.972601 106.424
0.51598197 19.097099 106.655
0.346239 19.111601 106.775
0.38358101 19.250401 106.813
0.65443403 19.114401 106.507
0.53653902 19.2425 106.708
0.66688001 19.250401 106.575
0.161862 19.181999 106.853
0.089583002 19.0443 106.811
-0.109223 19.1772 106.837
0.233753 19.3015 106.877
-6.0000002e-06 19.3027 106.877
0.113675 19.4002 106.894
0.75545502 19.146099 106.348
0.73564202 19.010599 106.252
0.81432402 19.2146 106.192
0.78766799 19.0844 106.077
0.75913501 19.2687 106.437
0.81117803 19.3302 106.313
0.68937099 18.8517 106.138
0.58390999 18.6448 105.973
0.72791499 18.924999 105.95
0.61694801 18.7202 105.783
0.827034 19.3374 106.058
0.78338897 19.2129 105.915
0.78867197 19.487 105.967
0.72225797 19.3762 105.806
0.82589197 19.4468 106.21
0.79743898 19.5835 106.133
0.69736999 19.058599 105.76
0.57072902 18.860001 105.577
0.60372299 19.241199 105.633
-0.013044 19.7381 106.058
-0.109379 19.7404 106.223
0.132186 19.879601 106.242
0.024215 19.8699 106.382
0.146273 19.723499 105.952
0.276544 19.857201 106.117
0.34313199 19.705601 105.922
0.43294501 19.8151 106.057
0.505449 19.7019 105.932
0.555188 19.785999 106.05
-0.14962 19.732 106.402
-0.27794799 19.594299 106.266
-0.15909199 19.7246 106.54
-0.26888901 19.621 106.45
-0.040699001 19.8372 106.49
-0.069137 19.805401 106.563
-0.391473 19.466299 106.096
-0.387216 19.5112 106.27
0.480434 19.427099 105.618
0.38277799 19.5476 105.664
0.62280601 19.5319 105.778
0.53631902 19.630301 105.799
0.70984399 19.619101 105.932
0.63534898 19.6975 105.933
0.73019803 19.698601 106.088
0.66278201 19.7647 106.066
0.0086989999 18.882401 106.741
-0.108782 18.6637 106.596
-0.36733401 18.780399 106.626
-0.227659 19.0107 106.764
-0.405509 19.177601 106.7
-0.58229798 18.945 106.554
-0.24616399 19.3389 106.794
-0.108274 19.4468 106.846
0.031587001 19.5221 106.867
-0.40068001 19.5534 106.343
-0.26948601 19.647499 106.53
0.33216399 19.570601 105.704
0.48413199 19.647301 105.821
0.58646399 19.712601 105.939
0.618294 19.781401 106.057
-0.16354901 19.724199 106.611
-0.076054998 19.788099 106.619
-0.75291997 18.6534 106.369
-0.92386401 18.8363 106.203
-0.52452999 18.490801 106.414
-0.27202201 18.382799 106.361
-0.033672001 18.331499 106.238
0.160759 18.325399 106.077
0.30736399 18.347601 105.909
-0.99638599 18.9932 105.927
-0.91137397 19.0987 105.604
0.40783399 18.3915 105.746
0.45204601 18.4776 105.571
-0.66094899 19.1346 105.304
-0.308337 19.087999 105.123
0.41993499 18.6241 105.373
0.28069299 18.8046 105.192
0.02557 18.9704 105.089
0.29057401 19.382099 106.881
0.40372401 19.3797 106.831
0.244672 19.467501 106.882
0.39588001 19.503401 106.829
0.021524999 19.886101 106.53
0.097172998 19.919399 106.477
0.12501501 19.916599 106.523
0.015961999 19.867701 106.565
0.095592998 19.775801 106.733
0.144998 19.689699 106.802
0.262573 19.8276 106.679
0.32531101 19.7355 106.751
0.051972002 19.828699 106.663
0.19831599 19.8859 106.609
0.193478 19.5814 106.856
0.36911699 19.624001 106.803
0.023654001 19.851101 106.607
0.15165401 19.907499 106.559
0.74890298 19.3582 106.502
0.67508698 19.376301 106.609
0.681961 19.495501 106.597
0.77005601 19.4305 106.45
0.77530402 19.5464 106.382
0.74443501 19.6726 106.314
0.67630398 19.6168 106.555
0.638987 19.736601 106.492
0.465473 19.877701 106.146
0.36440399 19.9188 106.228
0.526025 19.867399 106.161
0.418778 19.927401 106.282
0.67788899 19.778799 106.252
0.610901 19.842199 106.206
0.56868899 19.8384 106.418
0.498243 19.903 106.354
0.569628 19.861601 106.179
0.45449999 19.924601 106.313
0.53627199 19.6404 106.701
0.495269 19.756201 106.645
0.55028403 19.514999 106.731
0.54900098 19.3825 106.734
0.22282299 19.938101 106.359
0.26892099 19.943001 106.416
0.42532399 19.854099 106.569
0.35318699 19.916901 106.499
0.303626 19.9389 106.452
1.7407399 16.847099 103.791
1.5483 16.914 104.092
1.92234 16.818001 103.968
1.74439 16.876801 104.249
1.83959 16.6709 103.475
2.0151501 16.6436 103.667
2.1487999 16.7045 104.171
1.98156 16.7603 104.444
2.4238999 16.476801 104.432
2.2633801 16.545099 104.691
2.2443199 16.523199 103.884
2.5165601 16.2794 104.156
1.40605 14.7972 103.883
1.70526 14.5514 104.158
1.9775701 14.7473 103.917
1.16414 14.8019 104.169
1.45411 14.556 104.463
1.19085 14.9929 103.689
0.95736402 15.0005 103.96
1.68476 14.9822 103.657
1.4657201 15.1659 103.468
1.96077 15.3188 103.493
2.1700499 15.7421 103.466
1.94489 15.8937 103.269
2.2348001 15.1015 103.749
2.42905 15.533 103.725
1.73976 15.4827 103.306
2.6965101 16.236601 104.722
2.78772 16.052099 104.471
3.0601299 15.8941 104.769
2.5441799 16.2925 104.953
2.89884 16.087999 104.97
2.74733 16.130501 105.172
2.56791 14.8135 104.094
2.7215099 15.2645 104.06
2.95139 14.4701 104.486
3.12503 14.9376 104.477
2.3484099 14.4551 104.274
2.8008101 14.0311 104.734
2.7963901 15.7101 104.214
3.0745699 15.53 104.529
2.52369 15.9505 103.887
2.2630799 16.1717 103.62
2.0290301 16.329399 103.404
1.83682 16.400801 103.212
1.75661 16.001301 103.106
1.68252 16.388399 103.042
1.59401 16.066401 102.973
0.72290999 15.4496 103.213
1.00448 15.5853 103.014
0.89844 15.745 102.901
0.86175603 15.2926 103.358
1.13973 15.446 103.15
0.47757599 15.4493 103.478
0.62521702 15.2995 103.628
0.60892701 15.6288 103.09
0.35553199 15.625 103.351
1.02244 15.1503 103.525
1.29592 15.3151 103.309
0.78980201 15.1606 103.793
0.31995299 15.5865 103.774
0.26211599 15.833 104.051
0.390818 15.7456 104.194
0.196817 15.7352 103.641
0.143011 15.9434 103.921
0.469825 15.4688 103.934
1.56103 15.6161 103.151
1.40562 15.7235 103.017
0.52407002 15.8269 102.99
0.82615501 15.9265 102.81
0.26356101 15.8302 103.253
1.10764 16.1049 102.747
1.34407 16.2766 102.79
1.1558 15.9393 102.811
1.32034 16.108101 102.8
0.98804802 14.9874 104.504
0.90998298 15.2766 104.804
1.17365 15.0589 105.121
0.79196203 15.185 104.273
0.71518499 15.4728 104.554
1.26047 14.7505 104.817
1.63764 14.4776 105.217
1.52747 14.8345 105.499
1.94092 14.5746 105.945
1.84773 14.2565 104.854
2.0633299 14.1588 105.629
2.3561001 13.8585 105.297
0.94627303 15.5929 104.986
0.73461699 15.788 104.73
0.83665597 16.120701 104.796
1.2211699 15.3991 105.283
1.07761 15.9264 105.046
1.37464 15.7427 105.318
1.25905 15.8202 102.899
1.4382499 16.091999 102.865
1.53862 16.3461 102.906
1.75402 16.7185 104.694
1.5024 16.8346 104.496
1.50138 16.570499 104.891
1.23771 16.6926 104.675
2.05475 16.500601 104.937
1.82063 16.3405 105.14
1.56327 15.2437 105.606
1.86304 15.1457 105.91
1.71596 15.6281 105.584
2.0258701 15.6252 105.848
1.27091 16.2726 105.013
1.00108 16.4653 104.77
1.58555 16.072599 105.268
1.92234 15.9331 105.502
2.2012501 15.9038 105.685
2.14272 16.143299 105.367
2.3964801 16.040899 105.543
2.3556299 16.2603 105.177
2.5806201 16.1106 105.369
0.101849 15.9309 103.549
0.053732 16.120899 103.841
0.62390798 15.3433 104.092
0.54386699 15.6302 104.357
1.2911201 16.8866 104.342
1.0182199 16.7598 104.511
0.552091 15.9471 104.524
0.63266802 16.2735 104.589
0.393718 16.059 104.364
0.78700399 16.545099 104.584
0.123523 16.3363 104.115
0.169662 16.201099 104.146
0.265661 16.1318 104.239
2.0972199 14.2443 104.529
2.48754 13.9264 104.897
-0.084161997 18.8633 103.886
-0.032699 18.756001 103.936
-0.26403701 18.690001 103.83
0.264182 18.861099 103.892
0.314749 18.8256 103.932
-0.313752 18.8503 103.769
1.01106 18.7994 102.726
1.04908 18.633301 102.745
1.18929 18.729 102.953
0.81471902 18.746201 102.598
0.84848702 18.564501 102.615
1.14535 18.867599 102.929
1.15944 18.944099 103.229
1.21509 18.837799 103.267
1.06275 18.9051 103.594
1.00409 18.9065 103.545
0.67044199 18.8727 103.779
0.72479999 18.891001 103.823
-0.41633299 18.8871 103.573
-0.37844899 18.624001 103.623
-0.41728401 18.6059 103.351
-0.42496401 18.8985 103.335
0.56704003 18.763599 102.486
0.61955798 18.516199 102.522
0.302113 18.802999 102.48
0.33534101 18.5261 102.496
0.018805999 18.8333 102.617
0.040964998 18.5422 102.626
-0.22382 18.8591 102.844
-0.208057 18.555201 102.852
-0.36794701 18.884899 103.09
-0.36176801 18.5797 103.096
1.5654 16.9631 103.596
1.61854 16.857201 103.658
1.41703 16.9307 103.98
1.64747 16.8601 103.273
1.69946 16.6679 103.266
1.54334 17.264601 103.573
1.5821 17.189899 103.234
1.36588 17.0336 103.921
1.35949 17.327499 103.898
0.097768001 18.2164 102.678
0.386473 18.244101 102.536
0.144805 17.8125 102.71
0.44709 17.849001 102.565
-0.15560199 18.2202 102.912
-0.117678 17.8269 102.955
1.27815 18.6723 103.323
1.35919 18.3358 103.401
1.21139 18.4133 103.74
1.2471 18.546801 102.995
1.33781 18.2148 103.063
1.13204 18.750401 103.659
-0.31621301 18.263 103.166
-0.27873901 17.8899 103.229
-0.370855 18.3363 103.432
-0.31952 17.9879 103.521
0.65447497 18.291901 102.541
0.89279002 18.355101 102.639
0.72994697 17.925501 102.57
0.98068798 18.017401 102.675
0.80181801 18.7348 103.886
0.40077901 18.6618 103.998
0.89662802 18.401699 103.971
0.51536298 18.3377 104.092
1.1011 18.437 102.776
1.19511 18.1091 102.828
-0.32611001 18.4238 103.708
-0.24683 18.0993 103.818
-0.183391 18.5093 103.924
-0.075751998 18.198299 104.042
0.058405999 18.585199 104.018
0.179332 18.2715 104.127
0.41069299 16.2717 102.866
0.73600399 16.3494 102.696
0.66974902 16.733601 102.663
0.464057 16.0303 102.917
0.77964503 16.1182 102.742
0.141616 16.312599 103.143
0.197768 16.0513 103.188
0.34459099 16.679501 102.827
0.074533001 16.7181 103.101
1.06714 16.5303 102.686
0.98972201 16.874001 102.654
1.35346 16.686701 102.797
1.2695 17.0256 102.77
1.09083 16.301201 102.707
1.37131 16.471399 102.803
1.45846 17.801001 103.492
1.29895 17.8685 103.829
1.46429 17.7029 103.153
1.0017101 17.865801 104.07
0.64352399 17.825399 104.204
1.0796601 17.332399 104.152
0.74941403 17.309999 104.302
0.85886198 17.395 102.612
0.55665201 17.282 102.613
1.12476 17.5215 102.724
-0.189981 17.3543 103.323
-0.028069001 17.2665 103.027
-0.087200999 16.8202 103.414
-0.22668999 17.48 103.633
-0.125037 16.9636 103.733
0.309407 17.7857 104.243
0.040291 17.725401 104.158
0.41974199 17.290701 104.337
0.14347599 17.2374 104.246
1.33935 17.616899 102.898
1.4806499 17.1227 102.963
-0.14493901 17.616501 103.935
-0.044759002 17.118799 104.029
0.24063499 17.2367 102.767
1.5646 16.785101 102.998
1.58383 16.5611 102.979
0.034575999 16.1621 103.497
0.00076600001 16.3456 103.815
-0.016719 16.4384 103.466
-0.049995001 16.592899 103.791
1.09124 17.0403 104.18
0.78157097 17.003 104.341
1.1468199 16.9247 104.238
0.79426199 16.8139 104.406
0.48720899 16.9501 104.391
0.47537199 16.753799 104.4
0.25602001 16.6616 104.309
0.217097 16.8873 104.291
0.031235 16.756701 104.079
0.083311997 16.519199 104.1
0.46159399 16.3528 104.442
0.59660298 16.583599 104.469
0.41515699 16.5749 104.399
0.256466 16.4911 104.306
0.32809901 16.375299 104.35
0.2432 16.370399 104.288
-0.071782999 18.804199 103.889
0.25427601 18.805901 103.885
-0.229654 18.998699 103.857
0.98533303 18.9561 102.717
0.79739702 19.0453 102.604
1.11645 18.939699 102.917
1.1245 18.904301 103.208
0.96372002 18.8613 103.52
0.64114398 18.826799 103.762
-0.334259 19.1325 103.669
-0.3466 19.196199 103.437
0.580208 19.098101 102.527
0.329721 19.1332 102.537
0.050418001 19.1642 102.678
-0.18402401 19.1938 102.914
-0.30846199 19.211901 103.178
1.12622 18.8276 103.218
1.14762 18.8423 102.946
1.1994801 18.746799 103.288
1.29476 18.959101 103.098
0.95683497 18.799801 103.528
1.00442 18.695101 103.582
0.19621401 19.5177 102.869
-0.035858002 19.5292 103.108
0.44992599 19.768299 103.173
0.214421 19.7644 103.406
0.48828501 19.485201 102.737
0.75395399 19.706499 103.05
0.0057959999 18.863701 103.977
0.27952901 18.7397 103.917
0.128484 18.929701 104.121
0.36940199 18.7236 104.024
-0.133587 19.076401 103.964
0.005504 19.163099 104.125
-0.14223 19.507601 103.393
0.110858 19.689501 103.694
0.062103 19.5448 103.933
-0.16655301 19.423599 103.661
0.76122099 19.4144 102.741
0.99098802 19.2554 102.819
1.17329 19.3993 103.009
1.0132999 19.5716 103.023
0.644862 18.7682 103.78
0.69729 18.669201 103.844
1.1064301 19.055401 102.849
1.2761199 19.1887 103.02
-0.164452 19.2714 103.867
0.0015979999 19.3727 104.065
0.93412399 20.023399 103.806
0.84870201 19.9757 103.674
1.1060899 19.9317 103.524
0.74376202 20.0312 104.013
0.63485199 19.9737 103.891
0.97219402 20.0308 103.88
0.80286503 20.0476 104.078
1.1866601 20.0021 103.674
1.22262 20.0289 103.765
0.66711801 20.020901 104.246
0.52152097 19.9238 104.138
0.70548701 20.0261 104.485
0.52049601 19.8414 104.436
0.76324201 20.067801 104.294
0.82010102 20.1022 104.504
1.43839 19.981001 103.655
1.6646 19.9816 103.744
1.6967 20.087 103.878
1.34721 19.8543 103.469
1.60596 19.750601 103.527
1.47936 20.052099 103.778
0.82596898 20.067499 104.327
0.84182799 20.0404 104.12
0.91676998 20.063 104.19
0.89577901 20.1059 104.518
0.89776802 20.0758 104.388
0.93495297 20.0933 104.525
0.99898499 20.0215 103.927
1.06828 20.0492 104.005
1.24716 20.0235 103.822
1.30563 20.041401 103.902
1.49672 20.0557 103.844
1.53503 20.052299 103.912
1.6979001 20.0958 103.943
1.68205 20.0742 103.966
1.89925 20.1416 105.078
2.0629499 20.118799 104.937
2.0591199 19.947701 104.963
1.87466 20.271999 105.033
2.0381701 20.2442 104.896
1.71434 20.129 105.17
1.68805 20.258101 105.128
1.89496 19.963699 105.099
1.71671 19.963699 105.187
0.33673099 19.8046 103.952
0.47461301 19.878 103.705
0.261049 19.6745 104.166
0.70538801 19.8848 103.48
0.96914297 19.826799 103.32
1.1971999 19.714399 103.248
1.37318 19.551001 103.228
1.84558 19.7456 105.081
1.67045 19.7742 105.173
1.75248 19.5242 105.015
1.56256 19.5868 105.122
2.02035 19.743099 104.948
1.95669 19.539499 104.868
1.55209 19.8036 105.212
1.43566 19.7043 105.182
1.37315 19.8577 105.201
1.54614 19.931 105.221
2.1313901 19.7637 104.827
2.12112 19.6511 104.716
2.17186 19.9055 104.793
2.2118399 19.8225 104.606
1.01213 20.1362 104.507
1.05967 20.1495 104.318
1.22904 20.2628 104.474
1.00951 20.135201 104.644
1.1475101 20.226101 104.652
1.10774 20.201401 104.787
1.2080899 20.145399 104.146
1.37682 20.2673 104.317
1.42204 20.121799 104.046
1.56718 20.230801 104.222
1.6292599 20.096901 104.035
1.75386 20.1744 104.199
1.77597 20.0965 104.061
1.89039 20.140699 104.205
2.06721 19.506901 104.54
1.86515 19.356501 104.724
1.9629101 19.353201 104.313
1.73329 19.181101 104.522
2.1819201 19.712099 104.399
2.0884299 19.582899 104.153
1.6229399 19.3286 104.898
1.40407 19.415899 105.03
1.45713 19.1469 104.728
1.20832 19.249599 104.887
1.25669 19.576099 105.105
1.17945 19.7628 105.131
1.0412199 19.4401 104.979
0.95747799 19.6567 105.009
1.8439699 20.1231 104.059
1.95532 20.148001 104.197
1.85827 20.117001 104.008
1.97776 20.144501 104.163
0.98194897 20.159 104.693
0.91679102 20.157801 104.699
1.0736099 20.2136 104.845
1.03247 20.212799 104.866
1.71454 20.466801 104.689
1.76983 20.4846 104.773
1.60098 20.4748 104.883
1.87257 20.4275 104.597
1.92576 20.440901 104.671
1.63061 20.4231 104.59
1.79812 20.3836 104.503
1.55687 20.461 104.806
1.47787 20.417299 104.72
1.52078 20.360399 104.468
1.6979899 20.3195 104.38
1.37045 20.3531 104.613
1.45488 20.425501 104.889
1.4539 20.413799 104.954
1.32858 20.334999 104.958
1.37625 20.375299 104.855
1.27002 20.3067 104.774
1.21394 20.266199 104.898
1.9707299 20.375601 104.557
2.0225 20.362301 104.594
1.94231 20.3228 104.483
2.0383899 20.2757 104.503
1.8659199 20.251699 104.358
1.98586 20.2005 104.366
0.31548399 19.024099 104.333
0.206487 19.275 104.351
0.451749 19.4046 104.603
0.53880697 18.804001 104.224
0.54992902 19.1492 104.577
0.75412703 18.9233 104.461
1.38788 18.868099 103.489
1.50219 19.1029 103.305
1.6068 19.0173 103.748
1.7317801 19.2654 103.567
1.15246 18.707701 103.749
1.35783 18.837601 103.999
0.84281301 18.6849 104.016
1.04607 18.8043 104.256
1.8066601 19.1852 104.037
1.93538 19.430799 103.864
1.5601701 19.002399 104.27
1.25951 18.965799 104.505
0.98566997 19.0793 104.693
0.79988998 19.293501 104.801
0.71001101 19.535601 104.831
1.7975301 20.4701 104.847
1.95629 20.424801 104.735
1.97699 20.3878 104.793
1.61944 20.4582 104.952
1.81601 20.428801 104.914
1.6335 20.4177 105.014
1.84211 20.3645 104.976
2.0046799 20.3304 104.846
1.65704 20.3526 105.074
2.0575199 20.3424 104.636
2.0802701 20.313499 104.67
2.0843599 20.2549 104.521
2.10934 20.236 104.527
2.1113801 20.2642 104.699
2.1442599 20.1905 104.529
2.18978 20.107201 104.534
2.1494999 20.1833 104.727
1.455 20.393299 105.014
1.3109601 20.315701 105.016
1.46175 20.359699 105.064
1.30656 20.293699 105.055
1.47823 20.300699 105.118
1.50275 20.2083 105.171
1.32271 20.1437 105.158
1.31109 20.239 105.105
2.04228 20.188801 104.364
2.0673001 20.1798 104.347
1.18303 20.2598 104.957
1.16339 20.250601 104.988
2.17786 20.063601 104.756
2.22492 19.984699 104.552
1.48701 19.3416 103.232
1.71705 19.5037 103.493
1.85434 20.0193 103.911
2.0003099 20.0744 104.116
1.8753 19.8498 103.817
2.0451601 19.9464 104.079
1.93136 19.654699 103.79
2.0968101 19.7848 104.08
2.19696 19.893 104.331
2.1526999 20.030001 104.319
2.10182 20.1285 104.33
1.5282201 20.082001 105.207
1.34238 20.0131 105.192
1.14727 19.9366 105.124
1.1411099 20.0818 105.088
0.93311 19.8505 104.996
0.948587 20.0133 104.954
0.20536 19.497 104.299
0.44629699 19.628401 104.558
0.69607598 19.748199 104.802
0.74262702 19.928499 104.751
0.82832003 20.077299 104.714
0.98712099 20.143101 104.903
1.14888 20.1917 105.034
4.91711 15.08 103.345
4.7671399 14.7775 103.401
5.1863599 14.5567 103.991
4.5340199 15.2319 102.815
4.3807201 14.9183 102.868
4.95297 15.3714 103.37
4.5777402 15.5324 102.86
5.3118 14.8905 103.86
5.41781 15.2223 103.9
3.8515301 14.4568 103.994
3.4867599 14.5932 103.552
3.2858801 14.8443 103.832
4.18648 14.3797 103.763
3.7665901 14.5154 103.259
4.2408099 14.3025 104.453
4.7052302 14.2058 104.321
3.5538199 14.72 104.185
3.82619 14.5825 104.609
4.2768402 15.9229 102.596
4.1870198 16.1735 102.771
3.96911 16.2211 102.487
4.5563202 15.8026 102.982
4.4626698 16.0569 103.143
4.2902198 15.6471 102.481
4.0752501 15.982 102.329
4.0991101 15.7131 102.242
4.2370701 15.3314 102.443
4.0776701 15.0106 102.496
4.0392599 15.3933 102.219
3.87484 15.0737 102.273
3.7957201 14.7519 102.65
4.0974498 14.6467 103.019
3.474 14.6382 102.9
3.6052999 14.8348 102.422
3.29268 14.7413 102.665
3.2114799 14.7191 103.219
3.0385499 14.9601 103.538
3.01668 14.8236 102.976
2.8273599 15.0557 103.295
3.9456501 16.0049 102.161
3.9788699 15.7467 102.095
3.8594201 15.9902 102.027
3.8877399 15.7497 101.986
3.8271 16.2358 102.301
3.4528699 14.8966 102.227
3.1383801 14.8153 102.455
3.3232901 14.9662 102.066
3.00089 14.8929 102.277
3.7329299 15.1207 102.109
3.60711 15.1703 101.962
3.20397 15.051 101.935
2.8803699 14.9868 102.137
3.09957 15.151 101.83
2.7790999 15.0972 102.028
3.4870601 15.2347 101.841
3.3799601 15.3192 101.741
2.5838301 15.0641 102.432
2.7042301 14.9694 102.572
2.39869 15.2482 102.756
2.51125 15.1753 102.899
2.48879 15.1768 102.329
2.3129599 15.3484 102.659
3.6854801 15.4813 101.834
3.80707 15.4564 101.956
3.5783501 15.5407 101.734
3.7799699 15.7259 101.863
3.68136 15.7123 101.765
3.9135301 15.4338 102.076
3.0095899 15.2736 101.743
2.69315 15.2298 101.94
3.29129 15.4328 101.655
3.50172 15.6568 101.656
3.6516099 15.8502 101.734
3.77265 15.9346 101.874
4.8936701 15.6303 103.448
4.7567601 15.8768 103.544
5.2372999 15.5282 103.853
5.0468898 15.7691 103.902
2.9538801 15.2998 103.778
3.16698 15.1975 104.028
2.9597199 15.7003 103.872
3.15358 15.613 104.094
2.7457199 15.3884 103.545
2.7648101 15.7796 103.65
3.35375 15.1061 104.298
3.4680099 15.0886 104.567
3.31322 15.556 104.303
3.3922999 15.5486 104.511
3.6805501 16.4186 102.569
3.7839799 16.450399 102.71
3.5727601 16.5758 102.985
3.4804001 16.548 102.866
4.00666 16.407801 102.982
3.7594399 16.5714 103.204
4.2817302 16.2985 103.311
4.0304999 16.4746 103.483
4.55685 16.127399 103.629
4.3051 16.333799 103.726
4.7512102 16.005899 103.87
4.4998102 16.224501 103.908
3.0571101 16.111099 103.803
3.2618699 16.038601 104.022
3.2402101 16.436001 103.627
3.47298 16.368299 103.858
2.86831 16.1738 103.581
3.0637 16.4603 103.415
3.4552701 15.9969 104.201
3.58866 16.0033 104.329
3.71613 16.312099 104.035
3.8916399 16.2812 104.16
4.0159001 16.418301 103.866
3.7455201 16.5144 103.668
4.21069 16.3452 104.011
3.48808 16.593399 103.42
3.3248701 16.5842 103.226
2.4067199 15.3106 102.239
2.23101 15.4807 102.576
2.8571501 14.8977 102.769
2.65341 15.1239 103.084
3.23001 16.5539 103.112
2.9572799 16.4193 103.29
2.5674701 15.4449 103.33
2.5950999 15.8181 103.444
2.4388299 15.4757 103.154
2.71257 16.1821 103.397
2.21716 15.6819 102.883
2.28459 15.5497 102.93
2.35884 15.4983 103.03
4.5082302 14.5128 103.548
4.9070702 14.3623 104.05
1.75691 18.116501 102.545
1.78538 18.015301 102.557
1.5578901 17.952499 102.472
2.02285 18.178301 102.5
2.05091 18.087799 102.513
1.5173 18.067699 102.452
2.6266601 18.326 101.874
2.4904201 18.2985 102.127
2.64696 18.2355 101.864
2.5137701 18.2146 102.128
2.66166 18.333401 101.63
2.6866901 18.2332 101.619
2.59288 18.33 101.427
2.63626 18.1873 101.426
2.4402201 18.3393 101.264
2.51806 18.087099 101.272
2.27877 18.2449 102.349
2.3057101 18.1611 102.359
1.32781 18.0604 102.215
1.25271 18.005501 101.906
1.4128799 17.8018 102.243
1.3486201 17.702999 101.933
1.30395 17.989 101.612
1.48061 18.0128 101.367
1.40069 17.6751 101.636
1.58099 17.695299 101.393
1.7503 18.071199 101.192
2.03213 18.158199 101.114
1.85102 17.760099 101.214
2.13045 17.858299 101.131
2.2588601 18.2586 101.144
2.3548901 17.9704 101.162
3.76209 16.2052 102.154
2.90358 15.4548 101.659
2.5990601 15.4139 101.854
3.18858 15.6057 101.573
3.60988 16.0445 101.718
3.4251599 15.8325 101.594
3.7402899 16.1168 101.908
2.51915 17.614201 101.215
2.6838801 17.7444 101.324
2.73437 17.171 101.291
2.92419 17.295799 101.411
2.3017299 17.478201 101.195
2.4921899 17.042101 101.265
2.79987 18.0548 101.955
2.65416 18.0439 102.22
3.0518301 17.620399 102.093
2.90695 17.6654 102.391
2.8522301 17.9597 101.694
3.0999 17.5175 101.811
1.90984 17.776501 102.688
2.09231 17.341101 102.851
1.84568 17.1821 102.714
2.1751499 17.896999 102.635
2.39083 17.487801 102.816
1.6845599 17.614799 102.575
2.80425 17.8561 101.484
3.0522001 17.408001 101.584
2.0332601 17.359301 101.293
2.21734 16.9289 101.362
1.77154 17.283001 101.478
1.95989 16.852699 101.546
2.4373901 17.983 102.463
2.6774499 17.611401 102.649
1.5848401 17.27 101.712
1.77253 16.8344 101.779
1.50587 17.3298 101.996
1.68312 16.8906 102.072
1.5418 17.454901 102.314
1.7045701 17.018999 102.419
3.5864201 16.475201 102.437
3.52107 16.680799 102.4
3.5838799 16.5991 102.089
3.3947501 16.5791 102.73
3.3376501 16.750799 102.684
3.62692 16.4174 102.49
3.43081 16.540899 102.792
3.69767 16.344101 102.155
3.3134999 17.1147 102.255
3.16308 17.162701 102.563
3.3672099 17.0208 101.956
2.2813101 16.8964 103.005
2.6119101 17.021999 102.984
2.7804101 16.648199 103.108
2.0104699 16.750601 102.853
2.43906 16.5357 103.128
2.14941 16.400101 102.971
2.96754 16.7274 101.393
3.18801 16.836399 101.522
3.1733601 16.3552 101.49
3.4105301 16.4592 101.627
2.69559 16.611099 101.358
2.88327 16.2369 101.448
3.32512 16.9291 101.711
3.5497999 16.5317 101.828
2.9217801 17.1238 102.824
3.08078 16.740299 102.931
2.41272 16.507601 101.445
2.59284 16.119801 101.518
2.1575401 16.434799 101.626
2.3311801 16.050501 101.698
1.96367 16.412201 101.868
2.1212299 16.0525 101.966
1.85883 16.4634 102.179
1.9988 16.1133 102.299
1.86687 16.5907 102.543
1.99892 16.2428 102.665
3.68049 16.2799 101.898
3.54743 16.2115 101.692
2.7592001 15.7367 101.577
2.4781799 15.685 101.766
3.0474701 15.8746 101.502
3.32092 16.072599 101.55
2.3262601 15.4835 102.147
2.15639 15.6457 102.494
2.2360201 15.7228 102.05
2.0889001 15.8539 102.407
3.1333799 16.5795 102.976
3.17045 16.540701 103.037
2.8159299 16.3612 103.209
2.82459 16.4744 103.138
2.5239999 16.308399 103.195
2.2451999 16.161501 103.058
2.5148599 16.16 103.21
2.30545 15.9833 103.107
2.08917 16.003401 102.77
2.15626 15.8337 102.844
2.4652801 15.8115 103.275
2.5905499 16.101101 103.288
2.3334701 15.8158 103.111
2.32288 15.7127 103.078
2.4525599 15.9809 103.208
2.372 15.7717 103.15
1.7587 18.1745 102.581
2.02683 18.2199 102.523
1.52388 18.1765 102.507
2.5125599 18.3435 102.153
2.6559501 18.387501 101.912
2.6988201 18.412701 101.683
2.6298399 18.458799 101.49
2.47329 18.509501 101.335
2.29162 18.282 102.369
1.23756 18.237801 101.94
1.34175 18.2404 102.283
1.27833 18.232401 101.633
1.44613 18.260799 101.388
1.99782 18.395201 101.147
1.71006 18.315901 101.217
2.2518499 18.483299 101.196
2.2920101 18.7225 101.303
2.0054901 18.668501 101.239
2.3139801 18.949699 101.398
2.04778 18.932301 101.375
2.50916 18.706499 101.409
2.54265 18.9328 101.501
1.71114 18.598301 101.295
1.45787 18.5441 101.459
1.75668 18.879801 101.425
1.51701 18.8274 101.581
1.30128 18.5096 101.704
1.37159 18.783199 101.824
1.3272001 18.719299 102.119
1.2739201 18.488501 102.025
1.35592 18.4207 102.345
1.5269901 18.3321 102.568
1.37747 18.6278 102.415
1.53681 18.5233 102.639
1.77671 18.2523 102.641
2.0450101 18.274599 102.57
1.7883 18.423599 102.715
2.08178 18.374001 102.654
2.31689 18.331301 102.414
2.54597 18.4035 102.205
2.3547699 18.4247 102.498
2.5894599 18.502501 102.295
2.70011 18.4718 101.978
2.7462101 18.5548 101.761
2.7412901 18.618299 102.071
2.7806201 18.755199 101.851
2.6709599 18.6479 101.567
2.70822 18.866501 101.657
1.82485 19.3379 101.684
1.8197 19.2404 101.625
2.05427 19.296101 101.562
1.65101 19.290501 101.813
1.6227601 19.191299 101.767
1.8223799 19.379999 101.726
1.66978 19.3388 101.849
2.03074 19.4195 101.63
2.00424 19.483999 101.677
1.53678 19.2946 101.986
1.4904799 19.371599 102.188
1.42957 19.1821 102.282
1.57898 19.370899 102.001
1.54292 19.4624 102.167
1.48566 19.161501 101.968
2.2333801 19.518 101.67
2.39505 19.639299 101.778
2.2910199 19.7696 101.828
2.3003399 19.349199 101.592
2.55773 19.410801 101.738
2.17012 19.6248 101.728
2.1461899 19.658899 101.767
1.9911799 19.5016 101.716
2.14818 19.698 101.811
1.99107 19.560101 101.775
2.25209 19.8123 101.859
2.2388899 19.8078 101.869
1.82008 19.393801 101.767
1.68165 19.362 101.893
1.82263 19.468201 101.833
1.69127 19.4401 101.966
1.60563 19.403299 102.039
1.5768501 19.493299 102.189
1.61927 19.464001 102.113
1.5927401 19.507 102.215
1.43476 18.9916 101.917
1.37062 18.926201 102.193
1.58483 19.043699 101.699
2.3245299 19.158501 101.498
2.56336 19.144899 101.6
2.059 19.132799 101.474
2.7351501 19.0711 101.755
2.76033 19.2834 101.886
2.80757 18.952801 101.951
2.82903 19.1663 102.081
1.80214 19.091999 101.545
1.80705 18.641701 102.81
1.55618 18.7332 102.721
1.59314 18.9762 102.819
2.10765 18.5935 102.763
1.83869 18.9035 102.919
2.13831 18.868299 102.89
2.39417 18.6127 102.619
2.6238899 18.695101 102.413
2.42503 18.885099 102.757
2.6526599 18.950199 102.552
1.4073 18.8361 102.491
1.45251 19.0683 102.595
2.7683401 18.818399 102.179
2.7920001 19.0501 102.314
2.1214001 20.4587 102.588
2.1906199 20.442499 102.702
2.00809 20.3925 102.801
2.29673 20.4603 102.477
2.3722301 20.4422 102.595
2.062 20.451099 102.494
2.2303801 20.453699 102.384
1.95699 20.4062 102.702
1.91838 20.397699 102.621
1.9843301 20.3498 102.365
1.95166 20.2631 102.297
2.0991299 20.275999 102.226
1.86804 20.3104 102.483
1.8401901 20.226101 102.415
2.0063801 20.3986 102.407
1.87887 20.3507 102.533
2.13223 20.361 102.283
2.1653099 20.406601 102.312
2.2528801 20.391399 102.809
2.4303701 20.388599 102.709
2.4716799 20.3008 102.809
2.07019 20.3479 102.893
2.30898 20.299999 102.902
2.14028 20.2677 102.974
2.3649001 20.1642 102.979
2.20186 20.1448 103.045
2.4170401 19.9781 103.03
2.2327099 19.967899 103.1
2.5141399 20.179399 102.88
2.5719299 20.011 102.908
2.0267899 20.429701 102.44
1.8925101 20.376801 102.571
2.1928401 20.434401 102.335
2.44396 20.402399 102.401
2.5195701 20.385799 102.498
2.5342801 20.2899 102.323
2.6206999 20.2686 102.397
2.37953 20.3944 102.331
2.46245 20.286501 102.277
2.5748601 20.3351 102.6
2.6022899 20.257799 102.704
2.6826 20.2162 102.491
2.70297 20.141399 102.61
2.34358 20.3773 102.296
2.42296 20.2733 102.257
2.3050101 20.359501 102.278
2.36993 20.2644 102.242
2.2497699 20.3438 102.261
2.2551501 20.2691 102.22
2.6069601 20.1845 102.785
2.67011 20.066601 102.756
1.91277 20.253599 102.952
1.8549401 20.294399 102.863
1.7879601 20.101 102.975
1.7344 20.142799 102.872
1.99999 20.189199 103.027
1.896 20.043699 103.06
1.82939 20.3104 102.77
1.8192 20.305901 102.697
1.72909 20.163601 102.771
1.74027 20.164801 102.7
1.80756 20.290001 102.655
1.801 20.2757 102.616
1.74169 20.156099 102.666
1.7442 20.156799 102.625
1.80611 20.2679 102.566
1.7720701 20.1826 102.538
2.0805199 20.124001 103.074
2.0499401 19.990601 103.109
2.80778 19.3172 102.473
2.6769199 19.231899 102.702
2.67577 19.5186 102.826
2.8429599 19.4191 102.247
2.7960801 19.5979 102.615
2.83198 19.6917 102.407
2.00178 19.769899 103.128
1.94428 19.497601 103.103
1.72683 19.561001 103.017
2.2326901 19.7353 103.124
2.2119 19.460899 103.098
1.80908 19.8295 103.062
1.63801 19.9645 102.703
1.63718 19.937201 102.82
1.55416 19.692499 102.704
1.65549 19.972601 102.632
1.55933 19.741301 102.574
1.58146 19.7682 102.507
1.9068201 20.119301 102.196
1.86274 19.909599 102.07
2.02262 19.947201 102
1.78952 20.0772 102.321
1.7377 19.866199 102.202
2.06074 20.1394 102.128
2.45662 19.7418 103.041
2.6354499 19.786501 102.892
2.47157 19.468599 102.998
2.45644 19.177601 102.895
2.1763501 19.165199 103.012
2.7880299 19.5284 102.06
2.65662 19.654499 101.944
2.79404 19.7876 102.236
2.6874399 19.881399 102.117
1.8865401 19.197901 103.026
1.65202 19.2626 102.927
2.1604199 19.815001 101.887
1.9997801 19.726299 101.873
2.1860199 19.982201 101.998
2.2664199 19.894501 101.927
2.30268 20.013901 102.021
1.83468 19.6616 101.94
1.70574 19.6262 102.075
1.6304899 19.611799 102.227
1.59462 19.6119 102.326
1.65943 19.819201 102.354
1.61947 19.7857 102.462
2.4899099 19.794001 101.91
2.3626001 19.8985 101.923
2.5374401 19.966499 102.052
2.4133401 20.0222 102.03
1.68718 19.8901 102.95
1.5993201 19.6301 102.868
1.50448 19.530701 102.394
1.4816 19.4349 102.53
1.5434999 19.5951 102.343
1.51867 19.3424 102.736
1.71455 20.023701 102.464
1.67785 19.983101 102.569
1.66547 19.9711 102.608
1.59978 19.7752 102.494
2.30935 19.929899 101.938
2.3555601 20.0338 102.029
1.5723 19.6143 102.345
2.7448399 19.8587 102.706
2.7825601 19.944401 102.523
2.7576001 20.0273 102.376
2.67609 20.094299 102.271
2.2267001 20.1415 102.123
2.3513501 20.142099 102.143
2.55878 20.137699 102.201
2.4603801 20.1548 102.164
2.40995 20.1507 102.154
6.4878101 15.6627 102.557
6.3217902 15.4349 102.623
6.6789498 15.2602 103.078
6.21315 15.8032 102.246
6.0423398 15.5827 102.289
6.6230898 15.9437 102.515
6.36448 16.071899 102.228
6.81809 15.5321 102.928
6.9320102 15.824 102.852
6.4562802 16.799101 102.604
6.2200198 16.8776 102.332
6.3937201 16.6248 102.246
6.16395 16.965599 102.759
5.9237099 17.021299 102.483
6.7561698 16.7064 102.924
6.4748201 16.8892 103.075
6.6306901 16.520599 102.52
6.92066 16.4163 102.84
5.8055201 16.938999 102.973
5.5609698 16.989401 102.683
5.5040302 16.7561 103.214
5.2624402 16.812401 102.908
6.11198 16.881701 103.28
5.7827501 16.718201 103.508
6.6816802 16.229099 102.497
6.9752698 16.1166 102.82
6.4369898 16.348301 102.22
5.8043699 15.4616 103.23
6.1156602 15.3266 103.655
6.3639598 15.1604 103.388
5.6038299 15.6816 103.49
5.91045 15.5451 103.971
5.52599 15.5442 102.816
5.3334899 15.7388 103.064
5.9998598 15.3247 102.943
5.7255101 15.4424 102.565
5.5717802 16.222799 101.389
5.3635402 16.043699 101.39
5.4609799 15.9516 101.504
5.75422 16.3944 101.43
5.65484 16.127501 101.493
5.78508 16.275999 101.498
5.1714301 15.9168 101.439
5.2789998 15.826 101.554
4.9921398 15.8493 101.559
5.1083202 15.7589 101.669
6.0053301 15.9222 101.983
6.1522298 16.184299 101.966
5.99125 16.2589 101.745
5.8310599 15.7087 102.013
5.8565602 16.009001 101.771
5.6791601 15.8057 101.797
5.7458301 16.0665 101.614
5.8730001 16.2843 101.586
5.56249 15.8785 101.634
5.6739001 15.5792 102.091
5.8891501 15.455 102.387
5.5079999 15.5469 102.243
5.5136199 15.6781 101.86
5.3443799 15.6315 101.992
5.3888798 15.7527 101.688
5.21983 15.6935 101.807
5.0387201 15.7066 102.001
5.1518898 15.67 102.197
4.8816299 15.8338 102.246
4.9790101 15.8177 102.438
4.9345899 15.7563 101.862
4.7919798 15.8687 102.114
5.3597298 16.4944 103.437
5.1289101 16.5602 103.116
5.35746 16.206499 103.588
5.1301298 16.276899 103.239
5.5928702 16.4708 103.724
5.5703702 16.136101 103.95
5.4467502 15.933 103.614
5.6633401 15.8444 103.989
5.2005901 15.9932 103.221
6.0202098 16.949301 102.09
6.1658502 16.727501 101.97
5.7582202 17.060699 102.274
6.2108202 16.4601 101.946
6.02321 16.523701 101.699
5.88834 16.501699 101.526
4.8165102 15.8447 101.76
4.6838298 15.9516 102.021
5.4065399 17.0191 102.477
5.10113 16.8519 102.684
5.30898 15.6143 102.467
5.1234298 15.7844 102.708
4.9608402 16.6145 102.866
4.8382702 16.627001 102.708
4.95188 16.3367 102.952
4.8309598 16.368799 102.752
5.0053701 16.042299 102.892
4.8735199 16.074499 102.649
4.6353102 16.1791 102.283
4.6610699 16.4198 102.485
4.7013898 16.3106 102.521
4.7179298 16.101999 102.367
4.78866 16.080601 102.481
4.74962 16.355101 102.617
4.7349401 16.570801 102.607
6.1628199 15.3152 102.737
6.4409699 15.1834 103.08
5.48946 16.3298 101.296
5.2730498 16.1401 101.293
5.6831102 16.5291 101.344
5.0733199 16.0117 101.343
4.8843699 15.9481 101.47
5.0404701 16.7946 100.838
4.9164801 16.931499 100.714
4.73176 16.746901 100.722
5.1947498 17.002899 100.864
5.0617199 17.131901 100.742
5.1476798 16.684 100.956
5.3119702 16.895599 100.989
4.8525901 16.605801 100.851
4.9541202 16.491899 100.964
5.2779398 17.192301 100.927
5.1304698 17.314199 100.801
5.27283 17.365299 101.042
5.1086702 17.4792 100.903
5.40973 17.086 101.065
5.4230499 17.2586 101.196
5.1691999 17.516199 101.218
4.9506998 17.58 101.437
4.7677898 17.6772 101.274
5.3385901 17.4084 101.386
5.1329298 17.469999 101.613
4.9914799 17.619301 101.065
4.9678102 17.4519 100.709
4.9348502 17.5998 100.806
4.9116702 17.282 100.641
4.8126998 17.716299 100.952
4.5936298 17.7591 101.142
4.7750602 17.0933 100.594
4.5841298 16.9128 100.575
4.3112602 17.682501 101.355
4.0332699 17.547701 101.522
4.4606099 17.6122 101.493
4.1661801 17.466801 101.663
4.6382298 17.509899 101.66
4.3337498 17.354799 101.829
4.8221698 17.3965 101.837
4.5113001 17.239599 102.001
4.6629601 16.479799 100.911
4.4707098 16.4286 101.035
4.5724802 16.311501 101.145
4.5409999 16.618 100.784
4.3461699 16.561199 100.91
4.7625999 16.3643 101.02
4.3761501 16.778099 100.618
4.1765499 16.707899 100.748
3.9927599 16.7164 100.951
3.8529799 16.819099 101.191
3.9893 16.694599 101.321
4.1502299 16.5833 101.099
4.2774601 16.4536 101.226
4.1213298 16.5674 101.455
4.2417598 16.4454 101.586
4.3857002 16.333099 101.344
5.5304899 16.9891 101.187
5.6370802 16.9016 101.284
5.6790099 17.0639 101.443
5.4199901 16.800301 101.099
5.5169501 16.714199 101.189
5.5606399 17.1569 101.333
5.2452202 16.587299 101.058
5.3327298 16.500799 101.143
5.0439301 16.3929 101.06
5.1236601 16.305099 101.142
4.84865 16.263 101.114
4.6589499 16.2064 101.242
4.73316 16.115101 101.324
4.9242001 16.174601 101.194
4.4776402 16.222799 101.45
4.55337 16.126101 101.539
4.3464699 16.3323 101.704
4.43045 16.2339 101.803
4.9999599 17.2813 102.005
4.6840501 17.127501 102.163
5.1455898 17.178499 102.144
4.8245702 17.032 102.295
5.3064699 17.3557 101.779
5.4502301 17.2505 101.917
5.4963899 17.2999 101.54
5.62922 17.1991 101.666
5.41078 16.419901 101.218
5.1961298 16.225201 101.215
5.60186 16.6315 101.266
4.9942698 16.0954 101.266
4.80193 16.0343 101.396
3.8408 17.3983 101.585
3.97558 17.297001 101.732
3.89571 17.103901 101.683
3.7596099 17.2153 101.538
3.76705 17.003099 101.395
3.9016399 16.8864 101.533
4.0422702 16.762899 101.677
4.17976 16.643999 101.821
4.0460601 16.9846 101.838
4.20081 16.8692 101.993
4.1343298 17.18 101.894
4.30229 17.0653 102.058
4.3045802 16.5341 101.95
4.40518 16.4405 102.057
4.3470001 16.763201 102.133
4.46593 16.6751 102.245
4.46452 16.957701 102.209
4.5966902 16.8689 102.331
5.8587699 17.0238 101.895
5.9402299 16.8123 101.674
5.6477799 17.1017 102.128
5.7364998 17.110001 101.769
5.5538802 17.165199 102.025
5.7830901 16.9736 101.535
5.7309499 16.814301 101.366
5.8214598 16.687 101.445
4.7032599 15.9497 101.683
4.57794 16.055901 101.949
5.3164201 17.047501 102.346
4.9520898 16.8615 102.536
5.2410202 17.0984 102.251
4.9114699 16.9566 102.396
4.6204 16.041201 101.614
4.4986701 16.148001 101.882
4.6810699 16.7971 102.423
4.5482502 16.6029 102.331
4.7221298 16.7143 102.515
4.6080999 16.5282 102.41
4.4801602 16.3612 102.138
4.5511899 16.2787 102.21
4.7747598 17.7173 100.74
4.8095999 17.586599 100.641
4.7617302 17.426201 100.559
4.4834199 17.7967 101.065
4.6670899 17.7969 100.877
4.6243901 17.245701 100.475
4.41995 17.0825 100.426
4.2206702 17.721701 101.271
3.95559 17.594101 101.429
4.2061501 16.9505 100.468
4.00348 16.868 100.604
3.8263299 16.858101 100.808
3.7005799 16.933599 101.043
3.31528 18.721201 100.181
3.3902199 18.582899 100.191
3.4665799 18.608801 100.199
3.18978 18.683001 100.173
3.28038 18.539801 100.193
3.24037 18.8438 100.173
3.1185601 18.801001 100.165
3.4045899 18.7467 100.197
3.3192599 18.8787 100.188
3.6144099 19.017401 100.317
3.6296899 19.088499 100.44
3.45928 19.164499 100.416
3.7706101 18.876499 100.34
3.79653 18.9639 100.474
3.55724 18.9389 100.236
3.6900401 18.7878 100.251
3.4437301 19.110701 100.307
3.4051199 19.0494 100.232
4.5928302 17.8601 100.85
4.6686802 17.802299 100.697
4.5507898 17.946899 100.849
4.60953 17.8948 100.692
4.4240499 17.8526 101.035
4.3934102 17.932899 101.035
4.4747901 17.385599 100.376
4.2811198 17.232901 100.328
4.33114 17.542299 100.32
4.1495299 17.381201 100.272
4.61865 17.5441 100.477
4.4799199 17.704 100.434
4.6722898 17.701099 100.577
4.58639 17.8095 100.562
4.1894398 17.727301 100.305
4.0539098 17.889 100.288
3.8742499 17.752399 100.249
4.3554301 17.856501 100.41
4.22224 18.0172 100.381
4.0070701 17.563499 100.249
4.5118198 18.0583 100.859
4.4423499 18.2127 100.865
4.4485698 18.1745 100.665
4.3614802 18.0455 101.053
4.2995 18.2048 101.075
4.5494599 18.0165 100.692
4.4819999 17.953501 100.539
4.36338 18.111099 100.505
3.5643101 19.1373 100.598
3.41768 19.1334 100.764
3.2848101 19.184299 100.674
3.7293301 19.029699 100.651
3.5725601 19.034599 100.846
3.4126501 19.196199 100.546
4.1095901 17.9536 101.244
3.83479 17.807899 101.369
3.7553799 17.9846 101.395
4.1424699 17.84 101.223
3.8745 17.694799 101.35
4.0457201 18.120899 101.276
3.2228301 19.056801 100.907
3.1061699 19.1138 100.785
3.0330999 18.920799 100.997
2.9367299 18.994301 100.864
3.36115 18.9534 101.02
3.1503 18.805799 101.125
4.1707401 17.769699 101.23
3.90815 17.6348 101.371
3.8146901 17.4368 100.288
3.6231999 17.3682 100.42
3.74209 17.176701 100.448
3.6928101 17.634501 100.288
3.5155799 17.570601 100.418
3.9451699 17.254 100.315
4.0686402 17.103901 100.372
3.8629301 17.0193 100.507
2.8766999 18.5138 100.412
2.95082 18.568701 100.295
2.87783 18.685699 100.275
2.9677401 18.3785 100.433
3.0483401 18.424101 100.322
2.8299899 18.4807 100.502
2.9140799 18.3514 100.51
2.80409 18.6359 100.381
2.75734 18.6147 100.464
3.0594599 18.629601 100.208
3.15821 18.4827 100.234
2.9871199 18.746901 100.196
3.90628 18.348301 101.265
4.1607399 18.4266 101.059
3.7198701 18.588699 101.209
3.9663701 18.667101 101.003
3.6144199 18.2097 101.381
3.44753 18.4426 101.329
4.2250099 18.2868 100.461
4.3098102 18.3673 100.622
4.1434698 18.5805 100.57
4.0841799 18.1803 100.345
4.0738001 18.4839 100.414
3.9082899 18.3699 100.291
4.2982101 18.424601 100.829
4.1133599 18.6549 100.774
3.9159801 18.865299 100.712
3.7604201 18.877399 100.928
3.9685299 18.788601 100.518
3.92205 18.6908 100.372
3.8095801 18.6063 100.272
3.52999 18.796499 101.124
3.2887101 18.645901 101.24
2.9209001 18.165899 100.658
3.0233901 18.0368 100.608
3.0183699 18.109501 100.505
2.9200399 18.1492 100.834
3.0511501 17.9422 100.793
2.8364501 18.3151 100.661
2.8299699 18.319599 100.815
2.9279399 18.207399 100.54
2.8528299 18.329399 100.556
3.45383 18.461599 100.206
3.5037799 18.507299 100.202
3.49773 18.382999 100.215
3.51952 18.4489 100.205
3.37432 18.3922 100.221
3.44578 18.283001 100.241
3.27068 18.319 100.268
3.15925 18.2675 100.348
3.2447 18.1432 100.362
3.35904 18.1905 100.292
2.7544799 18.4641 100.646
2.7729199 18.4718 100.561
2.7042501 18.6203 100.531
2.74733 18.469601 100.769
2.6905999 18.6136 100.596
2.6884899 18.6166 100.69
3.5014 18.8624 100.194
3.3717101 18.9904 100.19
3.3552001 18.942801 100.178
3.6042099 18.7099 100.201
3.4663301 18.802999 100.184
3.5423701 18.6551 100.185
3.6821499 18.557501 100.211
3.7121401 18.4098 100.217
3.5862899 18.5368 100.187
3.5986099 18.434799 100.192
3.59466 17.787399 100.286
3.76159 17.9018 100.243
3.6631401 18.031601 100.237
3.4279301 17.720501 100.409
3.51456 17.915899 100.282
3.35759 17.8477 100.393
3.2726099 17.7117 100.608
3.3611 17.5548 100.622
3.1651299 17.7484 100.843
3.2639799 17.5751 100.854
3.2005799 17.8475 100.568
3.06022 18.2498 100.438
3.1245601 18.152901 100.431
2.9890101 18.2474 100.495
3.0421901 18.182199 100.473
3.4579599 17.3591 100.624
3.5692201 17.157801 100.646
3.3589399 17.3943 100.858
3.45819 17.2045 100.871
3.68801 16.998899 100.707
