# .PCD v.7 - Point Cloud Data file format
VERSION .7
FIELDS x y z
SIZE 4 4 4
TYPE F F F
COUNT 1 1 1
WIDTH 1677
HEIGHT 1
VIEWPOINT 0 0 0 1 0 0 0
POINTS 1677
DATA ascii
3.7411399 -6.9840698 13.3137
1.17425 -7.8962402 12.34
-0.67325902 -7.5128298 11.7529
1.81222 -6.5433402 12.3804
0.046874002 -6.1675301 11.7902
-0.138118 -15.4812 21.3018
-0.96604103 -15.6194 22.165001
-0.79988903 -15.3166 20.577
-1.6357 -15.4671 21.4986
-2.9772799 -15.4276 21.853201
-2.28547 -15.6058 22.543699
-3.6417201 -15.217 21.1814
-2.3446701 -15.2711 20.8332
-3.05566 -15.0522 20.2157
-1.59182 -15.7396 23.1959
-0.928316 -15.8247 23.7306
-0.30305201 -15.8689 24.1147
-3.12586 -14.6873 18.7607
-3.7428701 -14.8366 19.681
-3.90295 -14.4776 18.318501
-4.4242601 -14.6339 19.2589
-2.38902 -14.516 17.8589
-3.3048401 -14.289 17.3834
-2.3414199 -14.9013 19.283199
-4.25281 -14.9997 20.5893
-4.8427601 -14.8075 20.175699
-1.5510499 -15.1166 19.891701
-5.52566 -14.6376 19.966299
-6.4125299 -14.4186 19.7491
-5.1511502 -14.434 18.938601
-5.9921598 -14.2042 18.6308
-4.7055998 -14.2611 17.938299
-5.5880098 -14.0135 17.586
-4.2347498 -14.0422 16.960899
-5.2342501 -13.7632 16.5889
-6.6071501 -13.7136 17.250999
-7.6412802 -13.3929 16.9196
-8.1317301 -13.5664 17.886
-6.3271098 -13.4277 16.27
-7.3351898 -13.1014 15.9768
-7.0067501 -13.9072 18.273001
-7.5430899 -14.0878 19.365801
-8.8316603 -13.6903 18.899
-8.6514997 -13.0461 16.571199
-9.6530399 -12.6566 16.2192
-10.3194 -12.777 17.010201
-8.3204298 -12.7477 15.6846
-9.3159399 -12.3574 15.3996
-9.2593298 -13.1934 17.461599
-10.2098 -13.2447 18.393299
-11.4535 -12.7311 17.7904
-6.0668898 -12.9906 15.3377
-7.0974898 -12.6452 15.0672
-4.8551002 -13.3795 15.6441
-8.1004 -12.2681 14.8108
-9.0995798 -11.8725 14.5723
-7.8930502 -11.6211 13.9736
-8.8954802 -11.2362 13.7814
-3.7163 -13.7136 16.024799
-2.6126699 -13.9997 16.469999
-1.51899 -14.2616 16.992201
-12.7597 -11.3035 15.5531
-12.7376 -10.8497 14.8175
-14.1388 -10.1356 14.7796
-11.6182 -11.7966 15.6417
-11.4749 -11.4346 14.9321
-12.6214 -11.7468 16.293501
-11.7583 -12.0112 16.165701
-14.0861 -10.6675 15.544
-13.932 -11.2013 16.379299
-12.2423 -12.217 17.056999
-13.7315 -11.7267 17.337601
-11.1857 -12.3503 16.534599
-10.6199 -12.2377 15.8835
-10.3482 -11.9273 15.1373
-10.1436 -11.456 14.3634
-11.2937 -10.9701 14.1986
-9.9170799 -10.8545 13.6233
-11.0379 -10.41 13.4999
-9.63766 -10.1462 12.9546
-9.2874804 -9.3376303 12.3562
-8.6539297 -10.4869 13.0616
-8.3406296 -9.6300402 12.4152
-10.7042 -9.7524099 12.8678
-12.5807 -10.3679 14.0966
-12.2945 -9.8447304 13.4213
-13.6603 -9.1590595 13.3847
-13.9955 -9.6336899 14.0543
-11.9086 -9.2600203 12.814
-13.2021 -8.6832199 12.7947
-7.6440701 -10.8359 13.1953
-7.3250198 -9.9257097 12.4877
-2.99616 -1.45368 13.0231
-2.73826 -1.09755 13.5147
-1.85552 -1.63111 13.1187
-1.65657 -1.31609 13.5468
-3.1454 -1.96132 12.4973
-1.982 -2.1040599 12.6276
-0.52129298 -1.84092 13.373
0.92881697 -2.1010399 13.8156
0.95601702 -1.83679 14.1661
-0.590801 -2.29304 12.9078
0.93382603 -2.52051 13.3852
-0.40669 -1.55014 13.7658
2.43731 -2.4249599 14.4847
2.5380199 -2.82283 14.1045
4.36519 -3.2716501 15.288
2.3494401 -2.1740201 14.7665
4.0993299 -2.85934 15.5351
3.8231299 -2.58286 15.6484
2.3390801 -2.0276101 15.0415
0.97226202 -1.66152 14.4624
2.1884601 -1.88525 15.2663
0.765903 -1.48071 14.6967
3.7450099 -2.44648 15.8623
3.6945701 -2.36463 16.106501
-0.96470797 -0.95252401 14.584
0.182575 -1.22437 14.897
-0.43772 -1.18782 14.3439
-1.79181 -0.83644903 14.3062
-1.22025 -1.03184 14.1628
-2.3508799 -0.89010698 13.9554
-1.41125 -1.12135 13.9132
-0.30228499 -1.36344 14.0866
-3.26893 -2.6182001 11.9568
-2.0834899 -2.75353 12.1054
-3.55813 -3.3787301 11.4966
-2.3047199 -3.54443 11.6416
2.2432499 -5.3206301 12.5973
4.2024899 -5.7575698 13.605
4.4620399 -4.70467 14.1147
0.53732502 -5.0060501 11.9939
2.5011001 -4.26336 13.0165
0.83395803 -3.9867499 12.3734
-0.64099801 -2.93644 12.3988
-0.79286098 -3.7532001 11.9276
0.936095 -3.14836 12.8748
2.5801101 -3.42379 13.5755
4.4963398 -3.8717301 14.7548
10.4822 -5.8516502 26.4328
10.4434 -5.71947 25.5478
9.7944098 -5.1493702 26.2199
9.5789299 -4.9765301 25.282499
10.2301 -5.5643201 24.6262
9.8619404 -5.3797498 23.162701
9.2126398 -4.7463799 24.270901
8.5739803 -4.3793802 22.8083
9.2928801 -5.1819601 21.287701
8.2973499 -4.91359 19.091101
8.5647602 -5.8017998 18.2481
8.5175695 -4.4414201 21.438
7.75073 -4.2294798 19.412701
9.7677002 -6.1037002 20.4345
9.6374702 -7.1447101 19.1915
8.3284702 -6.8125601 17.238899
6.4113698 -6.31392 15.2352
6.6860099 -5.2978802 15.9511
6.6019502 -4.4565101 16.691099
6.2829099 -3.8255701 17.1506
5.8295698 -3.3768101 17.142
7.16747 -3.7651501 19.1185
6.60637 -3.44401 18.5581
5.3548598 -3.0541601 16.9396
1.66679 -1.65107 15.3896
3.4063599 -2.2251401 16.234301
5.1040401 -2.88463 16.9506
6.16536 -3.2350099 18.197901
5.8640299 -3.1127999 18.018499
5.0390301 -2.82709 17.155899
5.0018802 -2.8013599 17.409201
6.0893998 -3.18958 18.536301
7.63062 -3.84587 20.5814
6.9154201 -3.4637499 19.6117
7.34233 -3.63413 21.248899
6.4818702 -3.2928801 19.035801
-8.8559303 -8.4449797 11.8249
-7.9347801 -8.67274 11.8462
-2.56985 -7.1219602 11.3789
-1.76878 -5.8473301 11.386
-3.5248599 -5.5390501 11.167
-3.3953199 -8.3913002 11.6139
-4.4092002 -6.73876 11.2129
-5.1897602 -7.9779301 11.4758
-4.1412601 -9.56528 12.0975
-5.7188902 -9.1782598 11.9481
-6.91888 -8.9099102 11.8747
-6.3939199 -7.7699699 11.4128
-1.1533999 -4.7130499 11.5815
-2.76349 -4.4372101 11.3273
-4.1803002 -4.2502699 11.2023
-5.0708399 -5.2772999 11.1063
-5.7581902 -6.5226002 11.1566
-16.9335 -6.4570699 12.3629
-18.525801 -6.2349901 13.0137
-16.7537 -7.3755498 13.2422
-17.589701 -5.6566701 11.8673
-20.287701 -4.9011102 12.2671
-15.2237 -6.8319802 12.0105
-15.3129 -6.2354202 11.5647
-15.7993 -7.2946901 12.6524
-14.9944 -7.2940402 12.3099
-18.305901 -8.3541403 15.5075
-16.894199 -9.6728201 16.4333
-16.4545 -9.7052603 16.1231
-19.2486 -7.1707001 14.5141
-16.999399 -9.0306501 15.5361
-17.4618 -8.23561 14.7886
-15.5506 -9.85779 15.5433
-15.3807 -10.4049 16.325399
-15.7021 -9.2595396 14.786
-19.315701 -6.4519601 13.6469
-17.394501 -7.6624098 14.0066
-21.383301 -5.1435499 13.1075
-13.6774 -7.2149601 11.8626
-13.9889 -7.68888 12.2933
-13.4113 -6.6503801 11.4346
-14.522 -8.0352297 12.7689
-15.1285 -8.3502903 13.3475
-15.5651 -8.74648 14.0375
-15.3822 -10.8282 17.1525
-9.9215498 -6.3800101 11.0229
-9.5426197 -5.5998502 10.7506
-10.9446 -5.6490598 10.7007
-11.3565 -6.2890601 11.0136
-9.5731201 -4.8766899 10.5348
-10.7316 -5.0490298 10.4615
-10.1293 -4.3446102 10.3415
-10.7339 -4.6360402 10.3225
-14.7231 -3.34917 9.4726696
-15.3614 -3.7957201 9.7041998
-13.3412 -4.2555099 9.9888
-16.8463 -2.68575 9.0775499
-17.6147 -3.10116 9.4384899
-14.1448 -2.8666699 9.3604202
-16.116699 -2.19788 8.8634701
-12.8132 -3.78388 9.8513803
-12.382 -3.3206401 9.7956896
-10.9354 -3.19559 10.073
-11.995 -2.8650601 9.8056803
-10.9195 -3.57845 10.1086
-13.584 -2.3222301 9.3454704
-15.3902 -1.59484 8.7796698
-11.2396 -4.04563 10.1305
-11.7182 -4.5079699 10.1984
-12.131 -4.99966 10.3696
-12.548 -5.5320601 10.6499
-13.91 -4.7335701 10.2357
-14.4975 -5.2105298 10.6019
-13.0134 -6.0833201 11.0174
-15.0327 -5.6954098 11.0676
-16.0716 -4.22825 10.0748
-16.815701 -4.6443801 10.5879
-18.4527 -3.4895101 9.9587297
-19.3111 -3.85074 10.6289
-19.065901 -1.79291 8.7476702
-21.301001 -0.698717 8.4497204
-22.1689 -1.11781 9.0234203
-18.195601 -1.30172 8.3788204
-20.3503 -0.200142 7.9184098
-19.9491 -2.1900499 9.2672796
-17.3242 -0.66926998 8.1736002
-19.3967 0.45001301 7.57232
-17.459101 -5.0728202 11.2226
-20.0606 -4.2148299 11.4187
-22.223801 -3.2620599 11.0637
-22.8248 -3.5609901 11.7451
-24.2122 -2.1478 10.6001
-24.7726 -2.36573 11.233
-21.6035 -2.92062 10.4779
-23.607599 -1.87485 10.0326
-23.447901 -3.82512 12.5321
-25.334 -2.55481 11.9498
-20.865601 -2.5474 9.9222898
-22.913799 -1.52633 9.5080795
-6.8996 -0.230134 19.6723
-7.0791202 -0.65704399 20.3368
-5.32231 -0.50153399 18.1975
-6.1638098 -0.089630999 19.437901
-4.0209899 -0.61809099 17.3841
-5.24369 -0.054283001 18.653601
-2.3744099 -0.88037997 16.9923
-3.6549699 -0.306775 17.6991
-0.75497103 -1.21922 16.9158
-2.3345201 -0.55600899 17.364
-0.26332101 -1.21525 17.065001
8.3843203 -5.20012 33.638401
8.1207895 -5.7065802 33.8503
8.7904501 -5.2558899 32.540699
9.1440802 -5.2142401 31.1807
9.3811598 -5.1119599 29.758499
9.4619799 -5.0011802 28.446301
9.3842402 -4.8636899 27.164301
9.1638699 -4.6768098 25.815901
8.8347998 -4.4488401 24.5091
8.40413 -4.1812601 23.323
7.7747598 -3.8222499 22.185801
5.0462098 -2.4518399 19.278799
5.2863498 -2.5734701 19.362101
4.8424201 -2.3466201 19.203899
5.4671302 -2.66523 19.386999
5.5244002 -2.67747 19.550501
5.73247 -2.7634201 19.7325
6.1961498 -2.9870999 20.170601
6.9474802 -3.37553 21.061199
-0.96196598 -15.335 32.873798
2.6408 -14.5785 32.686001
7.2368498 -6.8490801 34.7337
7.7319698 -6.3324599 34.2202
-11.6425 1.11113 23.815201
-20.1098 3.3929601 6.8826599
-20.7463 2.5310299 6.79774
-22.3237 4.7726798 6.8173599
-22.9585 3.9154401 6.8007202
-19.691099 4.2362499 7.21314
-21.876699 5.5907602 6.9053502
-24.0963 6.0138402 6.7016001
-25.5665 7.1269698 6.6479702
-26.1964 6.3285999 6.65345
-23.646601 6.8050799 6.7477999
-25.1374 7.89856 6.6735201
-24.725599 5.18187 6.69034
-19.451599 5.0076799 7.7339101
-19.350201 5.7098799 8.4163103
-21.389299 6.9614501 7.5580201
-21.557899 6.3062301 7.0027499
-23.366699 7.5110102 6.8155899
-24.8969 8.5979996 6.7190099
-23.2286 8.1604605 6.8948202
-24.810499 9.2536201 6.77
-26.761101 8.0957603 6.6463699
-26.3626 8.85849 6.6511698
-27.3731 7.3157101 6.66921
-19.2561 6.3206701 9.1081104
-21.344101 7.58322 8.2467899
-19.2658 6.85782 9.9090004
-21.3951 8.1386404 9.0247803
-23.2258 8.7980404 7.53196
-24.841101 9.8952999 6.9828601
-23.3272 9.3821297 8.2847099
-24.9923 10.4965 7.7109299
-19.3573 7.2954102 10.7688
-21.517 8.5880699 9.8455496
-19.512699 7.6514101 11.6562
-21.6971 8.9428501 10.7002
-20.997101 8.5348997 15.8624
-20.6052 8.4935198 15.0835
-22.9533 9.6973696 14.656
-22.680099 9.6780996 13.9545
-21.445601 8.5107899 16.6241
-23.2656 9.6704702 15.3443
-21.959999 8.4324398 17.387501
-23.6366 9.6076698 16.0268
-22.5303 8.3089304 18.173201
-24.086901 9.5114298 16.7087
-25.264999 10.7169 14.8474
-24.9487 10.7455 14.2873
-26.6252 11.6569 13.8563
-26.0753 11.46 13.6601
-25.688601 10.6834 15.4024
-27.2316 11.7812 14.2417
-20.267799 8.3788996 14.2728
-19.970699 8.20016 13.427
-22.424 9.5974903 13.2231
-22.1721 9.44837 12.4343
-19.719601 7.9528599 12.5492
-21.923401 9.22859 11.5793
-23.507 9.8612499 9.0597601
-25.232 10.9991 8.4474602
-23.7409 10.2355 9.86341
-25.526699 11.3968 9.2010803
-24.0019 10.5234 10.7011
-25.8372 11.7005 9.98944
-24.254 10.7282 11.5261
-26.125999 11.9101 10.7931
-27.4053 12.6925 9.4549303
-27.783899 12.9251 10.253
-27.0261 12.3669 8.7017403
-26.211599 10.8559 6.7137899
-26.1297 10.2153 6.6978998
-26.4006 11.4504 7.2655001
-26.6819 11.9562 7.9780798
-27.5968 12.3989 12.9362
-26.3193 11.74 13.0807
-28.0982 12.8795 12.0143
-26.433599 11.9611 12.3451
-28.628901 12.7832 13.1432
-24.775499 10.8194 13.6687
-24.6425 10.8751 12.9969
-24.469101 10.8463 12.2902
-26.346201 12.0092 11.5827
-28.091 13.0271 11.108
-26.1642 9.5571098 6.6726098
-24.2222 7.6621099 19.9692
-24.8503 7.4095502 20.3755
-26.704201 8.9727602 19.151199
-23.6758 7.91922 19.5749
-25.920799 9.08461 18.6516
-25.262501 9.25107 18.0749
-27.506901 10.4216 17.2202
-26.7446 10.4836 16.534201
-29.221701 11.7528 16.048201
-28.3901 11.7303 15.2873
-28.4373 10.4146 17.9659
-30.1082 11.7603 16.7159
-23.124001 8.14046 18.9779
-24.6315 9.3889904 17.394501
-26.177099 10.5997 15.9713
-27.7848 11.7805 14.716
-29.3887 12.8896 13.5675
-30.2715 13.0006 14.3888
-31.130199 13.0708 15.0923
-32.0084 13.1137 15.6934
-32.128601 9.4874802 19.2985
-31.587099 9.7898798 19.166201
-29.3603 8.1708498 20.3412
-34.1866 10.9162 18.1984
-33.574799 11.244 18.094601
-32.546299 9.1434603 19.394501
-34.658798 10.525 18.2682
-29.809799 7.8898602 20.477301
-30.1702 7.5817699 20.581699
-30.9163 10.0466 18.9874
-28.817499 8.4214897 20.163401
-30.1458 10.2403 18.749201
-28.187 8.6420298 19.92
-32.832001 11.5075 17.947599
-31.993999 11.6852 17.7463
-27.4452 6.22118 21.627001
-27.0909 6.4983802 21.4953
-27.7542 5.9195099 21.733101
-26.6793 6.73734 21.3391
-26.1709 6.9566102 21.1311
-25.555 7.1875901 20.819401
-27.4779 8.8291101 19.586599
-29.3176 10.3604 18.4373
-31.046101 11.7506 17.285601
-35.984299 12.1891 17.2094
-36.4772 11.7525 17.2416
-35.383499 12.5588 17.147301
-34.654301 12.8479 16.946899
-33.8242 13.0382 16.630899
-32.922901 13.1166 16.210899
-31.7707 6.9794202 20.3256
-30.3566 5.6517901 21.0891
-30.978399 5.5981798 20.8085
-30.1376 6.10639 21.0931
-29.700399 5.4898901 21.3643
-32.616798 8.0295897 19.7666
-30.4352 6.7538099 20.8319
-32.927601 7.3222799 19.767099
-34.816101 9.1157598 18.6084
-32.797298 8.7121401 19.496401
-30.414301 7.2272601 20.678801
-34.955101 10.027 18.341499
-33.462002 7.0945001 19.471701
-35.387199 8.7149401 18.329901
-33.5798 6.5174899 19.306499
-35.447201 8.0820198 18.225901
-31.3221 5.2300901 20.597
-31.459299 4.6666698 20.391899
-27.9963 5.59688 21.818899
-28.1404 5.2278299 21.903299
-28.1751 4.7971601 21.9958
-28.246 4.4036498 22.0369
-28.500401 4.11759 21.9638
-28.8181 3.7915499 21.8167
-29.054399 3.3102901 21.631701
-29.201401 2.7378099 21.390499
-36.825699 11.2274 17.2645
-37.041599 10.6306 17.2752
-37.173801 10.0054 17.248699
-37.184601 9.31215 17.2076
-33.5494 5.82833 19.107401
-31.489901 4.0393801 20.128
-31.447901 3.3861001 19.7761
-35.360401 7.33709 18.0987
-33.438202 5.0907302 18.821899
-35.207401 6.546 17.8923
-29.2771 2.15467 21.0788
-29.290501 1.5710599 20.6835
-32.7201 2.9174199 17.0952
-32.431801 2.3390601 16.153999
-34.227501 3.7818699 15.1355
-30.950199 1.40918 18.1656
-30.7796 0.90421498 17.369301
-33.0345 3.60021 17.9548
-31.1614 2.0389099 18.7824
-34.486801 4.3485298 16.0203
-34.749599 5.0156498 16.8323
-29.114 -0.118366 19.044701
-29.1513 -0.51539201 18.5986
-29.1581 0.38926399 19.6075
-29.2477 0.97705197 20.194099
-31.3351 2.70981 19.3262
-33.258499 4.3336 18.436899
-35.010799 5.7621799 17.5207
-32.342499 1.9697599 15.4253
-30.704901 0.54032499 16.651899
-30.634701 0.27259901 15.9379
-33.980999 3.3291299 14.2285
-32.305 1.7267801 14.7803
-33.957199 3.10481 13.6284
-29.082199 -0.87293601 17.818899
-28.989901 -1.16167 17.0278
-36.213001 5.6342001 15.0295
-36.436001 6.2713399 15.7625
-35.9678 5.0803099 14.2164
-36.633202 6.9639401 16.370001
-36.8283 7.71387 16.821199
-35.707199 4.63272 13.3728
-35.485001 4.3117199 12.575
-37.039398 8.5208597 17.1015
-32.249001 1.56376 14.1346
-32.152302 1.4521101 13.481
-33.8358 2.8527 12.4895
-30.5502 0.095135003 15.2098
-30.427299 -0.022293 14.4614
-33.915199 2.9544301 13.0554
-31.995501 1.36854 12.8141
-31.7726 1.31536 12.1282
-33.490601 2.7212601 11.3075
-30.2498 -0.104748 13.6985
-30.004299 -0.146606 12.9293
-33.699501 2.77877 11.9132
-28.8811 -1.36248 16.2278
-28.7456 -1.48316 15.4013
-28.564699 -1.54357 14.5493
-28.316299 -1.5538501 13.7012
-27.994499 -1.49823 12.8663
-27.577999 -1.39122 12.0571
-29.599899 0.276669 11.0725
-29.727301 -0.096433997 12.1358
-31.5345 1.34358 11.4021
-31.5203 1.62758 10.5779
-33.054199 2.8039501 9.9839697
-33.237598 2.7028301 10.6618
-34.6786 3.8775799 9.92383
-34.349998 3.86449 9.3271198
-34.989201 3.9412601 10.5037
-35.213699 4.0093198 11.0422
-35.353199 4.0799298 11.5493
-35.436901 4.1735201 12.0521
-34.059502 3.9347799 8.7476501
-33.0303 3.07566 9.29953
-33.092999 3.37571 8.7637997
-33.724602 4.0131898 8.2272396
-33.217899 3.9972301 7.7996402
-32.5252 3.8215001 7.5347099
-32.524899 3.10042 8.7062998
-31.8029 2.79214 8.5806799
-31.9042 2.26544 9.6493902
-30.848 1.65504 9.7138205
-27.063601 -1.26633 11.3085
-26.5387 -1.11541 10.6355
-28.1777 0.186497 9.8952703
-28.682501 0.082557 10.4852
-30.089399 1.39724 9.4733801
-31.1166 2.52198 8.4554005
-29.627199 1.43282 9.0513
-30.569599 2.2885499 8.4117699
-31.678499 3.4115 7.5473499
-30.6392 2.69873 7.89328
-30.4802 3.1523499 7.2852302
-31.751101 4.1019301 6.7632198
-29.3188 1.64644 8.5468502
-28.962 1.95083 8.0039301
-27.745501 0.37026 9.3304796
-27.261 0.61748099 8.7832298
-26.036501 -0.92774898 10.0321
-25.4807 -0.68353897 9.4740896
-24.820101 -0.35603401 8.93258
-26.6581 0.94198698 8.2333002
-24.0942 0.041039001 8.40553
-25.9729 1.33199 7.6868701
-23.353201 0.50084603 7.9141002
-22.556299 1.06375 7.4682698
-24.5098 2.3608 6.8269
-25.259501 1.78777 7.1683102
-21.5989 1.73154 7.0046501
-23.719601 3.08565 6.8106399
-25.501101 4.3861198 6.7082701
-26.32 3.6933701 6.7281299
-26.994499 5.5775399 6.6846499
-27.8543 4.9275498 6.70854
-28.435101 2.2936699 7.4577198
-27.7855 2.6801 6.9163198
-29.4046 3.95751 6.6771698
-30.0333 3.5560701 6.7220201
-27.0847 3.13399 6.73136
-28.6691 4.3973999 6.7063298
-28.1682 6.5911198 6.7110901
-29.0459 5.9717999 6.74089
-29.900101 5.4688802 6.73773
-30.688499 5.04245 6.6998801
-31.3668 4.6222701 6.6361198
-5.7650099 -5.9541998 8.9932899
-7.1626 -5.3224702 9.1006098
-6.86654 -4.7853599 9.1288099
-6.0023198 -6.3017302 8.7940702
-7.4419799 -5.7687201 8.8624802
-4.7360802 -6.4463701 8.8503304
-4.9088302 -6.7351799 8.7072001
-5.5234399 -5.5228701 9.0229902
-4.5391202 -6.1022902 8.8914604
-6.95927 -7.2617302 3.9975801
-7.0678301 -7.448 4.46839
-6.0178099 -7.9843102 4.5626798
-8.1334295 -6.71069 3.8865199
-8.22365 -6.92344 4.37501
-6.78547 -6.8793898 3.3836
-7.99055 -6.3288298 3.3032601
-5.9038301 -7.8330598 4.1222
-5.5451999 -7.4864998 3.4090099
-5.2823901 -5.0419698 8.8605299
-4.2979999 -5.7188301 8.7991304
-5.0805101 -4.5661802 8.5474901
-4.0494399 -5.3125501 8.5781498
-6.5921998 -4.2014098 8.9346199
-6.3534698 -3.66677 8.5879898
-4.9405398 -4.1343699 8.1422796
-3.92364 -4.8614502 8.1637897
-4.8190398 -3.7329299 7.6732702
-3.8371699 -4.39011 7.6417599
-6.1472902 -3.2502799 8.1728601
-5.9615502 -2.9154201 7.7164402
-6.7000198 -7.0890198 7.35393
-8.04457 -6.6968398 7.3134198
-7.8698702 -6.4242001 7.9321499
-6.8789501 -7.3412499 6.68154
-8.1859598 -6.9181299 6.6617999
-5.5103798 -7.4959502 7.42977
-5.6965399 -7.7679901 6.7397499
-6.47967 -6.8174 7.9758902
-5.2889099 -7.2200799 8.0628204
-7.09655 -7.5490899 4.9481401
-6.0234199 -8.0595703 5.0362601
-7.0694699 -7.5763202 5.4769902
-5.9579101 -8.0588303 5.56212
-8.28265 -7.04498 4.8790998
-8.3045998 -7.09196 5.43186
-4.4805002 -2.4369299 5.1484599
-3.58886 -2.79968 5.08951
-3.5566599 -2.9533401 5.5682302
-4.5134301 -2.3715999 4.6370201
-3.62783 -2.71187 4.6079302
-5.5555902 -1.93808 5.20227
-5.5699 -1.90704 4.6540999
-4.4614701 -2.5504501 5.6524501
-5.5662298 -2.0061901 5.7353201
-4.5583301 -2.3526599 4.1037302
-3.66259 -2.69084 4.0930901
-4.6419501 -2.42185 3.4735999
-3.7260301 -2.7590101 3.47031
-5.6273699 -1.9115 4.0947099
-5.74053 -2.0005 3.4674201
-6.9997201 -7.5100298 6.0504899
-5.8460202 -7.9636798 6.1178398
-8.2744398 -7.0524101 6.0278502
-6.2420998 -6.56955 8.4584999
-7.6743498 -6.1241002 8.4612999
-5.0817299 -6.97929 8.47651
-4.4751902 -2.7328 6.14463
-5.5952902 -2.13414 6.2370801
-4.54598 -2.9990001 6.6437302
-5.6648502 -2.33583 6.7273898
-3.55968 -3.1843901 6.05407
-3.6176 -3.5085199 6.5610399
-4.6761699 -3.3446701 7.1616402
-3.7253301 -3.92396 7.0949898
-5.7930102 -2.60674 7.2260699
-5.0690098 -8.5695801 5.1368699
-5.0618701 -8.4972897 4.6026802
-4.2771902 -9.0478096 5.2333999
-4.2506499 -8.9739704 4.6222401
-4.9874301 -8.5480499 5.7132602
-4.1936998 -9.0035601 5.8658099
-3.6414101 -9.4900599 5.3041701
-3.59392 -9.4378405 4.6688299
-3.55269 -9.4153004 5.9189901
-4.9637499 -8.3447304 4.1610398
-4.7182798 -8.1454496 3.6893101
-4.1802101 -8.7850504 4.14044
-4.0086298 -8.5395002 3.6421299
-3.4442401 -9.2855196 4.1056199
-3.15523 -9.0733204 3.5588801
-2.7086501 -8.8381901 2.9648499
-3.6357601 -8.3364 2.99266
-2.35867 -8.5033302 2.3684499
-3.42822 -7.9687099 2.3670199
-1.73502 -3.6700799 2.6729801
-2.3931601 -3.43362 2.71158
-2.37623 -3.6725299 2.09711
-1.74426 -3.44468 3.3259201
-2.39697 -3.2065401 3.4226601
-1.7097501 -3.8907599 2.0797701
-2.9617701 -2.9219799 4.0623398
-2.9478099 -2.93189 4.58846
-2.3703401 -3.0822101 4.02356
-2.3687899 -3.0776601 4.5790501
-3.0011201 -3.0109401 3.45474
-1.79285 -3.2346301 3.9807899
-1.79409 -3.21351 4.5761299
-2.91678 -3.05318 5.0901799
-2.8813701 -3.2616601 5.5767002
-2.3484001 -3.2441299 5.1339898
-2.3185501 -3.5213399 5.6543398
-1.7826999 -3.4247301 5.1841002
-1.76941 -3.77178 5.7478199
-2.87167 -3.5369999 6.04812
-2.8984799 -3.90482 6.5339699
-2.3032501 -3.84114 6.1142502
-2.2979 -4.2404099 6.5746298
-1.76114 -4.1433902 6.2175102
-1.73738 -4.5725698 6.6822901
-2.9555399 -4.3789001 7.0647101
-3.02106 -4.90241 7.6444802
-2.29548 -4.75526 7.1058602
-2.4265599 -5.2649598 7.63344
-1.78185 -5.0685401 7.1807299
-2.085 -5.48348 7.6842499
-3.19259 -5.3639698 8.1486902
-3.45752 -5.7518101 8.5305099
-2.73595 -5.6582699 8.1396904
-3.05089 -6.0034099 8.5804796
-2.4240301 -5.8443999 8.2495699
-2.75281 -6.1668701 8.7035704
-3.71561 -6.1174402 8.7604799
-3.9382801 -6.4565902 8.8316603
-3.32972 -6.3393698 8.8242598
-3.55353 -6.6593299 8.8857002
-3.04408 -6.4778199 8.9468403
-3.2742 -6.78267 9.0121698
-4.1062398 -6.7599101 8.7744503
-4.2466898 -7.0239601 8.6223698
-3.7137899 -6.9510298 8.8151598
-3.8324201 -7.2179699 8.6368399
-3.4374399 -7.0700202 8.9421997
-3.54585 -7.3510699 8.7433996
-4.37712 -7.2703199 8.3735399
-4.47089 -7.5518098 7.9870701
-3.9180601 -7.4858499 8.3429804
-3.9297099 -7.80404 7.91048
-3.60079 -7.64884 8.4134302
-3.54755 -8.0039597 7.9458699
-4.5183101 -7.8880301 7.4688401
-4.65203 -8.19345 6.8331299
-3.85781 -8.1922503 7.3592701
-3.83128 -8.5762901 6.8219199
-3.3719599 -8.4344902 7.37819
-3.2178199 -8.8929005 6.83356
-4.8283801 -8.4220695 6.25738
-3.9741299 -8.8520403 6.39885
-3.32216 -9.2361803 6.35432
-4.4028702 -7.9900198 3.22931
-4.5464201 -7.5864801 2.8108499
-4.5465598 -6.9410701 2.11638
-5.56914 -6.6341801 2.48312
-4.3593402 -6.17625 1.4669501
-5.3921499 -5.8009501 1.73053
-3.3998301 -7.3938198 1.79066
-3.2207401 -6.6182499 1.23536
-6.5790501 -6.2350602 2.5785401
-7.7735701 -5.73737 2.58687
-6.3246398 -5.4628401 1.83455
-7.4874902 -5.0300202 1.92181
-1.79401 -4.7249599 0.94718897
-2.59326 -4.4657302 1.01862
-2.8606601 -4.9516101 0.85885298
-1.66442 -4.3916502 1.25868
-2.4148901 -4.1469202 1.3177201
-2.04336 -5.1936998 0.76995999
-3.3917899 -4.1719999 1.15861
-4.31496 -3.8071401 1.36506
-4.66291 -4.3810802 1.17487
-3.0845799 -3.8506401 1.45298
-3.8773701 -3.3499999 1.88722
-3.70737 -4.69841 0.99646902
-4.7869701 -2.62712 2.72243
-3.83673 -2.9435501 2.71838
-5.0121598 -2.9767699 2.00842
-5.9166598 -2.22596 2.75752
-6.15836 -2.5953701 2.0947101
-3.0774901 -3.1839099 2.74576
-2.99475 -3.4842 2.0541899
-1.65965 -4.12606 1.62156
-2.3511801 -3.9070001 1.65713
-2.8275499 -3.73141 1.68383
-2.30825 -8.0084696 1.81617
-2.3285699 -7.49896 1.3885601
-4.0500598 -5.39328 1.09262
-5.03299 -5.0587802 1.27204
-3.1544499 -5.6412601 0.94992697
-2.3192401 -5.82866 0.81686002
-2.41944 -6.5248399 0.94514799
-2.1230099 -7.1796398 1.1123199
-5.3231401 -3.4529099 1.52534
-6.45929 -3.0887401 1.63405
-6.8002 -3.6758001 1.43668
-5.67167 -4.0376601 1.32397
-6.0130301 -4.7140799 1.40846
-7.1533899 -4.3278198 1.52241
-9.4070101 -6.2456102 3.8993101
-9.4304504 -6.4573002 4.3461099
-10.6547 -5.88691 4.0686402
-10.3372 -6.1407499 4.3607402
-9.3715897 -5.8547702 3.3615699
-10.894 -5.4490099 3.5782399
-9.5257702 -6.3143601 7.34025
-11.1817 -5.8734002 7.3819499
-11.0988 -5.63483 8.0912399
-9.6255703 -6.4816098 6.6567001
-11.2476 -5.9863601 6.6263599
-9.40452 -6.04913 7.99439
-9.5388203 -6.55304 4.8144202
-9.6509895 -6.5837698 5.3612299
-10.7332 -6.0896001 4.6853199
-11.0867 -6.0483499 5.2127399
-6.69766 -1.3365099 5.15552
-6.6606698 -1.37598 4.6329398
-7.7969799 -0.75429398 4.9184999
-7.4742699 -0.96337199 4.5854201
-6.7920699 -1.3158799 5.68648
-8.1051798 -0.554726 5.42766
-6.7719598 -1.40256 4.08883
-6.97683 -1.49784 3.4769499
-7.8622398 -0.86569297 4.1719198
-8.3040705 -0.89446098 3.56583
-41.1353 9.0841799 10.5619
-40.833401 8.7864199 10.714
-40.759499 8.6346197 10.1893
-41.332401 9.3764696 10.8684
-40.981499 9.06565 11.228
-41.2225 9.1190701 10.1966
-41.6091 9.5946598 10.4539
-41.806499 9.5137596 8.39077
-41.544899 9.3156099 9.0602903
-40.646999 8.4281197 8.7942696
-42.3442 10.1593 8.5985403
-42.122601 9.9747696 9.3284597
-42.133202 9.7544203 7.5794001
-42.566101 10.3403 7.6875701
-41.178799 8.82899 8.07868
-41.630798 9.1325102 7.4189601
-41.358601 9.1909304 9.6688004
-41.8731 9.7853699 9.9427099
-40.7258 8.5499601 9.60287
-27.741301 8.95158 6.6705699
-28.3188 8.1809397 6.7097902
-27.3806 9.7056904 6.6545801
-28.7847 13.5276 9.02847
-28.330999 13.1845 8.3011703
-29.2651 13.7853 9.8105402
-27.3839 11.6912 6.6458402
-27.2414 11.0557 6.6550498
-27.6157 12.2715 6.9035501
-27.9373 12.7697 7.5963602
-29.941 13.7507 11.8417
-29.7085 13.9153 10.6856
-31.137699 14.6865 10.1548
-30.5998 14.5263 9.3703899
-32.3078 15.3163 9.56112
-31.750799 15.1431 8.9121199
-31.695299 14.7328 10.928
-33.025398 15.4722 10.3598
-33.1749 15.7869 8.9780598
-34.0075 16.0338 9.7390099
-34.592098 16.4093 9.0349197
-32.640202 15.6081 8.4656401
-33.682499 16.0958 8.3985004
-33.163799 15.885 8.1592798
-29.087299 13.4942 7.2470999
-28.707701 12.9973 6.5788102
-30.153 14.1548 6.9386501
-29.720699 13.6687 6.5183702
-29.5403 13.9108 7.9330101
-30.655199 14.5591 7.5921202
-31.1453 14.7486 6.6553702
-31.656401 15.1218 7.2792201
-32.619701 15.6544 7.08676
-30.6835 14.2813 6.5039601
-32.154701 15.3397 6.45364
-31.689899 14.9039 6.49756
-32.1525 15.3967 7.8972402
-31.195801 14.8879 8.25315
-32.983898 15.8309 7.7003002
-30.055401 14.2588 8.63482
-28.4167 12.4186 6.5883598
-29.366899 13.0938 6.5757198
-29.1113 12.465 6.6191101
-28.213301 11.7827 6.61696
-30.290199 13.7192 6.5741401
-29.995899 13.101 6.6319299
-31.2673 14.3594 6.5820198
-30.9293 13.7442 6.6560302
-33.8242 16.246 7.77139
-33.6614 16.2194 7.0741
-34.810398 16.6147 8.2137403
-35.063499 16.823099 7.2076502
-32.3344 15.0407 6.6076798
-31.9282 14.4189 6.6987901
-33.411499 15.7264 6.6571999
-32.9133 15.0946 6.7698598
-32.805199 15.5841 6.4976301
-33.972 16.271 6.5171299
-33.278198 15.9912 6.3638
-34.513302 16.653601 6.3414102
-34.3293 16.2964 6.7561998
-33.7491 15.687 6.8827801
-34.892601 16.5972 6.9404402
-34.3125 16.069599 7.0615201
-34.9995 16.8207 6.5953999
-35.508999 16.9967 6.8021698
-40.819801 11.1047 14.2019
-40.7155 11.4771 14.4
-39.138199 10.422 15.69
-41.387402 11.1367 13.4565
-41.962601 11.9705 13.0094
-40.252602 10.5483 14.6121
-40.8923 10.5169 13.7924
-41.582001 9.8267002 11.3381
-41.156601 9.4566202 11.7756
-41.757 10.3469 11.9138
-41.270599 9.8916903 12.3737
-41.952801 10.1249 10.8792
-42.2052 10.7317 11.4212
-42.3153 10.3934 10.3359
-42.671902 11.0821 10.8172
-42.632198 10.6136 9.6524696
-43.260502 11.5015 9.9277697
-42.853901 10.758 8.8147602
-43.423698 11.3951 8.8817701
-43.018002 10.8617 7.8119502
-43.5378 11.403 7.8481898
-41.742599 10.8499 12.6125
-41.220402 10.2859 13.0398
-42.280201 11.3776 12.0803
-42.883801 11.8537 11.3479
-42.975498 12.6583 11.7587
-43.5131 12.3293 10.4943
-43.676399 13.1437 10.7096
-39.699799 15.0398 1.41053
-38.223202 14.0807 0.91179901
-37.078499 14.0502 1.26419
-40.4286 14.8456 1.22462
-39.297699 14.0964 0.72680002
-40.874401 15.7639 2.2299299
-41.393902 15.4197 1.90422
-38.819599 15.1547 1.61922
-40.2402 16.1199 2.66768
-41.0145 17.636101 7.4317498
-41.581799 17.460699 6.89996
-41.292301 17.3738 5.8605099
-41.144001 17.5769 8.5715399
-41.7696 17.434799 7.9340701
-40.2812 17.7327 8.0219498
-40.059101 17.5296 9.6781702
-40.812401 17.555201 6.2572699
-40.2374 17.701401 6.66749
-41.227001 16.9489 4.4566598
-40.524502 16.716299 3.6830599
-40.591301 16.982901 4.2404199
-41.521198 16.641399 3.8872001
-41.738602 17.1497 5.4663
-42.2048 16.8913 5.0354199
-40.935902 17.1805 4.89395
-42.0989 17.2342 6.50421
-42.6334 16.9848 6.1408801
-42.300098 17.2258 7.5570898
-42.9277 16.941 7.50104
-40.534599 17.3438 5.1598601
-40.007301 17.4907 5.3725801
-40.178101 17.0243 4.1956601
-39.550999 17.1033 4.2206202
-36.317402 12.8573 0.92521
-37.8232 13.0666 0.44378
-35.793701 11.4056 0.45506299
-34.9394 12.7583 1.73849
-34.0452 11.3606 1.51942
-32.794601 11.4102 2.8102901
-37.605499 7.0882602 4.8786602
-38.241901 7.5966802 4.6024599
-37.970798 7.2017002 5.5102301
-37.502399 7.12287 4.2031002
-38.609299 8.0081902 3.5680301
-37.268501 6.6518302 5.3565998
-36.279701 6.02912 4.9918599
-42.3451 9.9181805 6.4057598
-41.8423 9.6737299 5.0806298
-42.346001 10.2721 5.1018901
-41.9991 9.3813801 6.3538299
-41.1982 8.9805603 5.2917399
-42.685001 10.4441 6.4741101
-39.0453 8.1635199 4.3241901
-39.902 8.6690302 4.23002
-39.3479 8.0995398 5.5122299
-39.5742 8.7124796 3.3087599
-40.6591 9.4463301 3.3106101
-38.654499 7.69839 5.53439
-40.829399 9.1519699 4.42589
-40.163502 8.48487 5.3186102
-41.557598 9.8524199 4.07022
-43.083599 10.9051 6.5901999
-43.554798 11.3808 6.6589699
-42.842999 10.7801 5.2423902
-43.353401 11.2709 5.3949099
-42.255699 10.4984 4.0647998
-42.902901 11.0953 4.2249298
-41.626598 10.3031 3.1683199
-42.321899 10.9469 3.2284601
-33.2467 8.9070101 0.84286398
-33.623798 8.2512598 0.79270601
-30.996599 6.9485202 1.5700901
-35.942001 10.3944 0.218145
-36.7001 9.7264204 0.25934201
-32.586601 9.4342098 1.3661799
-30.545799 7.4209499 1.77378
-29.9893 7.8488498 2.3719499
-34.085098 12.9102 2.5776
-33.724701 13.2957 3.30071
-35.4855 14.2577 2.30621
-32.130001 11.7453 3.95576
-32.000702 12.4734 4.7133498
-36.151699 14.1017 1.74839
-37.8606 15.1748 1.85338
-39.005001 15.9973 2.5087199
-36.956299 15.1779 2.2009399
-38.0187 15.9325 2.6178701
-39.711399 16.5917 3.32758
-38.866798 16.569901 3.29408
-35.712101 17.206699 6.3874998
-35.8475 17.0723 6.3589201
-36.5569 17.4788 6.7003002
-36.165798 16.995501 5.4428802
-33.894001 14.7286 5.1119099
-34.4408 14.958 4.3365698
-34.666199 14.7375 3.6160901
-34.1376 15.1361 5.4356198
-34.352901 15.1304 4.90521
-33.610401 14.7182 5.7086301
-33.986301 15.2125 6.0206299
-33.771599 14.304 4.5323501
-33.240898 14.1678 5.3833098
-34.480202 15.5555 5.6367102
-34.879002 16.0121 5.7766199
-35.0797 15.8503 4.97715
-34.407799 15.7028 6.2224898
-34.8298 16.183701 6.4442401
-34.649799 15.4109 4.92238
-35.296001 16.503599 6.0081301
-35.250999 16.6565 6.7431302
-35.5303 16.3568 5.16008
-31.630501 9.7268801 2.4579799
-30.827101 10.0504 3.67661
-29.443199 8.2757196 3.11674
-29.0333 8.7989998 3.72541
-30.464001 10.6097 4.3150401
-30.2512 11.2319 4.9348202
-28.750799 9.4358597 4.3878698
-28.573099 10.1467 5.05198
-29.8325 12.4566 6.6832399
-28.9988 11.8215 6.65518
-29.8477 11.7724 6.7406301
-29.069 11.148 6.6956501
-30.7006 13.086 6.7234802
-30.635201 12.3698 6.7961402
-27.224701 10.4003 6.6532698
-28.148899 11.1321 6.63661
-28.264099 10.4501 6.66045
-28.5839 9.7157602 6.69976
-29.1185 8.9619904 6.75805
-29.3461 10.425 6.7520599
-29.8335 9.68046 6.8243399
-30.0744 11.0362 6.8138199
-30.5063 10.2865 6.8994398
-30.775999 11.5916 6.8834
-31.1196 10.8087 6.9785199
-35.09 16.594999 7.2421398
-34.603199 16.194599 7.3248801
-34.837898 16.2654 7.1763301
-34.740799 16.149799 7.70046
-34.158798 15.6444 7.4205899
-33.831299 15.4354 7.1701999
-33.831799 14.878 7.51965
-33.473202 14.6077 7.27738
-34.3475 15.6966 7.7645898
-34.051399 15.0413 7.84132
-33.632401 13.8539 7.6174102
-33.881802 14.1639 7.9291201
-33.780998 13.0768 8.1014404
-33.2416 13.5495 7.3799701
-33.533001 12.7261 7.6984601
-33.155201 12.441 7.4647498
-31.615299 13.7426 6.7786798
-32.512501 14.4003 6.8647699
-32.233898 13.5996 6.9555898
-31.4417 12.9822 6.8639302
-31.450899 12.1374 6.9586902
-32.1087 12.675 7.0510898
-32.185501 11.7319 7.1472201
-31.665199 11.2881 7.0556798
-33.2827 15.0028 6.98943
-32.937302 14.1693 7.09062
-32.726002 13.1593 7.1889601
-32.6964 12.1213 7.2803001
-36.9753 6.1553202 6.0395002
-36.736 5.73563 6.84235
-35.824699 4.9919 6.6819901
-37.7631 6.79353 6.2193198
-37.571301 6.4202299 7.15762
-35.9935 5.3959899 5.87222
-37.495998 6.35674 8.4310904
-37.051899 5.94876 8.0735302
-37.251701 6.31392 9.1710997
-36.749699 5.79457 8.9488697
-37.906799 6.7276001 8.6861801
-37.740501 6.8273602 9.2601404
-37.875801 6.61236 7.8559799
-38.049599 6.7596402 8.2343597
-36.441299 5.4000201 7.7466698
-35.618401 4.6991501 7.5663099
-36.171501 5.2252302 8.67978
-35.426899 4.5552902 8.4942503
-34.5196 3.86537 7.5906801
-34.634899 4.1256599 6.7076302
-33.050999 2.91594 7.7604799
-33.1222 3.17222 6.8533301
-34.410198 3.74979 8.4938803
-32.9776 2.80092 8.6442699
-34.685799 4.4928298 5.8726902
-34.605801 4.8943801 5.0875502
-33.083801 3.52333 5.9629002
-32.8964 3.9167299 5.1385999
-9.2771196 -5.6693201 8.5813999
-11.0549 -5.2184501 8.7286196
-11.2256 -4.4361 9.3838797
-9.06604 -5.1862102 9.0449104
-8.7132597 -4.6368999 9.3119402
-8.3501101 -4.0159302 9.33986
-10.4003 -3.8538201 9.6633997
-9.9803801 -3.20608 9.6874399
-9.6766901 -6.5652299 5.9846601
-11.2417 -6.0268898 5.8796401
-9.2369299 -5.2548499 2.69962
-10.956 -4.8097301 2.94468
-8.9790897 -4.5420098 2.0722101
-11.1112 -3.8406999 2.2635
-7.2087002 -1.73966 2.81373
-7.4795799 -2.1284399 2.2067201
-8.6740704 -1.13252 2.9238901
-9.01087 -1.5428801 2.34935
-6.8614402 -1.3687299 6.2201099
-6.9299402 -1.49769 6.74333
-8.3544397 -0.48747599 6.6409402
-8.2724504 -0.46709001 6.0261598
-7.0435801 -1.69073 7.2520199
-8.4470301 -0.59428 7.2142501
-7.23666 -1.93341 7.7523999
-8.6354704 -0.778561 7.7606702
-8.0879498 -3.3206201 9.1310101
-7.8411698 -2.6798 8.7391701
-9.7562799 -2.431 9.4900904
-9.7746801 -1.3511699 9.0447998
-7.5282602 -2.23295 8.2549496
-8.9985399 -1.0324399 8.3275003
-31.2885 2.5585401 6.0222902
-31.343201 2.1872101 7.0023799
-29.4832 1.2064 7.0351501
-31.052401 2.9702499 5.1092701
-29.4503 1.6084599 6.01085
-29.224199 2.05141 5.0295
-26.0103 -0.979855 8.8495798
-26.947901 -0.47038999 8.4303598
-28.6098 0.39331299 8.9277496
-25.1609 -1.35378 8.5329905
-25.7054 -1.0682 8.1086903
-24.929199 -1.48566 9.0471296
-24.6791 -1.5786999 8.7699203
-26.6852 -0.65719497 9.3255997
-25.200199 -1.3654 9.48207
-31.208 1.88899 7.9579301
-31.0667 1.72832 8.8542404
-29.257 0.84919202 7.9759498
-27.7362 0.699229 5.89009
-27.5679 1.18744 4.9129901
-26.238701 -0.077619001 5.7667499
-26.1376 0.437525 4.83533
-27.7444 0.27574101 6.8870001
-26.226601 -0.50121498 6.6966801
-27.522699 -0.075442001 7.7609901
-26.0658 -0.80641598 7.49581
-24.9765 -0.66698802 5.6359701
-24.9035 -0.15167201 4.7501502
-23.877001 -1.1156501 5.5046301
-23.7915 -0.614299 4.65025
-24.956499 -1.0846601 6.5117002
-23.869699 -1.52765 6.3499398
-23.8475 -1.89385 9.0977497
-23.882401 -1.86757 9.5327702
-22.7148 -2.20187 9.5442696
-23.931499 -1.8539701 8.7156601
-22.782801 -2.2246201 9.0850201
-22.952801 -2.19086 8.64252
-22.227301 -2.4943099 8.0721302
-22.507299 -2.4008501 7.5497398
-23.507999 -1.9989001 7.7066598
-21.1912 -2.8769 7.9113302
-21.451099 -2.81388 7.3604898
-21.9547 -2.5276301 8.5587797
-20.922001 -2.8668399 8.4416103
-23.217501 -2.1166999 8.20257
-21.745399 -2.51281 9.0652504
-20.6987 -2.7923601 9.0130901
-21.664101 -2.4232299 9.5784798
-20.5278 -2.5697601 9.7187901
-23.2024 7.7034302 5.6388302
-22.407301 7.6464 5.9662199
-22.5084 8.1238003 6.3201299
-22.5879 7.1672101 5.4946799
-22.2526 7.29321 5.7597699
-23.865801 7.4706998 5.1494298
-22.940201 6.85741 5.06249
-23.6087 8.3127899 5.9425602
-25.031401 8.37743 5.3544998
-27.0804 8.4293604 4.4242101
-26.885799 9.2060499 5.1599302
-25.558201 7.6215401 4.4728298
-27.3438 7.7498999 3.72369
-25.840401 6.9573498 3.7544501
-24.2798 6.9540501 4.50422
-23.187201 6.3502498 4.5012202
-24.5396 6.3267999 3.8270199
-23.3929 5.7452698 3.8819699
-21.805099 6.6609602 5.44594
-20.8708 6.1431699 5.4528399
-20.7386 6.54427 5.9030099
-21.9984 6.2673802 4.9993501
-21.003 5.6819501 4.95647
-21.6378 6.9900599 5.8204198
-22.159201 5.74157 4.45717
-22.327101 5.1461301 3.8662
-21.2983 4.54742 3.8030701
-21.1367 5.1342001 4.3923001
-21.5553 7.3586898 6.1886101
-21.4935 7.7665501 6.6127701
-20.6129 6.9289098 6.35321
-20.4909 7.2988 6.8362098
-20.0672 4.5482898 4.33324
-19.930901 5.1034098 4.9330902
-18.862 3.9304099 4.2497501
-18.7255 4.4830899 4.8804898
-20.247801 3.96947 3.7302201
-19.0574 3.3589499 3.6336901
-21.576 2.97528 13.2486
-21.25 2.30267 13.0438
-21.592199 2.0213201 13.1283
-21.004101 2.8868001 12.9912
-20.9774 2.45349 12.9435
-21.764601 3.7806201 13.3368
-20.990601 3.4969699 12.9887
-22.192101 2.84482 13.4499
-23.1427 4.20186 13.7415
-20.8204 1.75509 12.7886
-20.301701 1.24395 12.5142
-20.5222 0.80125397 12.4889
-20.635 2.1665499 12.7638
-20.1278 1.76985 12.5255
-21.046301 1.3762701 12.8022
-20.5128 2.66119 12.7504
-20.429399 3.22227 12.7115
-19.912901 2.91994 12.469
-19.9981 2.3413601 12.5154
-19.7201 0.71748298 12.2406
-19.030199 0.22176901 11.9833
-19.441099 -0.54006702 11.7777
-19.510599 1.34439 12.2827
-18.7672 0.94748402 12.05
-20.0208 0.212708 12.1795
-19.369801 1.98668 12.2689
-19.3025 2.5987301 12.211
-18.542299 2.3311501 11.9431
-18.5895 1.66313 12.0195
-18.153799 -0.202777 11.7475
-18.4436 -0.94728202 11.5275
-17.015499 -0.662229 11.4803
-17.334801 -1.35164 11.2852
-17.8514 0.57984197 11.8176
-16.6882 0.110353 11.5392
-17.6192 1.3760999 11.7624
-16.399099 0.94290203 11.4543
-17.607901 2.16013 11.6646
-16.2843 1.97299 11.2314
-19.121799 -2.5822501 10.1494
-19.9457 -2.32025 10.3064
-19.656601 -1.92627 10.8146
-19.368401 -2.8928599 9.5395002
-18.0215 -2.87819 10.0354
-18.1397 -3.2256501 9.4333401
-18.880699 -2.1579399 10.6964
-17.858601 -2.4410601 10.5605
-18.6728 -1.61114 11.1654
-19.4863 -1.3766201 11.295
-17.625299 -1.93813 10.9781
-13.8592 2.4049101 9.4604397
-14.9713 3.28636 9.5724697
-14.8203 3.5608399 8.9552002
-14.2079 2.1162701 10.0154
-15.2591 2.9595399 10.1857
-12.8441 1.45828 9.4200897
-13.3983 1.48058 9.8445101
-13.5539 2.6270399 8.8629704
-12.2614 1.5214601 8.8501596
-14.4526 1.65044 10.4612
-13.2338 0.90949601 10.0538
-13.1535 0.12779699 10.3222
-15.626 2.5344701 10.7203
-14.6655 0.994762 10.8093
-14.9257 0.21350101 11.0572
-15.2357 -0.57495898 11.1679
-13.2756 -0.67700797 10.5646
-13.5502 -1.42742 10.6962
-12.1605 -2.95825 10.1467
-12.8729 -3.3819499 10.0138
-14.3984 -2.5445001 10.5152
-11.7503 -2.33218 10.1687
-13.9127 -2.06144 10.6628
-11.7658 -5.6259799 4.4078002
-12.492 -5.0820799 3.9346299
-14.3902 -4.6989698 4.5942202
-12.5972 -5.47293 4.9630399
-24.2134 -1.73411 8.3379002
-24.5646 -1.56636 7.8780699
-24.8241 -1.36876 7.2727299
-23.7423 -1.8154 7.0949602
-22.7292 -2.21892 6.9310699
-21.6327 -2.65096 6.72576
-21.686199 -2.36731 5.9861202
-22.836 -1.92582 6.1937399
-22.8078 -1.5181 5.36479
-22.689501 -1.02698 4.53163
-21.6061 -1.9612499 5.1701999
-21.453501 -1.46574 4.3621802
-20.314899 -3.1488299 6.4437699
-20.2906 -2.8914499 5.6845698
-18.7293 -3.6854601 6.1133299
-18.638599 -3.45227 5.3133502
-20.211901 -3.2655799 7.1192899
-18.7118 -3.75226 6.86131
-19.572901 -3.0984399 8.9011497
-18.2554 -3.4628301 8.7960596
-18.4032 -3.61605 8.1594896
-19.774799 -3.2202499 8.2885103
-20.007999 -3.27896 7.7143502
-18.579901 -3.7154801 7.5300999
-16.334299 -2.3434801 10.7005
-16.6166 -2.7696099 10.3702
-15.0356 -2.8714001 10.3386
-15.6056 -3.0446701 10.2016
-15.9426 -1.86882 10.9472
-15.575 -1.2789299 11.1198
-12.9962 -5.4305801 5.7219801
-13.0731 -5.4136901 6.56464
-14.9189 -4.8147202 5.65133
-15.02 -4.8203402 6.5475702
-13.0277 -5.3303599 7.3845901
-14.9733 -4.74617 7.3762298
-14.8884 -4.59691 8.1205196
-12.9576 -5.1376801 8.132
-13.9602 -3.54737 9.8944101
-15.2759 -3.47382 9.8579197
-13.2394 -4.24828 9.3710003
-14.9812 -3.9825599 9.3537397
-12.9571 -4.79284 8.78724
-14.8636 -4.3586302 8.7753897
-16.681999 -3.2121201 9.9215298
-16.6521 -3.6147201 9.3712101
-16.6668 -3.89693 8.7613201
-16.75 -4.0771999 8.1102695
-16.872801 -4.2009401 7.41433
-16.9485 -4.2660098 6.6503901
-16.893 -4.23351 5.80514
-16.759501 -4.0085502 4.9328098
-12.8216 -4.4098001 3.3015699
-14.7494 -4.0012999 3.7167799
-13.1544 -3.62273 2.7074599
-14.9301 -3.30861 3.0820899
-20.1604 -2.4813199 4.8835402
-19.994801 -1.96367 4.1154699
-18.494101 -3.0258501 4.52244
-18.3678 -2.47124 3.8027
-16.670401 -3.53739 4.1284599
-16.667999 -2.9244201 3.4509301
-17.447399 3.21699 4.1020398
-17.321301 3.76824 4.7554102
-15.8183 2.39305 3.8898301
-15.6709 2.9448299 4.5755601
-17.6401 2.6512201 3.4835401
-16.037399 1.8317 3.2699399
-14.0058 1.47865 3.6415401
-13.7603 2.0176499 4.39817
-12.1158 0.52699202 3.37712
-11.3865 0.87627602 4.31602
-14.3296 0.93137503 3.00705
-12.5476 0.021969 2.7425201
-10.3128 -0.37078899 3.1192999
-9.69596 -0.16075499 3.8013899
-10.7358 -0.81959802 2.5227201
-8.8185301 -0.316928 4.4455099
-9.5270996 0.179538 4.9577799
-19.563299 6.4293699 6.48877
-18.3867 5.82969 6.6135502
-18.2981 6.1591902 7.1796899
-19.7048 6.0338702 5.9863601
-18.527 5.4393201 6.0469499
-19.4352 6.7775698 7.0114899
-19.8218 5.5970302 5.4800701
-18.632601 4.9896002 5.4773202
-17.039301 5.07409 6.7435002
-17.0609 5.3852901 7.3838401
-15.4548 4.1487198 6.8545899
-15.4947 4.3350701 7.7083101
-17.153 4.7257199 6.0703201
-15.5318 3.8789301 6.07235
-17.242701 4.28338 5.4106398
-15.5943 3.4621 5.3078299
-9.8674097 0.50981301 5.6696601
-11.6973 1.51867 5.3424401
-9.9671803 0.64914298 6.4278598
-11.7677 1.8108799 6.2117801
-10.0306 0.63989502 7.1145
-10.1599 0.51543403 7.73207
-11.8137 1.8282501 7.6874499
-11.7853 1.8983901 7.0003099
-12.0605 0.428653 9.5240803
-11.5945 -0.62328601 9.74646
-11.0702 0.241872 8.9235497
-10.4524 0.32789099 8.3225403
-11.9305 1.6718301 8.28302
-11.5248 -1.55864 10.0061
-13.6477 3.0799 6.9232898
-13.683 2.9019499 6.0973902
-13.5681 3.0555 7.6649199
-13.6881 2.5252299 5.2399001
-13.4807 2.86643 8.2873602
-14.919 3.8603699 8.3879099
-31.1077 13.9865 12.7346
-32.115799 14.1505 13.5707
-32.722099 14.9363 11.9975
-34.105202 15.7223 11.2771
-33.7925 15.1284 12.767
-35.250999 15.955 11.921
-33.042198 14.2769 14.2037
-33.960201 14.3715 14.7251
-34.8069 15.3043 13.3021
-36.3703 16.172199 12.3225
-35.7864 15.4342 13.7228
-37.390202 16.3095 12.6188
-39.310101 17.724199 8.5259104
-38.053398 17.559999 8.8782301
-37.409599 17.1819 9.9871502
-39.501499 17.805 7.1004
-38.5093 17.7948 7.5727
-38.7607 17.4284 9.9113197
-37.737 16.898701 11.2057
-38.785198 17.016199 11.3573
-36.475201 16.646601 11.0001
-35.188702 16.3517 10.5156
-35.954102 16.8256 9.7148199
-36.4603 17.1679 8.8846798
-37.061199 17.5051 7.9446902
-39.362099 17.638 5.62363
-38.596401 17.742901 5.9411998
-38.815399 17.1901 4.3348899
-37.989601 17.2258 4.5156102
-36.181702 15.2216 2.7014101
-37.110401 15.8944 2.94098
-35.536999 15.2826 3.33073
-36.286598 15.858 3.4456899
-35.009499 14.4899 2.92962
-38.001099 16.5674 3.4546299
-37.116001 16.5263 3.7699499
-37.701302 17.740601 6.3536
-37.0765 17.1542 4.80229
-36.2439 16.427299 4.29245
-35.605701 15.836 4.1047902
-35.030499 15.3443 4.0651398
-33.691601 13.8096 3.9263599
-32.793499 13.5028 5.0478702
-37.744801 13.37 16.0686
-37.171799 13.7652 15.9736
-38.238098 12.9129 16.098301
-39.4119 14.3399 14.779
-39.856201 13.8874 14.7668
-41.298599 14.7171 13.3591
-38.904499 14.7428 14.7288
-40.8834 15.1342 13.4098
-40.381001 15.5004 13.4199
-36.5257 14.0933 15.809
-35.7724 14.3155 15.5524
-38.305401 15.0925 14.6193
-37.5839 15.3463 14.4189
-39.7616 15.8441 13.3757
-39.052101 16.1297 13.2183
-34.894402 14.4004 15.1837
-36.730099 15.4606 14.1055
-38.2743 16.297701 12.933
-39.518799 16.932699 11.6834
-40.497101 17.3123 10.471
-40.126598 16.697701 12.0306
-40.893299 17.044201 10.9576
-40.790199 16.3874 12.1777
-41.459202 16.748199 11.1124
-41.445702 16.0686 12.1378
-42.0951 16.485901 10.9665
-42.004002 15.7744 11.997
-42.6744 16.288601 10.6116
-42.450001 15.4118 11.8613
-43.3032 16.047701 10.0463
-42.2952 17.1628 8.5647602
-42.671501 16.953501 8.7051601
-42.1422 17.0711 9.4259396
-42.447102 16.937901 9.3660202
-41.8242 17.323601 8.8720598
-41.819599 17.2031 9.4806299
-41.248402 17.4072 9.5035696
-41.463001 17.182699 10.0711
-41.881302 16.952999 10.2167
-42.3894 16.7743 9.9884996
-42.855499 16.676701 9.4319496
-43.291401 16.611401 8.6505804
-38.6222 12.3858 16.0721
-38.864399 11.7881 16.021999
-38.978401 11.1367 15.9488
-40.622002 12.0913 14.5493
-41.9767 12.8568 13.1838
-41.883999 13.5775 13.2196
-40.498199 12.765 14.6192
-43.007999 13.4584 11.8955
-43.754101 13.9348 10.7091
-43.720699 14.6773 10.5823
-42.9543 14.2095 11.8613
-40.236301 13.3681 14.6964
-41.647701 14.203 13.2785
-42.769501 14.879 11.8238
-43.572701 15.3648 10.4005
-37.745701 6.7339802 14.1496
-37.9324 7.3115301 14.808
-37.520401 6.2157202 13.4096
-38.1022 7.9298401 15.3386
-38.295601 8.6114597 15.7056
-39.2174 8.6101198 14.5111
-39.394001 9.1687603 14.8048
-40.0075 9.1451502 13.9126
-39.986 9.4304895 14.2536
-39.099899 8.1055899 14.0227
-39.9804 8.7576704 13.3974
-40.618099 8.9757204 12.2433
-40.688 9.3534899 12.8606
-40.488998 8.62076 11.6206
-39.909801 8.3704796 12.7758
-39.782799 8.0043802 12.1089
-40.327 8.3144398 11.0175
-40.154099 8.0659704 10.423
-39.5853 7.6624999 11.4542
-39.3386 7.3517199 10.8141
-38.973499 7.63063 13.3994
-38.800301 7.1929102 12.7047
-37.256199 5.78408 12.6349
-36.975899 5.4437299 11.859
-38.561199 6.8028798 11.9955
-38.2771 6.4676199 11.293
-38.563 9.3846903 15.8729
-39.716499 9.82582 14.8541
-40.374802 9.8985901 14.0831
-40.647301 9.7006798 13.4558
-35.8619 4.8495302 9.2221403
-36.2313 4.94315 9.7525597
-35.436298 4.7849302 8.6688499
-38.5313 6.9186401 7.4153299
-38.963501 7.0543799 7.8929501
-38.159199 6.4492102 8.4681902
-39.242298 7.4331498 6.8667102
-39.654598 7.5697598 7.3566899
-38.0065 6.8460102 6.9260898
-38.728401 7.3659902 6.3751402
-37.7337 6.32692 7.9862199
-37.2257 6.2523198 7.48457
-36.856201 5.6504502 8.5796404
-36.379002 5.5732002 8.0548697
-37.2616 5.76056 9.0790396
-39.870201 7.8727002 6.3369899
-40.227699 7.98876 6.8554301
-40.414799 8.2332001 6.34337
-40.765499 8.3554096 6.3413801
-39.388302 7.8070502 6.3963699
-39.865002 8.1079102 6.5384202
-36.490501 5.0312901 10.2438
-36.652599 5.1153898 10.7085
-36.754501 5.2150102 11.1736
-37.551601 5.8771 9.5467396
-38.465698 6.60218 8.9317598
-38.710098 6.7881198 9.4626904
-37.736301 5.9922299 9.9938202
-37.972301 6.1844902 10.5921
-39.053799 7.0689802 10.1646
-39.270599 7.25179 8.3704596
-39.656502 7.5714598 9.1014099
-39.965099 7.8084698 7.8796902
-40.538502 8.2369804 7.4374499
-41.035999 8.5726099 6.9462199
-39.960999 7.8478599 9.7982903
-41.578999 8.9208803 6.2733898
-40.7216 8.4786196 6.11619
-41.102001 8.5790901 6.3185501
-40.596001 8.31497 6.73423
-40.581902 8.3458004 6.5750999
-40.3223 8.1940002 7.1208301
-40.0121 8.1917496 6.7986598
-39.848701 8.0690899 7.2729301
-38.496799 7.3421302 6.2718801
-38.405102 7.0739899 6.9865198
-39.2234 7.7828698 6.2543402
-39.121498 7.53374 6.9526901
-39.962002 8.1354504 6.1975498
-39.841599 7.92487 6.8501301
-39.753799 7.85537 7.4621301
-39.070702 7.4334502 7.5721202
-39.581402 7.85957 7.8938999
-39.0299 7.4665298 8.1328001
-38.422001 7.00247 7.6327901
-38.454102 7.0540199 8.2119503
-37.428001 6.8225598 6.42764
-38.141899 7.3351202 6.4441199
-36.8223 6.84516 6.49575
-37.4795 7.3197899 6.5929499
-36.678101 6.2318702 6.96527
-36.107201 6.2673001 6.4303598
-38.7663 7.74125 6.5617599
-38.075199 7.7006402 6.7076001
-38.5509 7.9780998 6.85883
-39.223999 8.0140104 6.7189698
-35.875999 5.5536199 7.5134201
-35.0042 4.78122 8.1124201
-34.538399 4.8284101 7.5511899
-35.345299 5.5962 6.9502401
-33.969501 4.8948398 6.9896498
-33.057899 4.91675 6.5468001
-34.7551 5.70503 6.4900098
-34.081299 5.9261498 6.6217198
-34.805801 6.5926299 6.6937499
-35.504902 6.37638 6.5556302
-39.4118 8.10886 6.9764299
-38.812 8.11724 7.0946202
-38.829601 8.0922804 7.4728298
-39.336899 8.0229797 7.3991599
-36.160099 6.9218798 6.6368399
-36.7612 7.3682599 6.72999
-35.407799 7.1321702 6.77703
-35.947601 7.5752702 6.86835
-37.334702 7.7371998 6.83249
-36.474701 7.9380398 6.9640098
-36.9673 8.2448502 7.0829101
-37.836899 8.0370398 6.9655499
-38.179699 8.2416496 7.1700001
-37.3484 8.4920101 7.26371
-37.548599 8.6326303 7.5469198
-38.298401 8.3045797 7.4998002
-39.133499 7.8240099 7.9677701
-38.684799 7.9298701 8.0035105
-38.4911 7.6813998 8.6341
-38.922298 7.58707 8.6110897
-38.219601 8.2096796 7.9877601
-37.562801 8.6188002 7.9683599
-37.466099 8.4147301 8.5394602
-38.046799 7.97368 8.6054401
-38.381699 7.1398101 8.7247496
-38.270401 7.3601198 9.2191696
-37.873501 7.6293001 9.2870398
