# .PCD v.7 - Point Cloud Data file format
VERSION .7
FIELDS x y z
SIZE 4 4 4
TYPE F F F
COUNT 1 1 1
WIDTH 1596
HEIGHT 1
VIEWPOINT 0 0 0 1 0 0 0
POINTS 1596
DATA ascii
-56.153099 2.5841801 36.679001
-56.053799 2.88012 36.623199
-56.0107 2.7523501 36.593498
-55.943001 3.10254 36.524799
-55.879902 2.92522 36.492001
-56.1269 2.4797399 36.652802
-55.9799 2.6415999 36.571499
-56.286098 2.3311501 36.729801
-55.875 2.78193 36.498699
-56.444 2.19243 36.808498
-58.8834 -0.88885498 35.9035
-58.9804 -0.83916801 35.935799
-58.973499 -0.74079502 35.934399
-58.8633 -1.01061 35.909901
-58.979401 -0.95433998 35.944599
-58.763699 -0.936261 35.878399
-58.7159 -1.05669 35.880798
-58.885502 -0.79679799 35.902699
-58.779598 -0.85305798 35.879002
-58.463501 -0.450856 35.937901
-58.422298 -0.50577497 35.923599
-58.566399 -0.584656 35.895
-58.608898 -0.51854801 35.908298
-58.5854 -0.71912301 35.871399
-58.6712 -0.649459 35.882198
-58.634998 -0.77716398 35.8661
-58.7383 -0.709916 35.879601
-58.422798 -0.77368498 35.862598
-58.462101 -0.83279198 35.8545
-58.495899 -0.653023 35.884499
-58.356998 -0.569543 35.910198
-58.729599 -0.57483703 35.897701
-58.818501 -0.63388503 35.898899
-58.658298 -0.838175 35.863499
-58.506802 -0.88937801 35.8508
-58.548199 -0.92724502 35.850399
-58.772099 -0.77856803 35.879601
-58.656502 -0.900868 35.861099
-59.063099 -0.79025501 35.978802
-59.0499 -0.68596202 35.977299
-59.136101 -0.74480999 36.0308
-59.126999 -0.61233199 36.042801
-59.072201 -0.90105599 35.989601
-59.149799 -0.84918499 36.0438
-59.084999 -1.02679 36.015598
-58.978298 -1.09866 35.9683
-59.169102 -0.96193099 36.0714
-59.022999 -0.58647197 35.9785
-59.079201 -0.51850599 36.035702
-58.951599 -0.64460099 35.933998
-58.867802 -0.71059698 35.901798
-59.253899 -0.16258299 36.503799
-59.2491 -0.203261 36.547298
-59.260601 -0.25391501 36.6133
-59.2943 -0.34950599 36.5009
-59.321098 -0.39500499 36.569698
-59.2103 -0.152656 36.7253
-59.286201 -0.305076 36.688702
-59.235001 -0.210379 36.809799
-59.118401 -0.42823699 36.103802
-59.163502 -0.47697601 36.112499
-59.243 -0.89331502 36.132599
-59.303501 -0.82575101 36.195099
-59.270599 -0.73462701 36.163101
-59.216801 -0.793284 36.102901
-59.3074 -0.444599 36.3862
-59.3377 -0.490693 36.4473
-59.301899 -0.53364497 36.282299
-59.341702 -0.607952 36.330502
-59.4146 -0.721237 36.406101
-59.378201 -0.73026299 36.326801
-59.394402 -0.62882799 36.441799
-59.345699 -0.76854098 36.257999
-59.3088 -0.67569602 36.2271
-59.3172 -0.35200599 36.764702
-59.264198 -0.25795799 36.889099
-59.3559 -0.44069499 36.648102
-59.379299 -0.53382897 36.532398
-59.2561 -0.50278002 36.193001
-59.263599 -0.54837298 36.190899
-59.236401 -0.50650102 36.1675
-59.234501 -0.589495 36.1404
-59.203602 -0.50174898 36.1366
-59.192699 -0.60943002 36.0947
-59.281101 -0.60626799 36.202999
-59.2467 -0.66151798 36.1422
-59.1982 -0.70459598 36.0863
-59.2742 -0.234203 37.2355
-59.227299 -0.185129 37.130199
-59.153801 -0.060993001 37.444
-59.111801 -0.026509 37.340801
-58.973301 0.16593701 37.7136
-58.9356 0.178858 37.605301
-59.1437 -0.038408 36.8531
-59.046299 0.094068997 37.0257
-59.1646 -0.097349003 36.9515
-59.055599 0.04448 37.139099
-59.192501 -0.143296 37.041302
-59.079102 0.0062790001 37.243801
-58.903198 0.24956401 37.253502
-58.891899 0.219494 37.3769
-58.905899 0.196629 37.495701
-57.081501 -4.1132598 35.7337
-56.984299 -4.2095199 35.708698
-57.044498 -4.0315099 35.698002
-56.9506 -4.1297698 35.677299
-57.1889 -4.0096202 35.754002
-57.144798 -3.92454 35.712898
-56.887901 -4.30161 35.6749
-56.858799 -4.2245202 35.647701
-57.318298 -3.8842199 35.772499
-57.255699 -3.7874899 35.722401
-57.4776 -3.71703 35.7943
-57.3843 -3.5285599 35.710602
-57.666801 -3.5055399 35.825001
-57.591999 -3.31006 35.752899
-68.816399 1.49528 38.103401
-68.498001 1.58076 38.484798
-68.290901 1.0758801 38.369099
-69.136497 2.11568 38.088699
-68.6371 2.2865601 38.658001
-69.087097 1.31293 37.629398
-69.442299 1.9060301 37.5667
-68.523903 0.957699 38.048401
-68.758797 0.79310101 37.622799
-69.499802 2.7819099 37.943699
-69.125702 3.0578301 38.436501
-69.841202 3.4379499 37.721901
-69.492897 3.71156 38.187599
-69.809898 2.54896 37.4132
-70.147003 3.2076399 37.206699
-62.402699 -2.6559899 34.8237
-62.664001 -2.86534 34.8843
-62.661201 -2.9332099 34.949299
-62.188301 -2.49593 34.730701
-62.395901 -2.72768 34.894901
-62.178501 -2.57182 34.808899
-70.114799 4.0944099 37.478401
-70.365601 4.8779001 37.1716
-70.027298 5.09376 37.5933
-70.429497 3.87956 36.979301
-70.696404 4.6346898 36.689098
-69.777702 4.34304 37.917
-68.229401 0.50461602 37.991299
-68.022697 0.63627398 38.294601
-67.723701 0.253281 38.242298
-68.456596 0.35541299 37.586601
-67.936996 0.123584 37.935299
-68.174797 -0.010859 37.533401
-62.925301 -3.0796001 34.847099
-62.924301 -3.1489899 34.911499
-63.166698 -3.26647 34.7057
-63.166801 -3.3386199 34.770699
-62.9585 -3.1707599 34.972401
-63.205002 -3.3585501 34.827301
-63.262501 -3.33845 34.8657
-62.691101 -2.95819 35.016899
-63.0084 -3.15415 35.016602
-62.7342 -2.9463601 35.069801
-63.065498 -3.1054599 35.044701
-63.112598 -3.0543001 35.057499
-62.820801 -2.85413 35.1255
-63.330399 -3.28789 34.888901
-63.386398 -3.2372501 34.8979
-62.781601 -2.90253 35.105701
-63.3204 -3.27075 35.2355
-63.618099 -3.45263 35.042801
-63.7267 -3.4681301 35.129002
-63.236198 -3.2158301 35.152199
-63.522999 -3.4073801 34.966301
-63.002701 -3.05808 35.352501
-62.933601 -3.0018201 35.260399
-63.4114 -3.29722 35.327099
-63.072498 -3.0901501 35.450001
-69.651001 0.220146 34.5135
-69.441498 -0.057987001 34.133598
-69.673599 0.239223 33.290901
-69.406799 0.051635001 35.040798
-69.208702 -0.216383 34.831001
-69.7416 0.45830199 35.062
-69.530899 0.256479 35.258999
-69.937599 0.52429998 34.0975
-70.041603 0.79949701 34.8423
-57.177299 -5.3785701 35.286201
-57.270901 -5.3558202 35.383598
-57.342602 -5.4142399 35.1632
-57.4431 -5.3955698 35.2472
-57.0797 -5.37462 35.172501
-57.230099 -5.4065599 35.069801
-57.5476 -5.15205 35.598801
-57.648701 -5.0464401 35.645802
-57.7047 -5.19872 35.4436
-57.800201 -5.0936899 35.491299
-57.449299 -5.2434902 35.5387
-57.6133 -5.2893801 35.385899
-61.741199 -2.63429 34.341599
-61.8288 -2.8123701 34.287498
-61.715401 -2.7010901 34.3657
-61.801201 -2.87953 34.3074
-61.651901 -2.48365 34.3848
-61.6325 -2.5526199 34.412601
-62.6581 -3.71861 33.792099
-62.6534 -3.7842901 33.806599
-62.905701 -3.8406999 33.673599
-62.409199 -3.6036401 33.928501
-62.406101 -3.6697299 33.939701
-62.913898 -3.77479 33.655998
-61.558399 -2.36993 34.4245
-61.548302 -2.4421501 34.454102
-61.4753 -2.2976999 34.4622
-61.472301 -2.3708 34.490398
-63.144001 -3.7867701 33.544498
-63.3545 -3.7617099 33.455299
-63.1366 -3.8513899 33.560398
-63.3554 -3.8225999 33.4659
-61.9259 -3.00857 34.2164
-62.0462 -3.21789 34.133099
-61.901901 -3.07745 34.234001
-62.0299 -3.2875199 34.148499
-63.577599 -3.812 33.347401
-63.579399 -3.8507099 33.2808
-63.7715 -3.77461 33.230499
-63.349998 -3.87714 33.428101
-63.3456 -3.9207001 33.358299
-63.5695 -3.76458 33.384998
-63.764599 -3.7410901 33.292599
-63.7472 -3.70104 33.3265
-61.667599 -2.7657499 34.359402
-61.5886 -2.6205201 34.416599
-61.529301 -2.68857 34.397301
-61.7537 -2.94274 34.292599
-61.609501 -2.8310399 34.328999
-61.699902 -3.0043399 34.252899
-61.388302 -2.3509099 34.587101
-61.355301 -2.36272 34.627602
-61.333302 -2.38587 34.595699
-61.440701 -2.3483801 34.608398
-61.4133 -2.3522601 34.656601
-61.401798 -2.3143799 34.5536
-61.450802 -2.3178799 34.567001
-61.3736 -2.36255 34.566601
-61.393002 -2.3176899 34.540699
-61.511501 -2.51127 34.465401
-61.455002 -2.57618 34.457001
-61.443001 -2.4358599 34.506599
-61.391201 -2.49052 34.509499
-63.119499 -3.90977 33.525002
-62.882 -3.8999701 33.640301
-62.8582 -3.9489501 33.5709
-63.105099 -3.95682 33.454601
-61.8578 -3.1429801 34.214699
-61.809799 -3.2036099 34.168999
-61.950199 -3.41484 34.075401
-61.991699 -3.3548601 34.125999
-62.628502 -3.8432701 33.7738
-62.599998 -3.8935101 33.706299
-62.380199 -3.7302101 33.908001
-62.349098 -3.78284 33.844299
-61.394001 -2.3885901 34.540401
-61.347599 -2.4275701 34.5564
-61.418098 -2.33288 34.5201
-63.555099 -3.70929 33.379799
-63.7234 -3.65171 33.323502
-61.398998 -2.25775 34.522999
-61.4482 -2.26562 34.528801
-61.392601 -2.2554901 34.515202
-61.418701 -2.26405 34.494499
-61.547001 -2.89347 34.277699
-61.644299 -3.0640099 34.193001
-61.490501 -2.9507599 34.223
-61.593102 -3.12288 34.1283
-61.462002 -2.74947 34.3564
-61.4011 -2.7995601 34.3134
-61.386002 -2.6289301 34.429001
-61.319599 -2.66976 34.3993
-61.323601 -2.5285101 34.497898
-61.253101 -2.559 34.483398
-63.093601 -3.9909201 33.363201
-63.34 -3.9528899 33.269501
-63.083801 -4.0151 33.2687
-63.332401 -3.97628 33.178799
-62.836201 -3.98629 33.478001
-62.818501 -4.0139499 33.379902
-61.762501 -3.25844 34.1022
-61.9105 -3.46456 34.001202
-61.717999 -3.3124599 34.027699
-61.873402 -3.5102899 33.916801
-62.419998 -2.7577901 34.974602
-62.194199 -2.605 34.897499
-62.456902 -2.75109 35.0396
-62.2216 -2.5999999 34.971401
-63.5653 -3.42448 34.650799
-63.627602 -3.37644 34.657902
-63.7537 -3.5176001 34.368999
-63.8209 -3.47136 34.370098
-63.488899 -3.4749601 34.631901
-63.670601 -3.5674601 34.3587
-63.379101 -3.4089701 34.488701
-63.3815 -3.4797399 34.5499
-63.547298 -3.50846 34.236599
-63.5532 -3.57409 34.292
-63.424301 -3.49736 34.599998
-63.599899 -3.5902901 34.334301
-63.8853 -3.5814199 34.090801
-63.957401 -3.5345199 34.0797
-63.968601 -3.6260099 33.855499
-64.044502 -3.57774 33.835999
-63.796398 -3.6310101 34.093498
-63.877899 -3.67395 33.8652
-63.664501 -3.5739 33.988098
-63.745098 -3.6119399 33.7663
-63.759998 -3.66732 33.814301
-63.6744 -3.6336901 34.039501
-63.722401 -3.65135 34.076302
-63.805801 -3.68909 33.8494
-63.869202 -3.70838 33.6623
-63.934101 -3.70085 33.684299
-63.9189 -3.7118001 33.516899
-63.977501 -3.7137799 33.544701
-63.828098 -3.68065 33.626598
-63.881599 -3.67642 33.4828
-64.021599 -3.65698 33.681702
-64.097603 -3.6093099 33.666
-64.059898 -3.67608 33.5532
-64.133797 -3.6303999 33.547199
-63.807701 -3.6270599 33.584
-63.856998 -3.62305 33.4468
-63.887699 -3.60761 33.354599
-63.914902 -3.66101 33.3829
-63.885502 -3.59815 33.305302
-63.921398 -3.6539099 33.3158
-63.570702 -3.88326 33.195099
-63.763699 -3.8060601 33.145901
-63.556599 -3.9101901 33.107399
-63.748402 -3.8355899 33.056801
-67.964104 1.4263999 26.6933
-67.810501 1.06279 26.9851
-68.223503 1.6422499 26.8013
-68.007004 1.08165 27.258699
-68.706497 0.203925 37.047199
-68.957199 0.079470001 36.390701
-69.231499 0.44364199 36.416401
-68.437599 -0.13802999 36.999802
-68.707497 -0.234101 36.335098
-69.001701 0.61046302 37.068501
-71.2911 5.0672798 35.759998
-71.609497 5.8811898 35.261799
-71.3125 6.4334302 35.752399
-71.491096 4.4941902 35.1628
-71.7976 5.2185402 34.6959
-70.993698 4.29249 36.128899
-71.2033 3.8134401 35.496899
-70.993103 5.5151 36.282001
-71.560097 3.81059 34.464401
-71.849197 4.4342699 34.0009
-71.496002 3.16944 33.6385
-71.7481 3.69837 33.1562
-71.281898 3.2265401 34.793701
-71.238899 2.6623399 33.9893
-70.849899 1.81159 33.322701
-71.100601 2.2618599 33.041
-70.627602 1.62351 32.218201
-70.875999 2.0864401 31.9133
-70.569099 1.37335 33.558998
-70.3592 1.18214 32.532299
-70.972603 2.1833799 34.2575
-70.683601 1.71066 34.471199
-70.7155 3.59044 36.3974
-70.922401 3.18186 35.750301
-70.418999 2.93402 36.6147
-70.618698 2.57459 35.961498
-69.335098 1.1004 37.050499
-69.700104 1.66739 36.9683
-69.549698 0.88180202 36.3881
-69.9049 1.3966399 36.296501
-71.004402 2.6784 35.049599
-70.705597 2.1412799 35.259399
-72.478897 8.3263302 32.840401
-72.636002 7.4629502 32.282501
-72.235901 7.5098701 33.808998
-72.410896 6.7230301 33.242199
-72.173401 9.05089 33.3367
-71.926498 8.1613798 34.304298
-72.585602 6.4654498 31.645901
-72.311798 5.4576502 30.9321
-72.403099 5.7743301 32.556801
-72.185097 4.8269801 31.755501
-71.848396 4.5788598 30.170401
-71.287598 3.88146 29.4275
-71.7771 4.0517502 30.902201
-71.2724 3.44368 30.1311
-69.6091 2.57319 27.6838
-69.523499 1.99113 28.314301
-69.002899 1.69612 27.843399
-70.152298 2.9236801 28.1877
-70.162399 2.2978499 29.1752
-69.0961 2.24981 27.285299
-71.931503 6.6937099 34.617001
-72.113998 5.9669399 34.056301
-71.627899 7.3018799 35.102699
-72.141296 5.0908999 33.358501
-71.986198 4.2431698 32.5158
-71.6679 3.6009901 31.6215
-71.281197 3.1129999 30.9146
-71.5215 3.1835599 32.241402
-71.303398 2.9207799 31.561399
-70.074097 2.2890501 36.812901
-70.272903 1.97221 36.147701
-70.3731 1.60282 35.433201
-70.366501 1.23484 34.654202
-70.026497 1.09846 35.5807
-68.6194 1.92895 26.9967
-68.507698 1.40342 27.5082
-69.186501 0.015727 35.685699
-69.418602 0.320445 35.748501
-68.965202 -0.26975501 35.5821
-69.374397 1.39072 29.029499
-69.2369 0.828839 29.8626
-68.693199 0.440247 29.389799
-69.866798 1.57256 29.848
-69.670898 1.03889 30.5364
-68.861702 1.1143301 28.4758
-62.164902 -3.56006 34.0257
-62.195702 -3.49544 34.053001
-62.129501 -3.6168001 33.968399
-62.095402 -3.6619101 33.8857
-62.318401 -3.82464 33.754501
-62.064201 -3.7004399 33.791698
-62.2911 -3.8584399 33.654202
-62.203602 -3.4273 34.040901
-62.5718 -3.9331999 33.6133
-62.5481 -3.96399 33.512199
-63.834202 -3.6114199 33.296398
-63.858799 -3.65728 33.300301
-62.4972 -2.7142601 35.085499
-62.531898 -2.6709499 35.114101
-62.2822 -2.5273099 35.061901
-62.253101 -2.56725 35.025299
-57.747101 -4.9353099 35.679501
-57.8466 -4.8164201 35.7052
-57.893101 -4.9842601 35.5275
-57.9865 -4.8668799 35.557999
-69.698799 0.67088503 35.701801
-63.897598 -3.5936601 34.778099
-64.147499 -3.68432 34.469002
-64.286003 -3.6749101 34.552299
-63.792599 -3.5634501 34.706402
-64.031601 -3.6678801 34.4025
-64.0214 -3.59571 34.862499
-64.352203 -3.72367 34.1563
-64.502403 -3.72615 33.883999
-64.667999 -3.70596 33.945301
-64.225502 -3.7142899 34.098598
-64.367302 -3.7203 33.839699
-64.505798 -3.70754 34.233299
-64.598999 -3.70999 33.676201
-64.770401 -3.6857901 33.713299
-64.654701 -3.68626 33.5131
-64.827904 -3.6596701 33.526001
-64.459396 -3.70841 33.648602
-64.512703 -3.68821 33.502102
-70.256104 0.93079799 33.7939
-70.060303 0.74579197 32.8564
-69.8106 0.68299001 31.9233
-69.545601 0.28652301 32.278
-69.419502 0.32560199 31.6798
-70.052696 1.11519 31.469101
-69.517502 0.60641599 31.193501
-63.1707 -2.9082201 35.067902
-63.1548 -2.9758799 35.060299
-63.430302 -3.16681 34.9016
-62.878601 -2.7016699 35.141102
-62.862 -2.77228 35.136398
-63.1703 -2.8708601 35.071499
-62.877701 -2.66243 35.141399
-63.444 -3.1073101 34.9165
-63.445 -3.07745 34.9235
-63.658298 -3.3491399 34.658199
-63.670502 -3.3186901 34.666698
-63.851898 -3.4486799 34.369499
-63.860901 -3.4283299 34.380001
-63.4156 -3.20523 34.897499
-63.681301 -3.27092 34.6884
-63.684502 -3.2532699 34.697102
-63.8685 -3.39587 34.403
-63.874699 -3.3917699 34.4109
-63.989799 -3.5139699 34.0742
-63.9963 -3.50407 34.081902
-64.078697 -3.55742 33.825199
-64.085297 -3.5552101 33.826199
-64.001198 -3.4897101 34.098301
-64.011497 -3.49598 34.103298
-64.0905 -3.55528 33.831902
-64.106499 -3.56655 33.832401
-64.133499 -3.5885999 33.653599
-64.1707 -3.6091299 33.537701
-64.183701 -3.6088901 33.528702
-64.142799 -3.5891299 33.647499
-64.152802 -3.5948701 33.644001
-64.1987 -3.6142499 33.520802
-64.2257 -3.62135 33.512901
-64.175499 -3.6055901 33.6399
-63.138599 -3.0197999 35.058899
-62.844601 -2.8190401 35.1329
-62.556301 -2.6357701 35.130699
-62.5751 -2.5887799 35.141998
-62.323601 -2.44748 35.1087
-62.3055 -2.4921701 35.087799
-63.146099 -2.9149499 35.0648
-62.852402 -2.70579 35.136299
-63.133099 -3.0173199 35.0648
-62.838699 -2.8069799 35.145401
-63.426701 -3.1245401 34.909302
-63.418598 -3.2244501 34.896702
-63.1661 -3.1275899 35.092499
-62.870201 -2.9150801 35.187199
-63.451401 -3.3280101 34.9142
-64.214897 -3.6259301 33.634499
-64.273003 -3.6549399 33.630901
-64.188599 -3.6479499 33.812801
-64.266296 -3.6326001 33.504398
-64.324097 -3.6502199 33.497799
-64.137703 -3.6005599 33.822701
-64.352402 -3.6863301 33.634102
-64.403999 -3.67222 33.4967
-64.263603 -3.6918499 33.8162
-64.029404 -3.5460801 34.0844
-64.065102 -3.6182799 34.062901
-63.8955 -3.5432301 34.357101
-63.877998 -3.45099 34.385799
-64.129303 -3.67871 34.065701
-63.945801 -3.6210401 34.3615
-63.6754 -3.30863 34.6745
-63.677502 -3.40783 34.649899
-63.7159 -3.5002699 34.659401
-62.590302 -2.5218201 35.150398
-62.335602 -2.38885 35.1245
-62.589298 -2.4851799 35.1493
-62.334999 -2.35741 35.1264
-62.5686 -2.5238299 35.141102
-62.556198 -2.6140699 35.1548
-62.309502 -2.46281 35.136101
-62.320499 -2.38905 35.1175
-63.523899 -4.2252798 32.333302
-63.261299 -4.3081298 32.426201
-63.232498 -4.4503298 32.2206
-63.5112 -4.1227398 32.531601
-63.276798 -4.1889701 32.614399
-63.7467 -4.1403899 32.272499
-63.705898 -4.05972 32.4702
-63.537498 -4.33886 32.117401
-63.796398 -4.22189 32.053902
-63.912201 -4.0700798 32.2374
-63.8456 -4.0099001 32.434799
-64.033096 -4.0148001 32.220699
-63.951 -3.9656899 32.4263
-63.992599 -4.1228199 32.016499
-64.127403 -4.0501299 32.0028
-57.9585 -4.6808 35.729
-58.099098 -4.5163798 35.754501
-58.0928 -4.7301002 35.588902
-58.2323 -4.5608401 35.6203
-61.2831 -2.44561 34.5658
-61.2085 -2.46541 34.568401
-61.2747 -2.38324 34.627201
-61.1791 -2.3842499 34.665699
-61.5243 -2.3518901 34.634701
-61.617901 -2.36045 34.662701
-61.5942 -2.3516901 34.718201
-61.535702 -2.32656 34.586899
-61.6315 -2.3392301 34.609798
-61.499199 -2.34899 34.687302
-61.5396 -2.27791 34.5425
-61.6413 -2.2927401 34.5597
-64.234398 -3.62043 33.4319
-64.217796 -3.6171701 33.437
-64.2472 -3.61918 33.362202
-64.258904 -3.6242299 33.423
-64.262604 -3.6209199 33.363899
-64.275299 -3.6228199 33.369801
-64.3881 -3.6208 33.1147
-64.359596 -3.6241801 33.1063
-64.419899 -3.62451 32.995399
-64.331902 -3.6209199 33.223099
-64.3088 -3.62201 33.215801
-64.426498 -3.6203001 33.1208
-64.366501 -3.6257999 33.257999
-64.448997 -3.6197801 33.014301
-64.4655 -3.6182001 33.0387
-63.902 -3.7469499 33.124298
-63.894199 -3.72118 33.212002
-63.996101 -3.72157 33.118401
-63.967899 -3.70468 33.2113
-63.903198 -3.7723899 33.028301
-64.019501 -3.7384501 33.014
-64.213402 -3.69699 33.102901
-64.281197 -3.65642 33.1003
-64.242996 -3.6512101 33.211399
-64.254501 -3.6998401 32.987099
-64.325996 -3.6599801 32.982201
-64.1381 -3.7265899 33.108398
-64.178001 -3.7300799 32.995899
-64.175797 -3.6926301 33.2108
-64.098396 -3.7220399 33.211102
-64.294998 -3.6292801 33.404099
-64.302002 -3.6237199 33.3344
-64.350403 -3.63868 33.382301
-64.2024 -3.6189599 33.442799
-64.165298 -3.64077 33.447601
-64.192802 -3.64465 33.3634
-64.230103 -3.6224101 33.362999
-64.328003 -3.6324799 33.1017
-64.3806 -3.6348701 32.985199
-64.2845 -3.6280601 33.2132
-64.068298 -3.7260499 33.1143
-64.104599 -3.7344601 33.004799
-64.029503 -3.7171299 33.2122
-63.879101 -3.69291 33.270901
-63.944599 -3.6835301 33.272301
-64.093903 -3.6845701 33.446999
-64.123497 -3.6872001 33.360802
-64.014 -3.7160499 33.435001
-64.043999 -3.7151 33.351898
-66.546799 -1.2880501 37.417999
-66.413902 -1.40439 37.348701
-66.7034 -1.48835 36.9702
-66.272697 -1.18019 37.744701
-66.129898 -1.30279 37.670101
-66.693604 -1.15596 37.491299
-66.427101 -1.04363 37.822102
-66.8274 -1.3837 37.027599
-66.970703 -1.26184 37.087502
-68.085701 -1.35434 33.9981
-68.329201 -1.14389 34.002899
-68.212997 -1.19857 34.6562
-68.157997 -1.27733 33.4431
-68.404404 -1.05915 33.4263
-67.830498 -1.56943 33.989399
-67.902199 -1.49825 33.4534
-67.980301 -1.3975 34.6432
-67.675797 -1.62552 34.743198
-67.659897 -0.195048 37.871899
-67.431999 -0.070378996 38.189098
-67.175301 -0.333397 38.128101
-67.911499 -0.320144 37.4655
-67.415497 -0.45427099 37.802101
-67.677597 -0.57472998 37.3904
-68.184303 -0.43520001 36.935799
-68.4636 -0.51740199 36.273602
-67.955101 -0.68575698 36.864799
-68.2332 -0.76474702 36.213799
-68.730003 -0.54179299 35.509399
-68.966904 -0.491014 34.729301
-68.491402 -0.78972399 35.463402
-68.706802 -0.75220799 34.698898
-68.583199 -0.918634 34.004902
-68.660202 -0.82330298 33.3951
-68.9422 -0.54734999 33.335701
-68.4524 -0.98723203 34.680901
-68.860298 -0.66141301 33.993099
-69.158401 -0.365439 33.993
-69.261597 -0.214717 33.260601
-61.305901 -2.3447299 34.6749
-61.3717 -2.32389 34.712002
-61.3167 -2.28708 34.770699
-61.240799 -2.3191099 34.729801
-61.461102 -2.3122799 34.7449
-61.413502 -2.26582 34.803001
-61.559101 -2.3085301 34.7752
-61.5191 -2.2553501 34.830299
-67.820396 0.74560797 38.5457
-67.615799 0.85821801 38.779499
-67.302498 0.51224297 38.759701
-68.0448 1.1255701 38.620998
-67.835701 1.11646 38.785
-67.520103 0.378602 38.504501
-64.6353 -2.1007299 37.268101
-64.274597 -2.01086 37.469601
-64.126297 -2.1208 37.367401
-64.766098 -2.0062499 37.349201
-64.421204 -1.90389 37.567299
-64.994698 -2.17676 37.036201
-65.107201 -2.0917201 37.1073
-64.502899 -2.19643 37.185001
-64.876503 -2.26003 36.968899
-66.011398 -1.06303 38.024101
-65.7463 -0.93230301 38.282799
-65.582001 -1.06137 38.203201
-66.175301 -0.92443198 38.1026
-65.919502 -0.79239398 38.362598
-65.857498 -1.18941 37.946999
-67.217003 0.054664999 38.460098
-66.950996 -0.210151 38.404701
-66.991501 0.19151101 38.722
-66.719902 -0.073987998 38.667599
-57.611 -5.3875399 34.853199
-57.7108 -5.3708601 34.913799
-57.655399 -5.3846002 34.9939
-57.664299 -5.3738298 34.790001
-57.761501 -5.3564601 34.852501
-57.506802 -5.3830299 34.799099
-57.565601 -5.3705001 34.7346
-57.552601 -5.40134 34.931599
-57.4408 -5.3956099 34.872799
-67.060997 0.20602199 27.1926
-67.336899 0.43955699 27.222799
-67.373497 0.44003901 27.314899
-66.7855 0.010728 27.0989
-67.190498 0.25023901 27.3402
-66.936096 0.006397 27.3286
-66.537498 -0.15687101 26.976801
-66.694504 -0.220936 27.2953
-66.420601 -0.53384697 27.320499
-66.297096 -0.32805499 26.8416
-69.250099 -0.083982997 32.496498
-69.196602 0.087801002 31.688601
-68.955002 -0.42132401 32.647301
-68.917099 -0.235416 31.7936
-61.564098 -2.1775701 34.9841
-61.5513 -2.16997 35.0215
-61.437 -2.17784 35.007
-61.686401 -2.1881001 35.005798
-61.6759 -2.1765001 35.040699
-61.577999 -2.1954501 34.945
-61.6968 -2.21297 34.969299
-61.443699 -2.1843901 34.9683
-61.457401 -2.19748 34.925598
-61.596699 -2.2197199 34.903301
-61.483101 -2.21824 34.8801
-61.709099 -2.24032 34.930199
-61.622299 -2.2590499 34.856701
-61.725498 -2.2790501 34.886002
-61.653599 -2.3148899 34.8041
-61.682899 -2.3619499 34.7472
-61.768002 -2.3818901 34.778198
-61.746601 -2.33392 34.834999
-62.051102 -2.41044 34.668499
-62.042198 -2.4849 34.747601
-61.9557 -2.4419401 34.711201
-61.9613 -2.37432 34.636101
-61.724499 -2.3090301 34.5742
-61.716 -2.3560901 34.630699
-61.797798 -2.3279099 34.5896
-61.793499 -2.37923 34.652699
-61.7033 -2.3751099 34.688801
-61.784302 -2.3977599 34.717098
-63.544102 -3.9358001 33.019901
-63.322601 -3.99826 33.090099
-63.309101 -4.0339499 32.973099
-63.738899 -3.8645101 32.967098
-63.5308 -3.97422 32.901001
-63.751801 -3.90868 32.812302
-64.761597 -3.6488099 32.251301
-64.621399 -3.6768301 32.426102
-64.510101 -3.7305601 32.398602
-64.857597 -3.5950899 32.3321
-64.718597 -3.62763 32.480202
-64.894699 -3.60765 32.080299
-64.9953 -3.54544 32.183399
-64.649696 -3.71153 32.200699
-64.780403 -3.6802101 32.011799
-64.922798 -3.56126 32.435101
-64.7827 -3.59606 32.562599
-64.9645 -3.5464499 32.554199
-64.820602 -3.5834999 32.665501
-65.069901 -3.5049601 32.298
-65.123901 -3.4832301 32.4221
-63.540001 -4.4528599 31.8589
-63.186901 -4.6029801 31.968901
-63.152 -4.73804 31.672001
-63.8409 -4.2937102 31.795799
-63.537399 -4.5518298 31.561899
-63.877201 -4.3509302 31.4977
-68.687401 -0.71079499 32.768398
-68.657997 -0.54302597 31.950199
-68.439003 -0.96029198 32.851501
-68.417397 -0.81829798 32.102901
-69.181602 0.38615599 30.7918
-68.842598 0.050448 30.7054
-67.590698 0.72194302 27.163401
-67.599899 0.644355 27.3265
-68.359802 0.85628903 28.050501
-67.8862 0.61435002 27.7383
-68.183403 0.333799 28.567301
-67.712601 0.185837 28.0968
-67.475197 0.39161399 27.518101
-67.266296 0.065286003 27.679399
-71.328003 2.7327499 32.696098
-71.114197 2.55948 31.6693
-70.7145 3.3455999 28.7665
-70.758202 2.9143701 29.5548
-70.295303 1.59823 30.9862
-70.572304 2.1206 30.624001
-70.906403 2.6363599 30.576599
-68.192802 -1.19221 32.911499
-68.178001 -1.07388 32.232498
-67.935699 -1.42494 32.959599
-67.925201 -1.32733 32.345901
-67.654297 -0.76752198 29.635201
-67.815201 -0.45432001 29.3146
-68.120796 -0.48243901 30.1015
-67.296997 -0.801763 29.003799
-67.4076 -0.49204701 28.6672
-67.474197 -1.08685 29.975599
-67.173203 -1.13151 29.399099
-67.921799 -0.79286301 30.393101
-67.705101 -1.10112 30.680201
-67.991501 -0.103096 28.979799
-67.544403 -0.177503 28.3857
-68.341103 -0.121722 29.7756
-68.093201 -0.91618901 31.3274
-67.8536 -1.1992199 31.5317
-68.3181 -0.62872601 31.108101
-68.555496 -0.30674499 30.8638
-66.869499 -0.843822 28.3883
-66.413399 -0.93396503 27.85
-66.819901 -1.19883 28.873199
-66.425301 -1.3085999 28.4079
-66.93 -0.51827002 28.0098
-67.067802 -0.229159 27.805099
-65.055397 -1.10716 26.127501
-65.409203 -0.91850603 26.2728
-65.516502 -1.00333 26.66
-64.692497 -1.24628 25.9023
-64.959297 -1.30053 26.3792
-64.411697 -1.4861701 25.980801
-66.042503 -0.51436299 26.6849
-65.815201 -0.662916 26.4951
-65.962898 -0.78021199 26.9965
-65.959396 -1.11699 27.4638
-65.479401 -1.34293 27.128201
-65.992599 -1.47894 28.014601
-65.516899 -1.6682301 27.622999
-64.955101 -1.5490201 26.740101
-64.460503 -1.72313 26.3585
-65.0112 -1.82985 27.1798
-64.533997 -1.96691 26.7495
-63.615299 -1.39249 25.007999
-63.363899 -1.5685199 24.937
-63.2798 -1.30388 24.583599
-63.737301 -1.5174299 25.2817
-63.5984 -1.76828 25.3997
-63.584499 -1.16654 24.7265
-63.2379 -2.20944 25.438299
-63.386299 -2.4068999 25.8449
-63.0005 -2.58444 25.597
-63.678699 -2.0313799 25.7708
-63.761002 -2.2472301 26.118601
-63.0798 -1.99756 25.046801
-62.757599 -2.4078901 25.114799
-62.527 -2.20118 24.676901
-65.676102 -0.72147298 26.2812
-64.058098 -1.8764499 26.056
-63.988899 -1.6786 25.7493
-64.127701 -2.1022799 26.4046
-64.412399 -1.31824 25.6915
-64.148399 -1.43995 25.612499
-63.915699 -1.52438 25.482401
-67.211304 -0.661376 37.729198
-66.963097 -0.54274499 38.060299
-66.777496 -0.72112101 37.985401
-67.479401 -0.779149 37.314499
-67.031502 -0.83812499 37.652401
-67.302597 -0.95371801 37.2374
-67.757896 -0.88769197 36.793201
-68.0271 -0.96916598 36.154499
-67.5793 -1.06047 36.720699
-67.836502 -1.14674 36.093102
-68.264099 -1.00563 35.422401
-68.049797 -1.19837 35.377998
-66.730103 -0.422492 38.338799
-66.492302 -0.28944501 38.6003
-66.292702 -0.47212699 38.5243
-66.537399 -0.60272002 38.264301
-67.839798 -1.37751 35.350498
-67.622498 -1.52599 35.433102
-67.649002 -1.31094 36.041302
-67.465202 -1.44628 36.041401
-67.405098 -1.22069 36.650799
-67.238098 -1.35908 36.601002
-67.132004 -1.11595 37.1591
-66.857697 -1.00371 37.571201
-66.598099 -0.88840699 37.904099
-66.352501 -0.76965803 38.183899
-66.1026 -0.63865399 38.443802
-66.286003 -1.51389 37.278702
-65.990601 -1.41904 37.595501
-65.850998 -1.53276 37.519699
-66.590698 -1.58881 36.9048
-66.154999 -1.6235 37.205502
-66.469299 -1.69684 36.829601
-65.708199 -1.30946 37.869202
-65.423599 -1.1839 38.122299
-65.2668 -1.30288 38.039799
-65.559799 -1.42619 37.790298
-67.088898 -1.4639601 36.582401
-66.972702 -1.54814 36.557598
-67.155899 -1.5811 36.235001
-67.290298 -1.53578 36.1245
-66.886398 -1.63673 36.4846
-67.153999 -1.64972 36.065399
-66.781799 -1.74775 36.385399
-67.081299 -1.76559 35.885502
-67.394699 -1.61721 35.691799
-67.363899 -1.7375 35.351501
-65.412498 -1.53912 37.711601
-65.110703 -1.41827 37.957401
-64.962997 -1.52452 37.879299
-65.710899 -1.6433001 37.444401
-65.272598 -1.64303 37.637798
-65.574203 -1.7448699 37.375702
-66.016197 -1.73384 37.132599
-66.321999 -1.81355 36.757801
-65.870796 -1.8350199 37.074001
-66.147903 -1.92023 36.721802
-66.616402 -1.88221 36.305901
-66.903 -1.92237 35.771702
-66.386497 -2.0074999 36.312599
-66.578796 -2.12236 35.772499
-67.181999 -1.91236 35.1735
-67.411598 -1.86233 34.555302
-66.919296 -2.11816 35.096401
-67.1334 -2.0834799 34.5047
-67.553299 -1.79795 33.969799
-67.627197 -1.73248 33.4618
-67.267097 -2.0313599 33.953899
-67.343102 -1.97282 33.472801
-67.6623 -1.6677901 33.003101
-67.653999 -1.58935 32.455601
-67.380898 -1.91461 33.045502
-67.373596 -1.85271 32.5588
-67.587196 -1.49493 31.739599
-67.453499 -1.42825 30.9834
-67.3078 -1.79021 31.9368
-67.184097 -1.75454 31.2763
-67.253799 -1.4291 30.343
-67.003197 -1.48246 29.8223
-67.011597 -1.76943 30.703699
-66.802399 -1.8269399 30.233299
-66.714302 -1.56295 29.3664
-66.3834 -1.6783201 28.957001
-66.563797 -1.91181 29.829201
-66.290001 -2.0262499 29.466801
-65.053398 -2.1335199 27.6423
-65.544502 -2.00474 28.1451
-65.452003 -2.4409001 28.6952
-64.587303 -2.23949 27.1633
-64.969398 -2.4763401 28.006701
-64.547699 -2.54162 27.5138
-65.996399 -1.8382699 28.5737
-65.959198 -2.18313 29.120199
-65.360001 -2.2358799 36.758301
-65.242798 -2.31181 36.7061
-65.5765 -2.3614199 36.395802
-65.455597 -2.1549699 36.8293
-65.718498 -2.28017 36.429501
-65.806198 -2.1900699 36.521
-65.143402 -1.73568 37.569801
-65.444901 -1.83427 37.3158
-65.019798 -1.82321 37.501999
-65.3256 -1.91834 37.254398
-64.828598 -1.6187299 37.807301
-64.699097 -1.70834 37.7355
-64.894501 -1.91318 37.428101
-64.563797 -1.80255 37.656399
-65.215202 -2.0044799 37.182899
-65.726898 -1.91817 37.037601
-65.609001 -1.99202 36.995499
-65.8097 -2.0358901 36.7939
-65.959801 -1.99647 36.744701
-65.529099 -2.07111 36.918598
-65.828102 -2.1014199 36.663502
-66.114403 -2.08339 36.4464
-66.156197 -2.1896 36.188999
-65.114998 -2.3832099 36.665199
-65.403397 -2.4258001 36.411499
-65.004799 -2.4528501 36.616402
-65.252403 -2.4661901 36.448101
-64.7556 -2.34394 36.8997
-64.639 -2.43064 36.822399
-65.584198 -2.4917901 36.151402
-65.849701 -2.4226 36.0368
-65.627502 -2.5964401 35.9146
-66.057602 -2.52528 35.5569
-65.278603 -2.52282 36.333199
-65.246803 -2.6182599 36.1931
-66.627701 -2.55777 33.1618
-66.601097 -2.54287 32.802601
-66.841202 -2.3336 32.728401
-66.397903 -2.7464299 33.1959
-66.361 -2.7455499 32.874901
-66.6007 -2.59215 33.512001
-66.378998 -2.7709701 33.518902
-66.855003 -2.36674 33.1264
-66.8209 -2.4107299 33.502399
-66.524902 -2.5467401 32.380402
-66.277802 -2.7639101 32.506001
-66.169403 -2.8 32.139702
-66.774498 -2.31603 32.247898
-66.416901 -2.57144 31.9512
-66.667702 -2.3220201 31.7479
-66.295303 -2.61836 31.5902
-66.536499 -2.35782 31.3144
-66.164902 -2.6854401 31.2997
-66.386703 -2.42156 30.9571
-66.055298 -2.85267 31.842899
-65.939499 -2.91903 31.6126
-66.021599 -2.7710199 31.051001
-66.217796 -2.5093801 30.651899
-65.8592 -2.87744 30.826099
-66.025497 -2.6222501 30.382601
-65.816498 -2.99792 31.4165
-65.6763 -3.0940499 31.2307
-65.664001 -3.01408 30.617701
-65.796097 -2.7711 30.1423
-65.412102 -3.2000401 30.4289
-65.500801 -2.9821401 29.934799
-65.505203 -3.2167301 31.046101
-65.285202 -3.37942 30.871901
-66.056999 -2.3124499 36.043098
-66.3741 -2.3294799 35.574699
-66.652603 -2.3254399 35.030701
-66.860901 -2.2994001 34.471401
-66.398598 -2.52473 34.962002
-66.608597 -2.5013001 34.435398
-66.992302 -2.2558999 33.946701
-67.068604 -2.2037799 33.4879
-66.743103 -2.4598 33.938099
-67.106598 -2.1519001 33.0872
-67.0989 -2.1036999 32.648998
-67.034798 -2.0652599 32.104599
-66.921402 -2.0525701 31.5287
-66.772697 -2.0782299 31.0245
-66.597099 -2.13849 30.606899
-66.397202 -2.2255499 30.250099
-66.1689 -2.3398299 29.934
-65.893799 -2.4951999 29.6444
-65.539299 -2.7328501 29.4013
-66.519798 -2.6410201 33.924599
-66.300003 -2.81617 33.907799
-66.376801 -2.6863999 34.395802
-66.155296 -2.8611801 34.354599
-66.162201 -2.71262 34.887501
-65.942703 -2.8868101 34.815601
-65.873596 -2.7264199 35.3517
-65.667702 -2.89503 35.2486
-65.523399 -2.73862 35.743099
-65.339401 -2.8936501 35.625401
-65.132301 -2.74315 36.0625
-64.964203 -2.8817201 35.942699
-64.716103 -2.7354901 36.3237
-64.304001 -2.7202599 36.516602
-64.168701 -2.81903 36.400902
-64.841103 -2.6227601 36.437698
-64.422203 -2.6189001 36.629902
-64.560402 -2.8559699 36.204498
-64.370102 -2.2943599 37.097099
-63.9776 -2.2332001 37.259399
-63.8269 -2.3529201 37.131401
-64.238098 -2.39779 36.9963
-64.926498 -2.5291901 36.539101
-64.530197 -2.52191 36.7327
-66.134903 1.92741 40.106098
-65.791397 1.53903 40.086601
-66.129501 1.28578 39.8456
-66.505898 2.36869 40.087601
-66.483498 1.6629 39.854099
-66.875198 2.0884399 39.816299
-65.476501 1.20216 40.037701
-65.810898 0.95862103 39.803398
-65.200104 0.92150801 39.966801
-65.533302 0.68424797 39.736801
-64.9674 0.69650298 39.8811
-65.299103 0.460228 39.653702
-64.762802 0.50823802 39.785702
-65.093399 0.27092299 39.561199
-64.567398 0.33592901 39.685101
-64.897903 0.099164002 39.4646
-64.3741 0.171716 39.581799
-64.705399 -0.062029 39.366798
-64.1838 0.01536 39.477299
-64.515404 -0.214315 39.268398
-64.002899 -0.13079201 39.3736
-64.333 -0.35794199 39.168499
-63.834 -0.266711 39.270802
-64.160896 -0.49385101 39.066399
-63.6684 -0.39892799 39.1665
-63.993301 -0.62509203 38.962799
-63.498501 -0.53180897 39.0597
-63.825001 -0.75276202 38.860001
-63.332401 -0.65786099 38.956699
-63.661701 -0.871252 38.7631
-63.176399 -0.77096301 38.860699
-63.506699 -0.97726399 38.674
-63.020401 -0.87780702 38.764999
-63.347801 -1.0790401 38.5844
-62.850899 -0.98835701 38.660099
-63.1703 -1.18572 38.4856
-62.663898 -1.10532 38.5429
-62.9687 -1.29737 38.3764
-68.128998 1.51214 38.773499
-67.754303 1.31006 38.952202
-68.021301 1.89877 39.027199
-67.549301 1.5581501 39.210999
-66.822197 1.41961 39.578201
-67.133797 1.20164 39.295101
-66.457298 1.05582 39.583302
-66.7677 0.84988701 39.307598
-67.238197 1.81766 39.512402
-67.396599 1.01074 39.0252
-67.052101 0.66826302 39.028599
-66.136398 0.73630702 39.5476
-66.4468 0.53380001 39.275501
-65.859703 0.46643201 39.485001
-66.1717 0.26647499 39.216599
-66.735001 0.351179 38.995602
-66.460999 0.085104004 38.939602
-65.625397 0.243818 39.4058
-65.938499 0.045898002 39.141899
-65.4179 0.054400001 39.317501
-65.730698 -0.142124 39.058399
-66.229401 -0.133265 38.8689
-66.024399 -0.31873301 38.789799
-65.220596 -0.116849 39.225601
-65.532204 -0.31235501 38.9711
-65.027496 -0.275534 39.133301
-65.3395 -0.46889701 38.883598
-65.829002 -0.486779 38.706699
-65.639999 -0.64128798 38.623299
-64.839104 -0.423215 39.041199
-65.154297 -0.61249602 38.797199
-64.658096 -0.562424 38.947102
-64.976898 -0.74708003 38.709099
-65.459602 -0.78246403 38.541
-65.287804 -0.91371697 38.458099
-64.485001 -0.69607198 38.8489
-64.805901 -0.87678599 38.6171
-64.315804 -0.82516599 38.748798
-64.637604 -1.00254 38.523102
-65.121803 -1.03947 38.3722
-64.957802 -1.1615601 38.2845
-64.1483 -0.94826299 38.651199
-64.470901 -1.12253 38.430801
-63.987598 -1.0608701 38.5602
-64.313004 -1.23169 38.344799
-64.794701 -1.27923 38.197399
-64.640701 -1.38682 38.115601
-63.836399 -1.16158 38.476501
-64.166901 -1.32919 38.265301
-63.681599 -1.26011 38.3918
-64.020699 -1.42493 38.184799
-64.500298 -1.48233 38.0401
-64.362999 -1.57486 37.964001
-62.457401 -1.2309099 38.4081
-62.742001 -1.41405 38.252998
-62.221802 -1.37349 38.240398
-62.489799 -1.54442 38.099998
-63.358002 -1.81411 37.837502
-63.196301 -1.8998801 37.743198
-63.4347 -1.96769 37.6493
-63.261299 -1.71922 37.944
-62.996899 -1.81236 37.841202
-63.578899 -1.84233 37.783798
-63.625 -1.66864 37.971001
-63.034199 -1.57815 38.0942
-62.761299 -1.69238 37.9631
-63.2896 -1.4748 38.197701
-64.214302 -1.67588 37.878101
-63.855301 -1.53132 38.093399
-64.060097 -1.7909499 37.773399
-63.505299 -1.36658 38.297298
-63.910702 -1.91562 37.651001
-63.7561 -2.0404501 37.5252
-70.286301 9.0219097 36.4828
-70.5821 9.9046202 35.678299
-70.779099 8.4617205 36.056702
-71.080902 9.3508902 35.2435
-69.911102 8.1367598 37.184799
-70.373596 7.3362598 36.8591
-70.818398 10.8497 34.655602
-71.330002 10.2798 34.233398
-66.908096 2.8749599 40.018501
-67.346603 3.47384 39.879799
-67.306396 2.57233 39.719898
-67.768204 3.1451299 39.556301
-67.807404 4.1636701 39.659801
-68.2379 4.8688998 39.367199
-68.235497 3.80968 39.3241
-68.660698 4.4919801 39.032501
-68.612 5.5481501 39.000099
-68.994499 6.3013601 38.514301
-69.023003 5.14503 38.680099
-69.377602 5.8526802 38.233799
-67.7118 2.25385 39.368198
-68.2146 2.78087 39.155998
-68.688599 3.4211199 38.906799
-69.0895 4.0816998 38.630299
-69.941101 6.0595999 37.5998
-69.702301 5.40657 37.946701
-69.794998 6.6213598 37.664001
-70.2519 6.06704 37.2258
-69.411903 4.7101798 38.318199
-70.637398 5.8734899 36.758099
-70.929802 6.9362998 36.232201
-69.448196 7.19769 37.8843
-71.233803 7.8829298 35.5826
-71.531502 8.7668304 34.7794
-71.7817 9.6874704 33.794701
-64.060303 -0.390818 24.344101
-63.8736 -0.57059598 24.371799
-63.677399 -0.868303 24.5007
-63.356098 -0.95313501 24.307501
-62.809101 -1.20152 24.0672
-62.798698 -1.5075001 24.329599
-62.182201 -1.74366 24.035999
-62.1078 -1.52824 23.816
-64.189201 -2.3503799 26.7901
-64.184402 -2.6173 27.135401
-63.871498 -2.69473 26.836
-63.8452 -2.4681799 26.5009
-61.3531 -1.82578 23.6007
-61.5056 -1.97497 23.800501
-60.8232 -2.2043099 23.679899
-60.585602 -2.08775 23.4863
-60.5424 -2.63392 23.897499
-61.114399 -2.3944299 23.9181
-61.4534 -2.6247599 24.2579
-60.1675 -2.44716 23.6903
-59.995399 -2.9003201 23.9732
-59.549198 -2.7045901 23.806
-60.953098 -2.8604901 24.205299
-60.4603 -3.12609 24.238199
-59.835201 -2.33283 23.513399
-59.115601 -2.5759499 23.6493
-64.054901 -2.898 27.3596
-63.774899 -2.92787 27.0396
-63.789101 -3.19643 27.462099
-63.5336 -3.1856599 27.114799
-64.359802 -2.8693399 27.7255
-64.041 -3.21118 27.8181
-63.499401 -2.95066 26.719801
-63.257301 -3.1728201 26.743
-62.947701 -3.14869 26.3155
-63.586899 -2.7657001 26.568899
-63.2206 -2.9461901 26.357401
-63.369202 -2.8146601 26.357901
-62.929501 -2.8924301 25.917601
-63.225399 -2.7258301 26.054501
-62.613701 -2.78193 25.4048
-62.600101 -3.0985799 25.818199
-62.222 -2.9997399 25.271601
-62.910198 -1.7685601 24.6644
-62.327301 -1.97365 24.3169
-61.714699 -2.17875 24.054701
-61.977501 -2.4079101 24.4076
-61.384399 -3.07443 24.652599
-61.8307 -2.83816 24.725901
-60.926498 -3.33865 24.6493
-61.813801 -3.2393401 25.190901
-61.377602 -3.5055201 25.162399
-62.2855 -2.61729 24.874599
-63.526199 -2.5903101 26.2537
-62.218498 -3.34235 25.7421
-61.796902 -3.6148701 25.7008
-62.581299 -3.4019799 26.2558
-62.1651 -3.6865599 26.2141
-62.895302 -3.4445601 26.7104
-63.168098 -3.4807601 27.114201
-62.741001 -3.7977901 27.1026
-62.474098 -3.7460301 26.6793
-60.441799 -3.6347301 24.7118
-59.959599 -3.4214699 24.345301
-59.936401 -3.9410501 24.826401
-59.453201 -3.7225001 24.5065
-60.9072 -3.7978599 25.1861
-60.4062 -4.1029801 25.2549
-62.0429 -4.0514698 26.684799
-62.308102 -4.11414 27.1264
-61.872101 -4.41991 27.1833
-61.731602 -3.98107 26.2099
-61.5984 -4.3541899 26.7248
-61.271999 -4.2821698 26.241199
-61.347 -3.9051299 25.701599
-60.864498 -4.2073898 25.741301
-63.413601 -3.51491 27.4888
-62.9874 -3.8417799 27.5016
-63.644001 -3.55404 27.8545
-63.219799 -3.8884799 27.8887
-63.860901 -3.6101201 28.2344
-63.432098 -3.9539299 28.2806
-64.046799 -3.7017701 28.659599
-63.609798 -4.0535998 28.7096
-64.290001 -3.24266 28.2108
-64.500198 -3.3196499 28.6577
-64.6903 -2.85653 28.1719
-64.967003 -2.9124401 28.692301
-54.056 -2.76793 25.121599
-54.405701 -2.96646 24.9431
-54.317001 -3.1301701 25.303101
-54.012001 -2.91417 25.427999
-58.462502 -2.8133099 23.8351
-58.9669 -2.9688101 23.9865
-58.417099 -3.2292299 24.2029
-57.872601 -3.0420799 24.0644
-59.463501 -3.1858699 24.1203
-58.944199 -3.4714 24.315001
-62.560398 -4.1624599 27.546
-62.132 -4.4699402 27.6199
-62.799999 -4.2090802 27.9517
-62.379799 -4.5137801 28.040199
-63.011902 -4.2739501 28.3582
-62.5994 -4.5697899 28.458599
-63.1833 -4.3726201 28.797001
-62.777 -4.65482 28.9046
-65.103104 -3.0703199 29.239599
-64.636101 -3.4546199 29.157301
-65.125397 -3.2700801 29.7733
-64.701103 -3.61075 29.6814
-64.182602 -3.832 29.146099
-64.266998 -3.96544 29.6721
-63.832401 -4.3056402 29.728701
-63.742298 -4.18396 29.1978
-63.310101 -4.4991398 29.290001
-62.9086 -4.7658401 29.398199
-63.4035 -4.6096301 29.8218
-63.0093 -4.8603201 29.926201
-65.089401 -3.4470501 30.276699
-64.7117 -3.7435601 30.193199
-65.005203 -3.5901799 30.7327
-64.671097 -3.8432701 30.6635
-64.305199 -4.0641298 30.1968
-64.2995 -4.1220899 30.68
-63.91 -4.4025302 30.749201
-63.887501 -4.37922 30.262501
-65.823402 -3.0519099 32.059601
-65.721397 -3.1096201 31.8715
-65.596199 -3.21997 32.247398
-65.511002 -3.2627299 32.083599
-65.925797 -3.0044701 32.3097
-65.680901 -3.18589 32.465099
-65.613503 -3.1770401 31.714001
-65.4879 -3.2613399 31.559299
-65.418404 -3.3148501 31.947901
-65.3069 -3.385 31.8141
-63.535599 -4.6223502 31.2297
-63.903301 -4.3895402 31.156799
-63.519798 -4.6610699 30.833
-63.146301 -4.8313198 31.3337
-63.137798 -4.8836498 30.9317
-64.083 -4.15237 31.758801
-64.241997 -4.0510802 31.7693
-64.176201 -4.1586099 31.4552
-64.442703 -3.9744599 31.488899
-65.023003 -3.5559299 31.896799
-64.883499 -3.6484201 31.8291
-64.936096 -3.63884 31.586901
-65.1427 -3.47702 32.0163
-65.162697 -3.4837799 31.6765
-65.329498 -3.37328 31.3981
-65.1269 -3.5204301 31.2456
-64.876297 -3.7036901 31.1299
-64.581703 -3.9170799 31.0798
-64.725403 -3.79073 31.4631
-65.235199 -3.42309 32.138599
-65.308403 -3.3877599 32.265499
-66.025101 -2.9708099 32.624901
-65.763 -3.16311 32.737598
-66.102898 -2.9521899 32.946701
-65.826103 -3.15289 33.016499
-66.137497 -2.9514201 33.233398
-65.848999 -3.1591799 33.271301
-66.124298 -2.9690399 33.533699
-65.7939 -3.2044499 33.603199
-66.063004 -2.9985199 33.900902
-65.822899 -3.1696999 33.9492
-65.937698 -3.0279701 34.321701
-65.7342 -3.1723499 34.319698
-65.7388 -3.0442801 34.757198
-65.558998 -3.17591 34.717899
-65.472801 -3.0462401 35.169102
-65.305199 -3.1724701 35.106098
-64.419197 -3.4972 35.126099
-64.289497 -3.54339 35.0392
-64.589302 -3.60061 34.736198
-64.075996 -3.41012 35.3801
-63.9603 -3.44278 35.2962
-64.538902 -3.44346 35.2066
-64.186897 -3.36939 35.4618
-64.729698 -3.5448699 34.8214
-64.851898 -3.48282 34.897099
-65.556999 -3.34165 33.302799
-65.509102 -3.3822899 33.538502
-65.256897 -3.51192 33.537201
-65.544601 -3.3295901 33.0807
-65.288101 -3.48299 33.329102
-65.283699 -3.4688001 33.134499
-64.855797 -3.2511001 35.389
-64.496399 -3.2086301 35.6688
-64.392097 -3.2715299 35.604198
-64.985703 -3.1585801 35.4501
-64.623299 -3.1247799 35.742298
-65.169403 -3.2702899 35.0592
-64.749001 -3.3231599 35.335098
-65.057999 -3.3481901 35.0158
-64.117798 -3.13799 35.8978
-63.7346 -3.04124 36.085201
-63.616798 -3.08126 35.9907
-64.2435 -3.06457 35.986599
-63.868 -2.9825201 36.1847
-64.0112 -3.19151 35.8181
-63.910301 -3.2305801 35.739899
-64.291603 -3.3234701 35.536701
-63.810101 -3.26052 35.660198
-63.5079 -3.1029799 35.900398
-63.406799 -3.1129701 35.811901
-64.647102 -3.3856101 35.2761
-64.957497 -3.41733 34.962601
-65.150101 -3.0378699 35.5289
-64.784103 -3.0137999 35.834301
-64.395302 -2.9691 36.0896
-64.017799 -2.9077499 36.2896
-65.409698 -3.2752199 34.702202
-65.295197 -3.35062 34.681599
-65.434898 -3.34131 34.4375
-65.557899 -3.2795899 34.367401
-65.207603 -3.4172399 34.626099
-65.411598 -3.3808899 34.322601
-65.115196 -3.4842601 34.552502
-65.3395 -3.4431701 34.210602
-65.6064 -3.30021 34.091599
-65.547401 -3.3567901 33.9034
-63.508301 -3.3057401 35.413799
-63.8424 -3.4632299 35.213299
-63.147099 -3.1086299 35.5434
-63.608601 -3.3008001 35.495998
-63.227501 -3.11742 35.633202
-62.402699 -2.64979 36.230099
-62.1604 -2.5469699 36.2883
-62.087898 -2.53705 36.126701
-62.524101 -2.66501 36.368401
-62.2612 -2.553 36.447498
-62.7155 -2.7852499 36.146
-62.847099 -2.79987 36.265301
-62.3097 -2.6300099 36.084801
-62.606998 -2.7625699 36.0201
-62.2393 -2.6084399 35.930801
-62.5238 -2.73948 35.8867
-62.190601 -2.5847001 35.776402
-62.464699 -2.71735 35.753201
-62.031502 -2.5215399 35.959599
-61.990799 -2.4990001 35.792
-63.709599 -3.2845199 35.5783
-63.313702 -3.11783 35.722801
-63.6847 -2.8379099 36.4342
-63.514198 -2.8875401 36.3423
-63.419201 -2.76333 36.549
-63.195599 -2.7849 36.476501
-63.830299 -2.7773099 36.5266
-63.600201 -2.74458 36.590199
-63.3577 -2.9252 36.242599
-63.220001 -2.9451001 36.138699
-63.003502 -2.79917 36.378799
-63.9258 -2.7021301 36.632801
-64.007599 -2.6106701 36.753601
-63.5938 -2.5959001 36.817501
-63.576698 -2.6872201 36.680599
-64.112801 -2.50613 36.879101
-63.685799 -2.47931 36.976799
-62.6875 -2.6719401 36.501999
-62.923401 -2.6739099 36.612202
-62.699001 -2.52266 36.814098
-62.412102 -2.5521801 36.612099
-63.5928 -2.1649101 37.396198
-63.252701 -2.0948 37.507301
-63.057098 -2.2318699 37.327999
-63.421799 -2.2971101 37.239101
-62.979301 -2.02248 37.596699
-62.7542 -2.15799 37.4058
-62.739498 -1.93692 37.6842
-62.4939 -2.0731299 37.483501
-62.4856 -1.8287899 37.7854
-62.238602 -1.97688 37.564499
-62.216099 -1.69427 37.902302
-61.908401 -1.86867 37.627998
-61.9557 -1.53359 38.031101
-61.6782 -1.68119 37.803902
-62.053299 -2.11655 37.3176
-62.280602 -2.2021899 37.248402
-61.915699 -2.2265 37.0695
-62.107899 -2.3041301 37.0033
-61.8325 -2.0522299 37.345798
-61.745701 -2.1628499 37.1138
-63.2356 -2.6781499 36.6731
-63.171902 -2.5701001 36.8381
-63.256001 -2.43749 37.041801
-62.859299 -2.3750401 37.0989
-62.537102 -2.2922001 37.169998
-62.340199 -2.39695 36.9221
-62.174801 -2.4500301 36.7005
-62.052601 -2.4670801 36.506401
-61.975101 -2.3675399 36.770599
-61.876598 -2.3987999 36.555302
-63.0961 -2.9456301 36.035
-62.988098 -2.9347899 35.929901
-61.536499 -2.1775701 35.059799
-61.664101 -2.18929 35.077099
-61.654202 -2.217 35.125801
-61.425201 -2.1798999 35.042
-61.52 -2.19507 35.105701
-61.401699 -2.18925 35.080502
-60.648499 -2.44276 35.676201
-60.728901 -2.4133501 35.5443
-60.821098 -2.3579299 35.600899
-60.552399 -2.5126801 35.616501
-60.634201 -2.48157 35.487499
-60.561199 -2.46402 35.812801
-60.4631 -2.5367701 35.751202
-60.7421 -2.3859899 35.734798
-60.655201 -2.4051499 35.8727
-60.834 -2.3381 35.791901
-60.928001 -2.30128 35.8452
-60.8381 -2.3139999 35.987202
-60.9104 -2.3136599 35.655701
-61.000401 -2.2825699 35.7052
-60.7463 -2.3550899 35.9305
-61.418201 -1.78672 37.589401
-61.192501 -1.8628401 37.383499
-61.338402 -1.96385 37.2864
-61.567402 -1.91623 37.459499
-60.998699 -1.9318 37.175301
-61.1488 -2.02053 37.090302
-60.831902 -1.9987299 36.977001
-60.989101 -2.0821099 36.883598
-60.298698 -2.28948 36.41
-60.467701 -2.34361 36.258202
-60.5504 -2.2917199 36.323299
-60.2197 -2.3487899 36.353001
-60.386398 -2.40043 36.199402
-60.379902 -2.2334599 36.4748
-60.135399 -2.4154699 36.2962
-60.2999 -2.4649999 36.139999
-60.035301 -2.50158 36.238499
-60.201199 -2.5468199 36.079399
-59.909698 -2.62041 36.180099
-60.081501 -2.6581199 36.018101
-59.750999 -2.77999 36.117401
-59.929798 -2.8103099 35.9529
-60.4692 -2.1793699 36.557499
-60.639599 -2.2437401 36.4067
-60.7397 -2.19505 36.525398
-60.571301 -2.1236801 36.665798
-61.276199 -2.0863199 37.020199
-61.136398 -2.1431701 36.802502
-61.275299 -2.1910801 36.738998
-61.434601 -2.04247 37.189999
-61.3899 -2.13778 36.967098
-61.478001 -2.09534 37.109901
-61.283401 -2.27899 35.960999
-61.423698 -2.3037601 35.9743
-61.439899 -2.30931 36.1731
-61.305199 -2.2697301 35.786499
-61.422699 -2.2898901 35.7952
-61.1488 -2.2711101 35.935699
-61.1964 -2.26317 35.771599
-61.282101 -2.2785699 36.167198
-61.085701 -2.2625501 36.173801
-61.0303 -2.2786701 35.894699
-60.938702 -2.2835 36.051498
-61.095001 -2.26671 35.744701
-61.803101 -2.2985001 36.831902
-61.712799 -2.33799 36.603001
-61.649399 -2.23807 36.884998
-61.557598 -2.2832899 36.648499
-61.5117 -2.18541 36.927101
-61.4133 -2.23543 36.691002
-61.5914 -2.1170399 37.1255
-60.690601 -2.0633099 36.805099
-60.8545 -2.1413901 36.688099
-61.014301 -2.1947701 36.5653
-61.1717 -2.23259 36.4687
-60.905499 -2.23715 36.3605
-61.328201 -2.2657001 36.423199
-61.484699 -2.3044801 36.403999
-61.6437 -2.3541901 36.380699
-61.5952 -2.3548999 36.171799
-61.750301 -2.4093201 36.163399
-61.8041 -2.4105899 36.3536
-61.8624 -2.4553299 35.9758
-61.909401 -2.4679301 36.1502
-61.8288 -2.4331601 35.802502
-61.710602 -2.3973899 35.982399
-61.684399 -2.3759301 35.806301
-61.969398 -2.4714899 36.325699
-62.8988 -2.92171 35.821301
-62.827 -2.90751 35.712502
-61.565601 -2.34517 35.981499
