# .PCD v.7 - Point Cloud Data file format
VERSION .7
FIELDS x y z
SIZE 4 4 4
TYPE F F F
COUNT 1 1 1
WIDTH 1602
HEIGHT 1
VIEWPOINT 0 0 0 1 0 0 0
POINTS 1602
DATA ascii
-16.0548 -30.2719 0.215593
-15.5202 -28.8659 -0.363473
-15.7719 -27.5527 0.29883501
-14.973 -30.2465 4.8628502
-15.5084 -31.693399 3.9081199
-15.7839 -32.227402 2.6498201
-15.8003 -31.9932 0.97173297
-15.51 -31.069401 -0.0065250001
-14.9838 -29.5399 -0.64958102
-14.3051 -27.663099 -0.89383
-13.6741 -26.1647 -0.53694499
-14.2095 -30.719101 4.7000799
-13.6754 -30.4963 4.1357799
-13.984 -31.641001 3.1974499
-14.6601 -32.119701 3.76807
-14.8876 -32.582298 2.5859201
-14.0464 -31.8906 2.1377001
-14.0052 -31.669701 0.98823297
-14.9353 -32.3857 1.0046
-14.7457 -31.5637 0.109878
-13.885 -31.0762 0.425127
-13.6595 -29.978701 -0.0028260001
-14.3206 -30.054501 -0.50734299
-13.7613 -28.25 -0.75336599
-13.3153 -28.629801 -0.181061
-13.2568 -26.7596 -0.56033599
12.0711 -22.737301 73.133698
13.2164 -22.948 71.218102
13.3793 -18.969999 72.051804
11.8355 -18.195101 73.5494
1.9712 -46.879501 54.846199
4.1486902 -46.252102 55.5033
0.63642198 -47.135201 54.541199
0.63642198 -45.566898 52.605999
2.38866 -45.278599 52.734299
4.5722399 -44.748299 52.971802
6.1367202 -44.7188 56.408501
6.2971702 -43.634701 53.663101
7.6382899 -42.8997 57.548199
7.7599602 -41.925598 54.983501
8.9833097 -40.7425 59.286499
9.0596304 -39.888302 57.074902
10.4029 -37.997601 61.560799
10.5285 -37.391399 59.584499
11.4824 -34.884998 64.112602
11.756 -34.4534 62.190399
12.8084 -27.2335 69.554398
12.2325 -31.257099 66.944099
12.7838 -30.8375 65.108704
13.51 -26.780701 67.829498
13.9762 -22.7222 69.718498
14.0505 -18.8727 70.868896
10.3018 -21.778299 75.231697
7.03478 -20.804399 76.225098
10.1208 -17.4792 74.627502
6.8189902 -16.5723 75.363602
3.7541599 -20.0415 76.448997
3.91241 -15.8298 75.428001
0.63642198 -19.542601 76.412399
0.63642198 -15.5363 75.236298
11.9352 -13.8289 73.193199
10.1698 -12.7484 73.971802
13.2047 -15.7333 72.046402
6.9387102 -12.0333 74.589699
4.00385 -11.4537 74.826401
0.63642198 -11.1174 74.758904
14.438 -17.305599 69.554901
14.38 -22.087799 68.4086
13.5358 -12.9696 70.835999
12.1727 -10.3951 72.2444
10.1993 -9.1096201 73.334396
7.2213202 -8.7245903 74.093903
4.1372299 -8.4451599 74.469902
0.63642299 -8.2937298 74.492104
8.0001402 -41.339901 52.395599
9.4146605 -39.3699 54.888901
2.7722199 -43.9244 50.3078
0.63642299 -44.081902 50.4571
4.9477601 -43.5835 50.267899
6.5134501 -42.886101 50.8009
10.8124 -37.056599 57.7869
12.0762 -34.257301 60.681
13.9984 -26.538601 66.585602
13.2754 -30.727699 63.7966
-10.5627 -18.195101 73.5494
-12.1064 -18.969999 72.051804
-11.9435 -22.948 71.218102
-10.7982 -22.737301 73.133698
-2.87585 -46.252102 55.5033
-0.698358 -46.879501 54.846199
-1.11581 -45.278599 52.734299
-3.2994001 -44.748299 52.971802
-4.8638802 -44.7188 56.408501
-5.0243201 -43.634701 53.663101
-6.3654399 -42.8997 57.548199
-6.4871202 -41.925598 54.983501
-7.7104702 -40.7425 59.286499
-7.7867899 -39.888302 57.074902
-9.1301003 -37.997601 61.560799
-9.2556801 -37.391399 59.584499
-10.2096 -34.884998 64.112602
-10.4832 -34.4534 62.190399
-11.5356 -27.2335 69.554398
-10.9596 -31.257099 66.944099
-12.2371 -26.780701 67.829498
-11.511 -30.8375 65.108704
-12.7033 -22.7222 69.718498
-12.7777 -18.8727 70.868896
-5.76194 -20.804399 76.225098
-9.0289097 -21.778299 75.231697
-5.5461402 -16.5723 75.363602
-8.8479795 -17.4792 74.627502
-2.4813199 -20.0415 76.448997
-2.63957 -15.8298 75.428001
-8.8969898 -12.7484 73.971802
-10.6624 -13.8289 73.193199
-11.9318 -15.7333 72.046402
-5.6658702 -12.0333 74.589699
-2.73101 -11.4537 74.826401
-13.1071 -22.087799 68.4086
-13.1652 -17.305599 69.554901
-12.263 -12.9696 70.835999
-10.8999 -10.3951 72.2444
-8.9265003 -9.1096201 73.334396
-5.9484801 -8.7245903 74.093903
-2.8643899 -8.4451599 74.469902
-8.14182 -39.3699 54.888901
-6.7273002 -41.339901 52.395599
-1.49937 -43.9244 50.3078
-3.6749101 -43.5835 50.267899
-5.2406101 -42.886101 50.8009
-9.5395098 -37.056599 57.7869
-10.8033 -34.257301 60.681
-12.0025 -30.727699 63.7966
-12.7255 -26.538601 66.585602
4.0799298 -47.792599 57.697701
1.79515 -48.787701 56.9188
6.2344999 -46.021599 58.704498
7.7589898 -43.876801 60.017502
9.1098604 -41.723 61.402302
10.4578 -38.933701 63.4408
11.4129 -35.8274 65.888496
11.6785 -28.153299 72.194397
11.7402 -32.397598 68.865501
7.1164699 -25.3867 78.310204
10.016 -26.4935 76.067596
3.5934701 -24.9482 78.902901
0.63642198 -24.661699 78.997101
0.63642198 -49.205002 56.5606
6.29351 -39.380901 85.292503
3.04654 -38.3694 86.957001
0.63642198 -38.616501 87.197197
3.2562399 -34.8647 84.933403
0.63642198 -34.751099 84.637802
6.5239401 -36.220501 83.368401
8.5322104 -38.327499 81.1604
8.1191397 -40.8344 82.743896
10.538 -43.816101 71.142303
10.4581 -43.0597 70.8601
10.0972 -41.413502 74.218803
9.8845396 -42.9151 74.972
10.2235 -44.8549 69.629501
10.0947 -44.119202 69.230103
9.8448 -45.704601 68.7519
9.0705996 -47.158699 67.516602
8.95819 -46.356701 66.9897
9.7240896 -44.863602 68.211098
7.4956398 -49.096901 66.402702
7.6919298 -48.1516 65.501701
5.9389701 -49.676998 65.761398
6.03089 -48.862598 64.609299
4.3959498 -50.609501 65.065498
4.1952701 -50.202801 63.665401
2.49717 -51.374401 64.452003
1.88854 -51.471901 63.013401
1.57691 -51.705101 64.316704
0.63593501 -51.8601 64.302498
0.63593501 -51.9277 62.733002
9.5122004 -42.939701 79.771797
9.6880102 -40.464001 78.4058
10.8009 -42.742199 66.743103
11.0235 -41.934601 67.512497
10.637 -40.3494 65.224297
0.636666 -52.943802 60.858799
1.74468 -52.444099 61.127499
11.2301 -38.173901 72.586304
10.43 -36.476002 76.362099
11.1932 -40.3675 69.258797
9.9508696 -44.8783 64.962898
8.7609301 -47.1292 63.5835
6.5941601 -49.5895 62.404701
4.0982199 -51.573399 61.542301
9.0445099 -34.381401 79.617897
6.63025 -32.649899 81.4067
3.3037901 -31.5114 82.472
0.63642198 -31.5249 82.471298
0.63642198 -27.8592 80.417702
3.4337499 -27.978399 80.375702
6.85605 -29.0835 79.687599
9.35151 -30.520201 77.697899
11.1454 -32.586498 74.176804
11.4863 -34.933498 70.770599
11.3532 -37.6689 67.667801
9.4056396 -42.9897 63.183601
8.1991196 -45.323002 61.8232
6.4468899 -47.805599 60.513802
4.1796598 -49.7663 59.5028
1.75784 -50.759399 58.897598
0.63642198 -51.306099 58.4916
-0.52230501 -48.787701 56.9188
-2.80709 -47.792599 57.697701
-4.9616599 -46.021599 58.704498
-6.4861398 -43.876801 60.017502
-7.8370199 -41.723 61.402302
-9.1849604 -38.933701 63.4408
-10.1401 -35.8274 65.888496
-10.4056 -28.153299 72.194397
-10.4673 -32.397598 68.865501
-8.7431297 -26.4935 76.067596
-5.8436298 -25.3867 78.310204
-2.3206301 -24.9482 78.902901
-1.77369 -38.3694 86.957001
-5.0206699 -39.380901 85.292503
-1.98339 -34.8647 84.933403
-5.25109 -36.220501 83.368401
-6.8463001 -40.8344 82.743896
-7.2593598 -38.327499 81.1604
-8.6117001 -42.9151 74.972
-8.8243198 -41.413502 74.218803
-9.1852102 -43.0597 70.8601
-9.2651901 -43.816101 71.142303
-8.8218899 -44.119202 69.230103
-8.9506302 -44.8549 69.629501
-8.4512501 -44.863602 68.211098
-7.6853499 -46.356701 66.9897
-7.79776 -47.158699 67.516602
-8.57195 -45.704601 68.7519
-6.4190898 -48.1516 65.501701
-6.2227998 -49.096901 66.402702
-4.75805 -48.862598 64.609299
-4.6661201 -49.676998 65.761398
-2.92242 -50.202801 63.665401
-3.1231 -50.609501 65.065498
-0.61569601 -51.471901 63.013401
-1.2243201 -51.374401 64.452003
-0.304068 -51.705101 64.316704
-8.4151602 -40.464001 78.4058
-8.2393503 -42.939701 79.771797
-9.7506704 -41.934601 67.512497
-9.5280504 -42.742199 66.743103
-9.3641901 -40.3494 65.224297
-0.47183001 -52.444099 61.127499
-9.1571703 -36.476002 76.362099
-9.9572096 -38.173901 72.586304
-9.9203901 -40.3675 69.258797
-8.6780195 -44.8783 64.962898
-7.48808 -47.1292 63.5835
-5.3213201 -49.5895 62.404701
-2.8253701 -51.573399 61.542301
-7.7716699 -34.381401 79.617897
-5.35741 -32.649899 81.4067
-2.0309401 -31.5114 82.472
-2.1609099 -27.978399 80.375702
-5.5832 -29.0835 79.687599
-8.07866 -30.520201 77.697899
-9.8725901 -32.586498 74.176804
-10.2135 -34.933498 70.770599
-10.0803 -37.6689 67.667801
-8.1327896 -42.9897 63.183601
-6.92627 -45.323002 61.8232
-5.1740398 -47.805599 60.513802
-2.9068201 -49.7663 59.5028
-0.48499799 -50.759399 58.897598
1.2431 -69.735603 72.698196
0.63569099 -69.761902 72.700104
0.63715398 -70.127701 72.485298
1.24139 -70.051102 72.502899
1.7927099 -69.930099 72.364899
1.80466 -69.635101 72.5541
3.05093 -69.615097 69.883797
2.6029899 -69.576103 69.204201
2.66785 -69.416397 69.001297
3.2096701 -69.368797 69.6604
1.95999 -69.600197 68.648804
2.0197301 -69.448799 68.424202
1.36672 -69.692398 68.263496
1.4174401 -69.557098 68.053802
3.36865 -69.467598 70.509697
3.2021101 -69.696098 70.557999
2.9641199 -69.705803 71.309502
3.1591899 -69.404404 71.3237
2.4710701 -69.504898 72.159302
2.4140201 -69.802902 71.996399
0.63715398 -69.691902 68.143303
0.63569099 -69.631203 68.038902
0.84856302 -69.6166 68.041801
0.85368401 -69.692398 68.135002
4.4629998 -48.657299 89.688499
4.3527899 -51.597801 88.918198
6.20646 -42.027 87.249603
5.2179298 -45.657299 89.166702
7.80337 -45.1633 85.357201
7.8536 -42.983398 84.415199
3.17382 -41.624199 88.288803
3.0092299 -44.8922 89.474403
3.8192699 -51.496799 89.036003
3.83902 -54.5224 87.233704
4.5381098 -54.865002 86.819702
3.9624 -48.111801 89.699898
3.9094901 -56.8484 85.448097
4.6839199 -56.085201 85.381104
5.28548 -55.3946 85.2911
5.0223699 -57.585499 83.740501
5.6456299 -56.1054 83.983398
2.68907 -47.858002 90.0513
0.63642198 -41.811001 88.4617
11.1259 -44.543701 76.316803
12.2661 -45.8997 77.401398
14.3373 -46.7831 73.556999
12.3605 -45.3111 72.3629
0.63642198 -45.077999 89.709702
0.63642198 -54.582901 87.506599
0.63642198 -56.856701 85.3237
2.45401 -57.0998 85.5681
2.3664701 -54.783501 87.738297
2.43011 -51.4832 89.234901
0.63642198 -51.453201 89.138603
0.63642198 -47.740898 90.123001
4.08603 -58.788601 83.529602
6.4356699 -54.475601 84.376701
6.1245298 -57.3507 82.416496
6.9177399 -55.445999 82.5849
6.4217701 -57.826401 80.857101
6.6958499 -58.329498 80.195999
7.58464 -56.6908 79.9086
7.2525301 -55.999802 80.756897
7.3432398 -54.258801 82.661697
7.1064701 -53.655499 83.9543
7.7414298 -55.543098 79.717598
7.6112199 -54.854 80.518402
7.74436 -52.936901 83.635399
7.7026601 -54.4846 80.474998
7.8845701 -54.712799 79.686401
9.2503204 -52.956402 79.479599
9.1062098 -52.985901 80.226303
10.9526 -51.053299 79.096802
11.5307 -49.472698 82.368401
11.0289 -50.541698 82.5896
12.3212 -50.1381 80.592003
13.5022 -49.0989 80.125801
9.52707 -51.383202 82.879997
9.64851 -52.9245 72.595596
10.4193 -51.793098 71.389
12.9879 -50.794102 72.596497
11.5429 -51.277401 73.824997
9.3612604 -53.405102 77.678101
10.9474 -51.046398 76.930801
8.6984997 -55.419701 77.894402
8.0713501 -56.162399 78.182198
10.6931 -50.8423 70.334198
13.6585 -49.8102 71.2369
7.3590899 -57.057098 78.691498
14.5872 -49.296902 76.462601
13.0237 -50.142502 77.93
12.4266 -50.4105 75.491898
14.4063 -49.834301 73.982803
15.3505 -48.1413 74.633797
15.1025 -48.732899 72.263199
13.1047 -47.440498 78.587898
9.8435802 -46.854099 83.0382
9.6429005 -44.1777 80.582001
9.8409004 -45.344501 81.511101
5.8068099 -55.0522 69.033798
5.3566799 -53.824299 69.413696
5.3842301 -54.667999 68.4981
5.6263599 -54.616001 68.4161
4.6588101 -56.502102 67.783096
4.8702202 -56.507999 67.726097
1.22335 -64.721703 62.768299
0.63569099 -64.694901 62.688599
0.63569099 -64.733398 62.442501
1.22822 -64.803398 62.5625
1.74736 -64.689796 62.731201
1.7237 -64.670799 62.919701
2.56373 -64.001701 63.1782
2.5810499 -64.155998 63.368099
3.4079101 -62.616199 63.843399
3.3411 -62.636398 64.090897
3.76489 -60.902199 64.617798
3.66345 -60.915401 64.745102
4.0874901 -59.381599 65.882103
3.97118 -59.414501 65.994102
4.0943198 -58.119499 66.878998
4.2554998 -58.108501 66.795601
10.4222 -48.567799 68.294197
12.0547 -47.395401 68.9935
13.0045 -48.677299 70.042503
10.7877 -49.6763 69.319298
0.63569099 -69.235703 73.012001
1.26041 -69.2118 73.058601
0.63691002 -60.403599 81.028999
1.91951 -60.866402 80.710999
2.5652001 -59.765701 82.158997
0.636666 -59.385799 82.156502
4.0679798 -59.750099 82.117996
2.65469 -59.0481 83.364502
0.63715398 -60.988998 79.472099
1.62861 -61.295799 79.226501
0.63569099 -61.173599 79.085403
0.63569099 -63.3965 77.108002
1.44109 -63.489601 77.187798
1.55082 -61.442299 78.904404
0.63715398 -65.303001 75.977402
1.37745 -65.277199 76.067299
1.84514 -69.078598 72.9338
0.63569099 -68.438599 73.608498
1.27431 -68.400803 73.665298
1.94999 -68.169403 73.586998
0.63715398 -66.975502 74.791298
1.32356 -66.881401 74.926201
2.0528901 -66.731697 74.746201
2.1377499 -65.036499 75.929604
2.24967 -63.273602 77.040001
0.63715398 -69.206902 67.627502
0.82686198 -69.2174 67.6446
6.4902902 -58.219501 78.715698
6.35813 -58.190201 78.537399
6.65342 -58.202202 78.451897
6.7341299 -58.1595 78.632301
6.2191401 -58.744701 79.000298
6.0550399 -58.5387 79.0168
6.1589098 -58.258301 78.221397
6.39885 -58.382401 78.009499
5.6497698 -58.468399 77.748901
5.8304601 -58.754501 77.424301
5.0991802 -58.485802 77.633301
5.1947699 -58.820801 77.363602
6.7907 -57.899101 76.896599
6.5078502 -58.3438 77.621101
5.8977599 -58.761501 77.114403
5.9765201 -58.5313 76.8554
4.6083298 -58.682301 77.668098
4.73562 -58.970299 77.524803
5.18818 -58.935398 77.082397
5.2598701 -58.8783 76.882004
4.3101201 -58.8242 77.938103
4.2216001 -59.049 77.848602
4.7107501 -59.166599 77.258003
4.6887999 -59.186798 77.067299
4.39083 -59.051701 78.453598
4.3276701 -59.268501 78.436501
4.1521101 -59.318001 77.754204
4.1316199 -59.387501 77.7062
4.7056198 -58.978802 78.925598
4.7097702 -59.253899 78.9049
4.2669601 -59.502602 78.397003
4.5868702 -59.554699 78.937302
5.1006498 -59.2141 79.023598
5.0499301 -58.887402 79.065399
5.0433402 -59.555698 79.142899
5.53054 -59.216301 78.9702
5.4400702 -58.8405 79.1446
6.38836 -58.9161 78.985603
5.56394 -59.463299 79.125603
6.9038401 -58.157799 78.622101
4.75951 -64.875099 69.101303
4.4854398 -66.155998 68.711899
4.73488 -64.416702 68.494598
4.6480799 -65.972397 70.146202
4.4900699 -66.825104 69.966202
4.23843 -66.077499 67.944099
4.52494 -64.273499 67.871597
5.0426102 -63.255699 69.3508
5.0023799 -62.475201 68.422997
4.1162601 -67.039902 71.067596
4.11163 -68.1689 69.9925
3.98313 -67.966301 68.960403
5.0199299 -64.275002 70.542702
3.8002501 -67.856796 68.350998
3.82219 -66.2584 67.544403
4.1367502 -64.314003 67.429298
4.7985301 -62.126301 67.840401
5.3608198 -61.657101 69.725098
5.1259999 -60.811001 68.694603
3.40328 -68.891602 68.991302
2.8612199 -68.938004 68.455597
3.4040101 -67.901604 67.835297
3.6041999 -68.869202 69.370796
2.2304001 -69.042603 67.936996
2.6698 -68.172997 67.260101
3.7841499 -68.807297 70.208801
1.59764 -69.265198 67.712898
1.79539 -68.491501 67.324699
3.19699 -66.587799 67.170097
3.5980999 -64.401299 67.3452
3.7385499 -68.6446 70.988602
3.6222401 -67.363701 71.862099
3.4230299 -68.639702 71.528297
4.3391299 -62.278 67.655296
3.8512101 -62.325001 67.703903
4.4552002 -65.144096 71.6931
5.2347598 -62.4921 71.037399
4.9984798 -60.348202 68.370003
4.5644398 -60.362801 68.142799
4.1501598 -60.418201 68.241798
4.0777402 -65.5252 72.341202
4.6434498 -63.439098 72.306602
5.7494998 -59.7332 70.255699
5.5502901 -58.8764 69.663597
5.4110498 -58.490101 69.150101
6.8789701 -57.992199 78.504303
7.66852 -57.336498 77.371597
7.1925502 -56.8601 75.895897
7.7704501 -55.985199 75.034203
8.7116699 -54.480701 76.000801
8.3176298 -56.317799 76.695198
6.0204101 -58.407001 76.544296
6.2630301 -57.617199 75.552101
5.2459698 -58.857399 76.473801
5.3242502 -58.485802 75.432404
4.6051602 -59.3736 76.689903
4.5159202 -59.296799 75.941002
4.0323801 -59.6637 77.329697
3.93753 -59.738602 77.1875
4.3305998 -60.0154 78.299698
4.1820998 -59.983398 78.050201
4.7104998 -59.950298 79.122704
5.1499 -59.8549 79.484299
6.5671 -58.744999 79.368896
5.74682 -59.621601 79.6315
7.3010602 -57.5187 78.858299
2.46522 -68.863098 72.580399
2.76563 -68.735802 72.198097
2.6698 -67.793098 73.175598
3.0097201 -67.593903 72.583397
4.8955798 -60.446701 80.305
4.0640802 -60.8186 79.740501
4.36059 -60.5247 79.482803
5.02384 -60.177299 79.937798
5.3805699 -58.5187 82.391296
4.4417901 -60.349201 81.5028
3.33354 -61.244099 80.2258
3.6751599 -61.190899 80.001198
4.7241602 -60.561798 80.709602
5.3847198 -56.5145 69.283997
4.8302302 -58.5214 68.999397
4.4759302 -58.569401 69.118896
4.8529 -56.671299 69.637802
5.8631301 -56.567001 69.524597
6.1784201 -56.730801 69.9645
6.1184301 -57.548698 70.705803
6.19134 -54.9491 68.952301
6.4363999 -54.981499 69.2603
2.7063799 -60.970501 80.387901
2.39134 -61.456001 78.997299
2.3289199 -61.565701 78.6418
3.15505 -61.437199 78.379204
3.0887201 -61.2738 78.653
3.07726 -62.756599 76.610901
2.95241 -64.589798 75.380699
3.7478199 -62.152401 75.203697
3.44717 -61.829498 76.329201
3.4223001 -61.722198 76.835701
4.0957799 -60.531601 75.970497
3.92875 -60.794899 76.987297
3.32549 -61.238201 78.5811
3.8938799 -60.681999 78.364502
3.3411 -61.282101 78.297699
3.85852 -60.761501 78.052696
5.6922002 -59.395 80.806396
5.8719101 -59.679401 80.287003
4.3049998 -62.099201 74.285797
5.1196599 -60.237301 73.712601
4.4695902 -60.6311 74.898598
5.7424302 -58.679798 74.107101
6.8316698 -57.360401 74.331902
7.0686798 -56.771801 73.145401
5.9240899 -58.596001 73.059601
6.1974401 -58.333801 72.197601
7.1671901 -56.051498 71.839401
4.8794799 -61.575001 73.133003
5.3998399 -60.9188 71.713303
5.6229501 -59.890301 71.415802
5.4471402 -60.067799 72.699203
3.54934 -64.140701 74.209297
4.1143098 -63.821499 73.296303
2.82318 -66.424004 74.119797
2.9941101 -66.294998 73.803299
3.41205 -65.952103 73.123703
6.2513299 -56.083401 70.879402
8.9101601 -54.055901 73.802101
9.8179703 -52.125198 75.017403
1.46109 -53.836201 65.527397
0.63569099 -53.7416 65.666397
0.63691002 -52.191799 65.577301
1.6127599 -51.936699 65.624603
2.6593201 -52.659 66.806801
2.55374 -54.202702 66.181801
4.01092 -53.066399 66.879402
4.8955798 -53.34 67.351303
4.4552002 -55.271198 66.654404
3.8 -54.696999 66.292
5.5471201 -51.395401 67.255402
6.0855098 -52.699699 67.8302
5.6575799 -53.939098 67.639297
4.7741399 -55.760601 67.124298
6.0462599 -54.4044 68.138397
4.9913998 -56.3899 67.577301
4.2035599 -51.327099 66.549797
2.62274 -51.348301 65.903099
7.4502902 -50.1833 67.6922
6.3334999 -50.474602 67.415398
8.0633001 -51.060299 68.810898
6.67732 -51.437599 68.508797
6.68853 -54.2939 70.190102
6.3891001 -53.894501 68.470299
6.7792401 -52.6758 69.3573
7.79532 -53.679699 70.649002
7.9674702 -52.319302 69.783798
1.18994 -63.764198 62.0965
1.21969 -64.178902 62.203098
0.63569099 -64.1287 62.121601
0.63715398 -63.752701 62.045101
1.6625 -63.560101 62.278702
1.69347 -63.961399 62.395699
1.25017 -64.569603 62.286499
0.63715398 -64.448601 62.1763
0.63715398 -63.321098 61.946602
1.15995 -63.3255 61.966999
1.72517 -64.356697 62.481998
0.63569099 -62.401299 61.960999
1.1023999 -62.468601 61.946301
1.63275 -63.153801 62.130901
0.63569099 -60.909801 62.448601
1.15117 -61.005798 62.398201
1.59983 -62.393299 62.088699
0.63715398 -59.265598 63.275501
1.3064899 -59.402802 63.1833
1.87635 -61.1073 62.560299
0.63569099 -57.5718 64.360603
1.3406301 -57.673801 64.214996
1.9851 -59.683998 63.247501
0.63715398 -55.862499 65.4571
1.39891 -55.981998 65.288399
4.1886802 -57.438499 66.092796
4.02702 -57.197102 65.890701
4.2932901 -57.703999 66.318901
4.3896098 -58.0937 66.702698
3.97435 -59.0951 65.393204
3.8029301 -58.880501 65.093803
3.5949299 -60.6054 64.275497
3.41961 -60.373798 64.077202
3.06287 -62.045601 63.436401
2.91169 -61.841702 63.2687
3.6159 -58.661598 64.842201
3.2416101 -60.230202 63.834099
4.12992 -59.302101 65.700996
3.79074 -60.810001 64.491302
2.3667099 -63.281399 62.788101
2.2855101 -62.9534 62.665199
2.7575901 -61.6213 63.077202
3.21015 -62.233799 63.579601
3.1896701 -58.331402 64.496399
2.91608 -59.984402 63.5186
2.20261 -62.615398 62.512501
2.44645 -63.5979 62.881699
2.5200901 -61.336201 62.8339
2.12604 -62.046101 62.424
2.1616399 -57.975399 64.240402
2.3108699 -56.308498 65.223801
3.4661901 -56.746899 65.470001
12.647 -46.376701 70.127602
14.2632 -47.539799 71.179802
0.63715398 -68.5298 67.336403
0.88489503 -68.536797 67.347603
0.63617897 -58.544998 83.115799
4.8865499 -59.773701 74.678398
5.4086199 -58.813702 81.773201
8.0942698 -52.792801 82.719803
8.6334 -52.994701 81.267502
10.6136 -51.177399 81.057999
7.4678402 -54.484299 81.753403
7.5566001 -54.534801 81.098503
7.0325899 -55.6553 81.913399
7.1262202 -55.8703 81.220596
6.1884198 -57.5714 81.8237
6.26864 -57.601799 81.308899
5.5702801 -59.141701 81.2789
5.47226 -56.9142 79.380402
4.9306898 -57.181198 79.493301
4.5858998 -57.222401 79.423302
4.2754898 -57.3036 79.2994
4.0009298 -57.368 78.882202
3.93119 -57.166801 78.426498
4.1879501 -57.0415 78.187798
4.6244302 -56.867599 78.157097
5.11308 -56.852299 78.259499
5.5627198 -56.666698 78.676903
5.73487 -56.606499 78.956398
5.8555698 -56.632301 79.113899
0.031456001 -70.051102 72.502899
0.029749 -69.735603 72.698196
-0.53181499 -69.635101 72.5541
-0.519867 -69.930099 72.364899
-1.93682 -69.368797 69.6604
-1.39501 -69.416397 69.001297
-1.3282 -69.576103 69.204201
-1.77662 -69.615097 69.883797
-0.74688202 -69.448799 68.424202
-0.687141 -69.600197 68.648804
-0.14459699 -69.557098 68.053802
-0.092170998 -69.692398 68.263496
-1.92731 -69.696098 70.557999
-2.0957999 -69.467598 70.509697
-1.88635 -69.404404 71.3237
-1.68932 -69.705803 71.309502
-1.13922 -69.802902 71.996399
-1.19823 -69.504898 72.159302
0.41916099 -69.692398 68.135002
0.42428201 -69.6166 68.041801
-3.0799401 -51.597801 88.918198
-3.19016 -48.657299 89.688499
-6.58075 -42.983398 84.415199
-6.53052 -45.1633 85.357201
-3.9450901 -45.657299 89.166702
-4.93361 -42.027 87.249603
-1.90098 -41.624199 88.288803
-1.73638 -44.8922 89.474403
-3.26526 -54.865002 86.819702
-2.56617 -54.5224 87.233704
-2.5464201 -51.496799 89.036003
-2.6895599 -48.111801 89.699898
-3.4110799 -56.085201 85.381104
-2.6366401 -56.8484 85.448097
-4.01263 -55.3946 85.2911
-4.3727798 -56.1054 83.983398
-3.7495301 -57.585499 83.740501
-1.4162199 -47.858002 90.0513
-11.0876 -45.3111 72.3629
-13.0645 -46.7831 73.556999
-10.9933 -45.8997 77.401398
-9.8530903 -44.543701 76.316803
-1.0936199 -54.783501 87.738297
-1.18116 -57.0998 85.5681
-1.1572599 -51.4832 89.234901
-2.81318 -58.788601 83.529602
-5.6448998 -55.445999 82.5849
-4.8516798 -57.3507 82.416496
-5.1628199 -54.475601 84.376701
-5.9796901 -55.999802 80.756897
-6.3118 -56.6908 79.9086
-5.4229999 -58.329498 80.195999
-5.1489301 -57.826401 80.857101
-5.8336301 -53.655499 83.9543
-6.0704002 -54.258801 82.661697
-6.3383799 -54.854 80.518402
-6.4685898 -55.543098 79.717598
-6.4715099 -52.936901 83.635399
-7.8333602 -52.985901 80.226303
-7.9774699 -52.956402 79.479599
-6.6117201 -54.712799 79.686401
-6.4298201 -54.4846 80.474998
-9.6797199 -51.053299 79.096802
-12.2293 -49.0989 80.125801
-11.0484 -50.1381 80.592003
-9.7560396 -50.541698 82.5896
-10.2579 -49.472698 82.368401
-8.2542295 -51.383202 82.879997
-10.2701 -51.277401 73.824997
-11.715 -50.794102 72.596497
-9.1464396 -51.793098 71.389
-8.3756599 -52.9245 72.595596
-9.6745996 -51.046398 76.930801
-8.0884199 -53.405102 77.678101
-6.7985001 -56.162399 78.182198
-7.4256601 -55.419701 77.894402
-12.3856 -49.8102 71.2369
-9.42027 -50.8423 70.334198
-6.0862498 -57.057098 78.691498
-13.1335 -49.834301 73.982803
-11.1537 -50.4105 75.491898
-11.7509 -50.142502 77.93
-13.3144 -49.296902 76.462601
-13.8296 -48.732899 72.263199
-14.0776 -48.1413 74.633797
-11.8318 -47.440498 78.587898
-8.5707302 -46.854099 83.0382
-8.5680504 -45.344501 81.511101
-8.3700504 -44.1777 80.582001
-4.3535199 -54.616001 68.4161
-4.1113901 -54.667999 68.4981
-4.0838299 -53.824299 69.413696
-4.5339599 -55.0522 69.033798
-3.5973699 -56.507999 67.726097
-3.4174199 -56.502102 67.783096
0.044622999 -64.803398 62.5625
0.051206 -64.721703 62.768299
-0.45085999 -64.670799 62.919701
-0.47451201 -64.689796 62.731201
-1.3082 -64.155998 63.368099
-1.29089 -64.001701 63.1782
-2.06654 -62.636398 64.090897
-2.1350601 -62.616199 63.843399
-2.39061 -60.915401 64.745102
-2.4920399 -60.902199 64.617798
-2.69663 -59.414501 65.993797
-2.8146501 -59.381599 65.882103
-2.98265 -58.108501 66.795601
-2.82147 -58.119499 66.878998
-10.7819 -47.395401 68.9935
-9.1493597 -48.567799 68.294197
-9.5148802 -49.6763 69.319298
-11.7316 -48.677299 70.042503
0.012436 -69.2118 73.058601
-1.2923501 -59.765701 82.158997
-0.64666402 -60.866402 80.710999
-1.38184 -59.0481 83.364502
-2.79514 -59.750099 82.117996
-0.355762 -61.295799 79.226501
-0.27797699 -61.442299 78.904404
-0.168249 -63.489601 77.187798
-0.104607 -65.277199 76.067299
-0.57229298 -69.078598 72.9338
-0.001463 -68.400803 73.665298
-0.67714298 -68.169403 73.586998
-0.050719 -66.881401 74.926201
-0.78004402 -66.731697 74.746201
-0.86489999 -65.036499 75.929604
-0.97682297 -63.273602 77.040001
0.44598401 -69.2174 67.6446
-5.4612799 -58.1595 78.632301
-5.3805699 -58.202202 78.451897
-5.0852799 -58.190201 78.537399
-5.2174401 -58.219501 78.715698
-4.7821898 -58.5387 79.0168
-4.9463 -58.744701 79.000298
-5.1259999 -58.382401 78.009499
-4.8860698 -58.258301 78.221397
-4.55761 -58.754501 77.424301
-4.3769302 -58.468399 77.748901
-3.9219201 -58.820801 77.363602
-3.82634 -58.485802 77.633301
-4.70367 -58.5313 76.8554
-4.6249099 -58.761501 77.114403
-5.2350001 -58.3438 77.621101
-5.5178599 -57.899101 76.896599
-3.46277 -58.970299 77.524803
-3.33549 -58.682301 77.668098
-3.98703 -58.8783 76.882004
-3.9153399 -58.935398 77.082397
-2.94876 -59.049 77.848602
-3.0372701 -58.8242 77.938103
-3.4159601 -59.186798 77.067299
-3.4379001 -59.166599 77.258003
-3.0548301 -59.268501 78.436501
-3.11798 -59.051701 78.453598
-2.8587799 -59.387501 77.7062
-2.8792601 -59.318001 77.754204
-3.4369199 -59.253899 78.9049
-3.43278 -58.978802 78.925598
-2.9941101 -59.502602 78.397003
-3.3140299 -59.554699 78.937302
-3.7770801 -58.887402 79.065399
-3.8278 -59.2141 79.023598
-3.7704999 -59.555698 79.142899
-4.1672301 -58.8405 79.1446
-4.25769 -59.216301 78.9702
-4.2911 -59.463299 79.125603
-5.11552 -58.9161 78.985603
-5.631 -58.157799 78.622101
-3.4620399 -64.416702 68.494598
-3.21259 -66.155998 68.711899
-3.48667 -64.875099 69.101303
-3.2172201 -66.825104 69.966202
-3.3752301 -65.972397 70.146202
-3.25209 -64.273499 67.871597
-2.96558 -66.077499 67.944099
-3.7295301 -62.475201 68.422997
-3.7697699 -63.255699 69.3508
-2.84342 -67.039902 71.067596
-2.7102799 -67.966301 68.960403
-2.8387899 -68.1689 69.9925
-3.7470901 -64.275002 70.542702
-2.5274 -67.856796 68.350998
-2.8638999 -64.314003 67.429298
-2.54935 -66.2584 67.544403
-3.5256801 -62.126301 67.840401
-3.8531599 -60.811001 68.694603
-4.0879798 -61.657101 69.725098
-2.13116 -67.901604 67.835297
-1.58837 -68.938004 68.455597
-2.13043 -68.891602 68.991302
-2.3313501 -68.869202 69.370796
-1.39696 -68.172997 67.260101
-0.95756 -69.042603 67.936996
-2.5113101 -68.807297 70.208801
-0.52084202 -68.491501 67.324699
-0.32479501 -69.265198 67.712898
-1.92219 -66.587799 67.170097
-2.3233099 -64.401299 67.3452
-2.4657099 -68.6446 70.988602
-2.1501801 -68.639702 71.528297
-2.3494 -67.363701 71.862099
-3.0662899 -62.278 67.655296
-2.5769 -62.325001 67.703903
-3.1823599 -65.144096 71.6931
-3.96191 -62.4921 71.037399
-3.72563 -60.348202 68.370003
-3.2916 -60.362801 68.142799
-2.87731 -60.418201 68.241798
-2.8048899 -65.5252 72.341202
-3.3706 -63.439098 72.306602
-4.2774401 -58.8764 69.663597
-4.4766598 -59.7332 70.255699
-4.1382098 -58.490101 69.150101
-6.39568 -57.336498 77.371597
-5.6061301 -57.992199 78.504303
-7.0447798 -56.317799 76.695198
-7.4388299 -54.480701 76.000801
-6.4976001 -55.985199 75.034203
-5.9197001 -56.8601 75.895897
-4.99019 -57.617199 75.552101
-4.74756 -58.407001 76.544296
-4.0514002 -58.485802 75.432404
-3.97313 -58.857399 76.473801
-3.2430699 -59.296799 75.941002
-3.33232 -59.3736 76.689903
-2.66468 -59.738602 77.1875
-2.7595401 -59.6637 77.329697
-2.90925 -59.983398 78.050201
-3.05775 -60.0154 78.299698
-3.43766 -59.950298 79.122704
-3.8770599 -59.8549 79.484299
-4.4739799 -59.621601 79.6315
-5.29425 -58.744999 79.368896
-6.0282102 -57.5187 78.858299
-1.49279 -68.735802 72.198097
-1.19238 -68.863098 72.580399
-1.7368701 -67.593903 72.583397
-1.39696 -67.793098 73.175598
-3.7509899 -60.177299 79.937798
-3.08775 -60.5247 79.482803
-2.79124 -60.8186 79.740501
-3.62273 -60.446701 80.305
-4.1077299 -58.5187 82.391296
-3.4513099 -60.561798 80.709602
-2.4023099 -61.190899 80.001198
-2.0606899 -61.244099 80.2258
-3.1689401 -60.349201 81.5028
-3.58006 -56.671299 69.637802
-3.20138 -58.569401 69.118896
-3.55738 -58.5214 68.999397
-4.1118698 -56.5145 69.283997
-4.5902901 -56.567001 69.524597
-4.90557 -56.730801 69.9645
-4.8455901 -57.548698 70.705803
-5.1635599 -54.981499 69.2603
-4.9184999 -54.9491 68.952301
-1.43353 -60.970501 80.387901
-1.05607 -61.565701 78.6418
-1.11849 -61.456001 78.997299
-1.8158799 -61.2738 78.653
-1.8822 -61.437199 78.379204
-1.80442 -62.756599 76.610901
-1.67957 -64.589798 75.380699
-2.17432 -61.829498 76.329201
-2.4749801 -62.152401 75.203697
-2.65591 -60.794899 76.987297
-2.8229401 -60.531601 75.970497
-2.1494501 -61.722198 76.835701
-2.05265 -61.238201 78.5811
-2.58568 -60.761501 78.052696
-2.0682499 -61.282101 78.297699
-2.6210401 -60.681999 78.364502
-4.5990701 -59.679401 80.287003
-4.4193602 -59.395 80.806396
-3.1967399 -60.6311 74.898598
-3.8468201 -60.237301 73.712601
-3.03215 -62.099201 74.285797
-5.5588198 -57.360401 74.331902
-4.4695902 -58.679798 74.107101
-5.89434 -56.051498 71.839401
-4.9245901 -58.333801 72.197601
-4.6512499 -58.596001 73.059601
-5.7958298 -56.771801 73.145401
-4.1743002 -60.067799 72.699203
-4.3501101 -59.890301 71.415802
-4.1269898 -60.9188 71.713303
-3.6066401 -61.575001 73.133003
-2.84147 -63.821499 73.296303
-2.27649 -64.140701 74.209297
-1.5503401 -66.424004 74.119797
-2.13921 -65.952103 73.123703
-1.72127 -66.294998 73.803299
-4.9784799 -56.083401 70.879402
-8.5451298 -52.125198 75.017403
-7.63731 -54.055901 73.802101
-0.33991301 -51.936699 65.624603
-0.188244 -53.836201 65.527397
-1.28089 -54.202702 66.181801
-1.38647 -52.659 66.806801
-2.5271599 -54.696999 66.292
-3.1823599 -55.271198 66.654404
-3.62273 -53.34 67.351303
-2.73808 -53.066399 66.879402
-4.3847299 -53.939098 67.639297
-4.8126702 -52.699699 67.8302
-4.2742701 -51.395401 67.255402
-3.5013001 -55.760601 67.124298
-4.7734098 -54.4044 68.138397
-3.71856 -56.3899 67.577301
-2.9307101 -51.327099 66.549797
-1.3499 -51.348301 65.903099
-5.0606499 -50.474602 67.415398
-6.1774402 -50.1833 67.6922
-5.40447 -51.437599 68.508797
-6.7904601 -51.060299 68.810898
-5.4156899 -54.2939 70.190102
-5.5063901 -52.6758 69.3573
-5.11625 -53.894501 68.470299
-6.6946301 -52.319302 69.783798
-6.52247 -53.679699 70.649002
0.053157002 -64.178902 62.203098
0.082905002 -63.764198 62.0965
-0.42062399 -63.961399 62.395699
-0.38965601 -63.560101 62.278702
0.022677001 -64.569603 62.286499
0.112898 -63.3255 61.966999
-0.45232299 -64.356697 62.481998
0.170444 -62.468601 61.946301
-0.35990801 -63.153801 62.130901
0.121676 -61.005798 62.398201
-0.32699001 -62.393299 62.088699
-0.03365 -59.402802 63.1833
-0.603504 -61.1073 62.560299
-0.067786999 -57.673801 64.214996
-0.71225703 -59.683998 63.247501
-0.126065 -55.981998 65.288399
-2.7541699 -57.197102 65.890701
-2.9158399 -57.438499 66.092796
-3.0204501 -57.703999 66.318901
-3.11676 -58.0937 66.702698
-2.5300801 -58.880501 65.093803
-2.7014999 -59.0951 65.393204
-2.14677 -60.373798 64.077202
-2.3220899 -60.6054 64.275497
-1.63885 -61.841702 63.2687
-1.79003 -62.045601 63.436401
-1.96876 -60.230202 63.834099
-2.34306 -58.661598 64.842201
-2.51789 -60.810001 64.491302
-2.85707 -59.302101 65.700996
-1.01267 -62.9534 62.665199
-1.09387 -63.281399 62.788101
-1.48474 -61.6213 63.077202
-1.93731 -62.233799 63.579601
-1.64324 -59.984402 63.5186
-1.9168299 -58.331402 64.496399
-0.92976201 -62.615398 62.512501
-1.1736 -63.5979 62.881699
-1.2472399 -61.336201 62.8339
-0.85319602 -62.046101 62.424
-0.88879699 -57.975399 64.240402
-1.03803 -56.308498 65.223801
-2.1933401 -56.746899 65.470001
-11.3742 -46.376701 70.127602
-12.9903 -47.539799 71.179802
0.38795 -68.536797 67.347603
-3.6137099 -59.773701 74.678398
-4.1357698 -58.813702 81.773201
-9.3407803 -51.177399 81.057999
-7.3605499 -52.994701 81.267502
-6.8214202 -52.792801 82.719803
-6.2837601 -54.534801 81.098503
-6.1950002 -54.484299 81.753403
-5.8533802 -55.8703 81.220596
-5.7597499 -55.6553 81.913399
-4.99579 -57.601799 81.308899
-4.9155698 -57.5714 81.8237
-4.2974401 -59.141701 81.2789
-4.5827298 -56.632301 79.113899
-4.4620299 -56.606499 78.956398
-4.2898798 -56.666698 78.676903
-3.84024 -56.852299 78.259499
-3.3515799 -56.867599 78.157097
-2.9151101 -57.0415 78.187798
-2.65834 -57.166801 78.426498
-2.72808 -57.368 78.882202
-3.00265 -57.3036 79.2994
-3.31305 -57.222401 79.423302
-3.65784 -57.181198 79.493301
-4.19941 -56.9142 79.380402
0.63715398 -67.217201 67.858704
0.63715398 -64.814598 68.221802
0.87246001 -64.784897 68.149101
0.87636101 -67.158897 67.775597
1.8071001 -66.940201 67.6007
2.7332001 -66.641998 67.317596
3.14993 -64.574402 67.812401
2.80392 -64.697304 68.127899
1.82709 -64.759499 68.175003
3.4449699 -62.565701 68.208603
4.0479898 -58.844002 69.256897
4.3774199 -56.7757 69.908699
2.9014499 -62.790699 68.625603
1.87342 -62.663502 68.508499
0.63715398 -62.4986 68.372498
3.7641599 -60.729599 68.757301
2.8726799 -61 69.230797
2.86146 -59.002899 69.851402
3.1192 -57.253101 70.790604
4.52738 -53.857201 70.039398
1.87367 -60.6408 69.079903
0.63715398 -60.420399 68.970398
1.90951 -58.7654 69.903503
0.63715398 -58.5023 69.979103
1.93097 -56.989601 70.712097
0.63715398 -56.7813 70.730698
0.63691002 -53.606499 72.202003
2.0660601 -53.680199 72.070999
3.50617 -53.9818 71.727699
4.47788 -53.2966 69.8162
4.66149 -54.471199 68.506798
4.48422 -53.391201 70.066704
3.4166901 -52.277302 71.543404
3.9538701 -54.347099 68.533203
4.0943198 -56.327801 67.738998
3.5439701 -54.507301 68.696098
3.62639 -55.187302 69.201302
3.1396799 -56.258999 67.8507
3.3571899 -56.123901 67.690498
3.53544 -56.783501 68.690002
3.2065001 -55.476299 69.663101
2.1996801 -51.7938 71.945
2.7214999 -55.380001 69.900398
3.21771 -57.3843 69.109398
2.1582301 -52.0835 72.209999
3.4788699 -52.5056 71.865997
1.74224 -51.770599 72.087097
1.8036799 -55.1703 70.2388
2.7773399 -57.180698 69.328598
1.85733 -52.068401 72.305099
0.636666 -51.604801 72.25
1.0936199 -55.2346 70.134499
1.90049 -57.3419 69.274902
0.63691002 -55.504299 69.826202
0.63715398 -57.246601 68.876297
1.237 -57.172199 68.962601
0.636666 -52.039799 72.425301
1.2396801 -64.204803 63.741001
1.2538199 -64.182098 64.300598
0.63715398 -64.093803 64.1455
0.63715398 -64.145302 63.657101
1.22993 -63.186001 64.4701
0.63715398 -63.096001 64.410301
1.2352901 -61.126801 65.474197
0.63715398 -61.1292 65.454697
1.24017 -59.212601 67.614098
0.63715398 -59.231201 67.5373
1.83465 -61.269402 65.834801
1.78076 -63.154099 64.656403
1.8926899 -59.383598 67.931099
1.7732 -64.110703 64.4701
1.77369 -64.112801 63.892399
0.63715398 -63.9622 63.6091
1.24212 -64.0541 63.693699
0.63715398 -63.809799 63.238201
1.24115 -63.990398 63.255699
1.67152 -63.843601 63.887001
1.65616 -63.844601 63.329899
3.33939 -59.133202 68.064003
3.4805701 -58.339699 67.668503
2.81391 -59.263599 68.059402
3.2555101 -60.624699 66.610298
3.38889 -59.7771 66.191101
2.73369 -61.0331 66.269096
3.0302 -57.963699 67.1567
3.0187399 -61.959499 65.695396
3.2065001 -61.515701 65.250603
2.57007 -62.607899 65.265999
2.9802101 -59.4884 66.236198
2.8887701 -62.7178 64.844398
2.6568799 -63.254501 65.276199
2.8880401 -61.121201 65.231796
2.3974299 -63.619099 64.326202
2.26015 -63.8661 64.818001
2.55252 -62.412102 64.756798
2.13116 -63.262798 64.257202
3.1082301 -57.855202 66.929703
3.0836 -59.317501 66.074997
3.7614801 -58.069 66.9263
3.0297101 -60.991199 64.950401
3.6222401 -59.391602 66.077003
2.66273 -62.4133 64.179199
3.32427 -60.9939 64.823601
2.20578 -63.189701 63.6464
2.9690001 -62.511299 64.020401
0.39843401 -67.158897 67.775597
0.40209201 -64.784897 68.149101
-0.53230298 -66.940201 67.6007
-1.45841 -66.641998 67.317596
-1.8751301 -64.574402 67.812401
-0.55254102 -64.759499 68.175003
-1.52912 -64.697304 68.127899
-2.1701801 -62.565701 68.208603
-3.10286 -56.7757 69.908699
-2.77319 -58.844002 69.256897
-0.59862697 -62.663502 68.508499
-1.62666 -62.790699 68.625603
-2.4893601 -60.729599 68.757301
-1.59788 -61 69.230797
-1.58691 -59.002899 69.851402
-1.84489 -57.253101 70.790604
-3.2535601 -53.857201 70.039398
-0.59887099 -60.6408 69.079903
-0.63471502 -58.7654 69.903503
-0.65641701 -56.989601 70.712097
-0.79199302 -53.680199 72.070999
-2.2326 -53.9818 71.727699
-3.4393599 -54.471199 68.506104
-3.2611201 -53.2966 69.8162
-3.2537999 -53.391201 70.066704
-2.7024801 -54.347099 68.533203
-2.1677401 -52.277302 71.543404
-2.83586 -56.327801 67.738998
-2.26966 -54.507301 68.696098
-2.35232 -55.187302 69.201302
-2.0826399 -56.123901 67.688499
-1.86538 -56.258999 67.848198
-2.26088 -56.783298 68.688698
-1.9321899 -55.476299 69.663101
-1.44743 -55.380001 69.900398
-0.922203 -51.7938 71.945
-1.9431601 -57.3843 69.109398
-2.2174799 -52.5056 71.865997
-0.88489598 -52.0835 72.209999
-0.52986401 -55.1703 70.2388
-0.47012401 -51.770599 72.087097
-1.50279 -57.180698 69.328598
-0.58375299 -52.068401 72.305099
0.18044101 -55.2346 70.134499
-0.62642503 -57.3419 69.274902
0.037307002 -57.172199 68.962601
0.02097 -64.182098 64.300598
0.035112999 -64.204803 63.741001
0.044867001 -63.186001 64.4701
0.039501999 -61.126801 65.474197
0.034625001 -59.212601 67.614098
-0.50596797 -63.154099 64.656403
-0.56010002 -61.269402 65.834801
-0.61813402 -59.383598 67.931099
-0.498409 -64.110703 64.4701
-0.498896 -64.112801 63.892399
0.032674 -64.0541 63.693699
0.033406001 -63.990398 63.255699
-0.39672801 -63.843601 63.887001
-0.38136601 -63.844601 63.329899
-2.2060201 -58.339699 67.668503
-2.06459 -59.133202 68.064003
-1.53936 -59.263599 68.059402
-2.11409 -59.7771 66.191101
-1.98071 -60.624699 66.610298
-1.4589 -61.0331 66.269096
-1.75589 -57.963699 67.1567
-1.9317 -61.515701 65.250603
-1.74394 -61.959499 65.695396
-1.2955199 -62.607899 65.265999
-1.70566 -59.4884 66.236198
-1.38209 -63.254501 65.276199
-1.61422 -62.7178 64.844398
-1.61325 -61.121201 65.231796
-0.985358 -63.8661 64.818001
-1.12288 -63.619099 64.326202
-1.27797 -62.412102 64.756798
-0.85636598 -63.262798 64.257202
-1.83368 -57.855202 66.929703
-1.8088 -59.317501 66.074997
-2.48668 -58.069 66.9263
-1.75516 -60.991199 64.950401
-2.34745 -59.391602 66.077003
-1.38794 -62.4133 64.179199
-2.04948 -60.9939 64.823601
-0.93098098 -63.189701 63.6464
-1.6942 -62.511299 64.020401
1.81222 -70.221298 68.738197
1.22847 -70.354401 68.461998
2.4932599 -70.091103 69.205902
3.0943301 -70.1996 70.436302
2.93852 -70.136703 69.807999
2.42011 -70.417603 71.729202
2.9373 -70.291496 71.147598
1.80588 -70.536598 72.004501
1.26309 -70.645302 72.089798
0.63715398 -70.721199 72.063499
0.83978498 -70.3498 68.432503
0.63715398 -70.283501 68.464897
1.20823 -71.569504 69.601402
1.27382 -72.085701 70.239601
0.63715398 -72.025902 70.235199
0.63715398 -71.449799 69.516602
1.61178 -71.582603 69.666298
1.74516 -71.974503 70.131104
0.63715398 -72.082802 70.611397
1.29723 -72.113701 70.6399
0.812231 -70.863297 68.842598
1.20384 -70.826698 68.850899
1.29625 -71.844299 71.0737
0.63715398 -71.832298 70.986397
1.81466 -71.969597 70.525597
1.81515 -71.716499 71.008904
1.27528 -71.268303 71.648903
0.63715398 -71.306602 71.574303
1.78857 -71.169296 71.599899
0.63715398 -70.813103 68.896301
2.85342 -70.625099 69.728996
2.95558 -70.680702 70.396599
2.77514 -71.047699 70.478996
2.69029 -71.221497 69.944504
2.7878201 -70.776299 70.8601
2.28478 -71.7043 70.312202
2.30843 -71.483597 70.770401
2.50351 -71.256599 69.625801
2.5966499 -70.636803 69.229599
2.3233099 -71.025497 71.347298
2.1652999 -71.746498 69.969101
2.3152599 -71.204903 69.541901
2.40329 -70.706001 69.328796
2.6264 -70.2603 69.309601
2.4900899 -70.431999 69.270302
1.96267 -70.881599 70.0681
1.9317 -70.561401 70.035004
2.0711801 -70.768997 69.998596
1.80905 -70.846703 70.040604
2.1365299 -70.5373 69.883598
1.97779 -71.334396 69.901802
2.19505 -71.0438 69.765503
1.70517 -71.2854 69.845001
1.73517 -70.569 69.832603
2.1575 -70.3144 69.723099
2.28234 -70.643898 69.594398
2.0336299 -71.593597 69.730904
1.88683 -70.338799 69.7509
2.3703699 -70.361702 69.482903
2.3569601 -70.163498 69.341698
1.84489 -70.269302 69.306099
1.55204 -70.692398 69.444901
2.4905801 -70.213699 69.356598
1.80588 -70.268303 68.984802
1.41817 -70.782898 69.078102
0.046085998 -70.354401 68.461998
-0.53742301 -70.221298 68.738197
-1.21847 -70.091103 69.205902
-1.66396 -70.136703 69.807999
-1.81953 -70.1996 70.436302
-1.6625 -70.291496 71.147598
-1.1453201 -70.417603 71.729202
-0.53132802 -70.536598 72.004501
0.011704 -70.645302 72.089798
0.435011 -70.3498 68.432503
0.00097499997 -72.085701 70.239601
0.066569 -71.569504 69.601402
-0.47036701 -71.974503 70.131104
-0.33698699 -71.582603 69.666298
-0.022433 -72.113701 70.6399
0.070956998 -70.826698 68.850899
0.46232101 -70.863297 68.842598
-0.021945 -71.844299 71.0737
-0.54034901 -71.716499 71.008904
-0.53986198 -71.969597 70.525597
-0.00073099998 -71.268303 71.648903
-0.513771 -71.169296 71.599899
-1.41574 -71.221497 69.944504
-1.50035 -71.047699 70.478996
-1.6807899 -70.680702 70.396599
-1.57862 -70.625099 69.728996
-1.5130301 -70.776299 70.8601
-1.03388 -71.483597 70.770401
-1.0102299 -71.7043 70.312202
-1.32186 -70.636803 69.229599
-1.2287101 -71.256599 69.625801
-1.04851 -71.025497 71.347298
-0.89074701 -71.746498 69.969101
-1.12849 -70.706001 69.328796
-1.04047 -71.204903 69.541901
-1.3516001 -70.2603 69.309601
-1.2153 -70.431999 69.270302
-0.796381 -70.768997 69.998596
-0.65714902 -70.561401 70.035004
-0.68787301 -70.881599 70.0681
-0.53449702 -70.846703 70.040604
-0.86172998 -70.5373 69.883598
-0.92049599 -71.0438 69.765503
-0.70299101 -71.334396 69.901802
-0.43037701 -71.2854 69.845001
-0.46037 -70.569 69.832603
-0.88270098 -70.3144 69.723099
-1.00779 -70.643898 69.594398
-0.75907397 -71.593597 69.730904
-0.61203802 -70.338799 69.7509
-1.09557 -70.361702 69.482903
-0.57009798 -70.269302 69.306099
-1.08216 -70.163498 69.341698
-0.277246 -70.692398 69.444901
-1.21579 -70.213699 69.356598
-0.53132802 -70.268303 68.984802
-0.143378 -70.782898 69.078102
9.4478302 -51.491699 84.238899
8.8694401 -51.701599 84.399803
9.0671902 -51.480999 83.789703
6.59343 -53.535099 85.703201
6.2406001 -53.935699 85.903603
6.3778801 -53.9006 85.355904
8.5302601 -47.030602 87.562202
9.2381201 -48.1628 89.433197
11.431 -49.2169 88.053497
10.8487 -48.218601 85.768997
6.4344501 -52.776199 90.191803
6.0406499 -50.7477 90.803802
5.4712801 -49.935299 90.186203
5.4261699 -52.0774 89.301804
10.9389 -51.52 84.931702
11.8462 -51.129101 84.744102
12.1937 -52.348499 87.196198
11.9179 -52.670399 87.267403
6.7282801 -54.5714 88.954498
6.4156699 -54.634499 89.092003
5.5541902 -54.2812 88.082802
5.7312198 -54.23 87.825104
6.5995302 -49.1208 90.738899
5.99261 -48.237202 89.851402
7.64926 -52.6548 91.890099
8.3217697 -51.575802 91.931099
9.7636003 -51.044701 91.511703
11.2318 -51.7631 90.515602
7.4990602 -53.836899 91.377602
8.6168203 -55.005402 92.979797
9.0140305 -54.496498 93.171501
9.8230896 -54.192001 93.1408
10.825 -54.443901 92.518204
7.6702299 -55.535 90.442902
8.8406601 -56.3246 92.419998
8.7540998 -56.258999 92.564102
7.4834499 -55.510899 90.641701
8.4836798 -55.622799 92.763802
10.0009 -55.323601 93.565804
10.5958 -55.555 93.2407
9.86625 -56.241199 93.273903
9.5780401 -56.179298 93.339699
9.54317 -55.745499 93.473099
10.8453 -55.558498 91.844803
11.0891 -55.375599 91.932297
10.6385 -55.932999 93.139099
10.4442 -56.0327 92.921799
12.1157 -54.27 89.690399
11.8058 -54.541599 89.610901
10.0172 -56.109299 93.466499
9.7494497 -55.991001 93.089302
10.145 -55.7957 92.821098
9.6872797 -47.438599 84.100403
7.6592598 -46.486401 85.693703
5.8360701 -47.6595 88.657501
5.0889401 -49.248402 89.866699
4.93361 -51.756302 89.054001
4.6375899 -51.7211 88.899399
4.7473202 -49.111599 89.730904
5.6965899 -53.936699 87.707298
5.6712298 -54.802299 86.225502
4.7604899 -54.528702 86.972603
5.5176101 -55.063 85.856003
10.2254 -51.409801 84.141899
11.0501 -49.7775 83.227203
7.3654299 -52.945999 84.735397
6.9489498 -53.376301 85.006699
10.3508 -50.932098 83.498901
11.1847 -49.652901 82.804604
9.6251001 -47.175201 83.709503
5.5517502 -47.3535 88.673401
7.50174 -46.126999 85.501503
5.0694299 -54.5009 87.175697
10.5629 -51.4739 85.173103
10.5619 -55.3144 91.822601
11.3825 -54.373402 89.637802
8.8257904 -56.011799 92.296097
11.5353 -52.541698 87.456398
7.7736201 -55.2276 90.353401
6.7273002 -54.242001 88.903801
7.4173698 -52.9408 85.2304
6.9767499 -53.2244 85.4842
11.1457 -52.533901 87.588997
10.1718 -51.594799 85.426903
11.0084 -54.3083 89.594101
10.3305 -55.236099 91.754303
9.8374796 -55.745201 92.604301
9.6982498 -55.819599 92.722099
8.9728203 -55.8493 92.221497
8.0340405 -55.047401 90.317101
6.9960098 -53.967201 88.820198
6.0104098 -53.611401 87.695099
6.9657798 -52.194199 86.444702
8.3273802 -51.6409 85.940201
9.3829603 -52.0116 87.900398
7.8487201 -52.432899 88.350502
10.5978 -54.4678 89.8153
10.2881 -52.7202 87.7173
10.1211 -55.438 91.817703
9.9689102 -55.633801 92.111
9.1922798 -55.781101 92.082001
9.4541597 -55.787701 92.236397
9.5063496 -54.981998 91.402397
8.8165197 -53.985699 90.162003
9.6736202 -53.704102 90.042999
9.8460102 -54.817402 91.317802
8.4219904 -54.942001 90.190102
6.7090101 -53.167599 86.689201
7.43224 -53.434399 88.401703
9.10499 -52.1642 85.742699
9.9208698 -55.355301 91.662399
10.1364 -54.240002 89.859703
9.4100304 -55.465302 91.832603
8.6719303 -54.633999 90.135902
7.6699901 -53.060101 88.315903
6.8916502 -52.8167 86.500999
8.6968002 -52.091499 85.864304
9.9160004 -52.604099 87.890198
-7.7943501 -51.480999 83.789703
-7.5973201 -51.701599 84.399803
-8.1749802 -51.491699 84.238899
-5.1050301 -53.9006 85.355904
-4.9677501 -53.935699 85.903603
-5.32059 -53.535099 85.703201
-9.57584 -48.218601 85.768997
-10.1581 -49.2169 88.053497
-7.9652801 -48.1628 89.433197
-7.25741 -47.030602 87.562202
-4.1533298 -52.0774 89.301804
-4.1984401 -49.935299 90.186203
-4.7677999 -50.7477 90.803802
-5.1616101 -52.776199 90.191803
-10.6451 -52.670399 87.267403
-10.9209 -52.348499 87.196198
-10.5734 -51.129101 84.744102
-9.6660604 -51.52 84.931702
-4.4583702 -54.23 87.825104
-4.2813401 -54.2812 88.082802
-5.1428299 -54.634499 89.092003
-5.45543 -54.5714 88.954498
-4.71977 -48.237202 89.851402
-5.3266802 -49.1208 90.738899
-7.0489302 -51.575802 91.931099
-6.37642 -52.6548 91.890099
-9.95891 -51.7631 90.515602
-8.4907503 -51.044701 91.511703
-6.2262101 -53.836899 91.377602
-7.74119 -54.496498 93.171501
-7.3439698 -55.005402 92.979797
-9.5521898 -54.443901 92.518204
-8.5502501 -54.192001 93.1408
-6.2105999 -55.510899 90.641701
-7.4812498 -56.258999 92.564102
-7.5678201 -56.3246 92.419998
-6.3973899 -55.535 90.442902
-7.2108402 -55.622799 92.763802
-9.3229799 -55.555 93.2407
-8.7280102 -55.323601 93.565804
-8.3051901 -56.179298 93.339699
-8.5934095 -56.241199 93.273903
-8.2703199 -55.745499 93.473099
-9.1713104 -56.0327 92.921799
-9.3656502 -55.932999 93.139099
-9.8162699 -55.375599 91.932297
-9.5724297 -55.558498 91.844803
-10.5329 -54.541599 89.610901
-10.8428 -54.27 89.690399
-8.7443504 -56.109299 93.466499
-8.8721199 -55.7957 92.821098
-8.4795399 -55.991001 93.089302
-6.3864102 -46.486401 85.693703
-8.4144297 -47.438599 84.100403
-4.56322 -47.6595 88.657501
-3.8160999 -49.248402 89.866699
-3.6607699 -51.756302 89.054001
-3.4744799 -49.111599 89.730904
-3.3647499 -51.7211 88.899399
-4.3983898 -54.802299 86.225502
-4.4237499 -53.936699 87.707298
-4.2447701 -55.063 85.856003
-3.4876399 -54.528702 86.972603
-9.7772503 -49.7775 83.227203
-8.95259 -51.409801 84.141899
-5.6761098 -53.376301 85.006699
-6.0925899 -52.945999 84.735397
-9.07792 -50.932098 83.498901
-8.3522501 -47.175201 83.709503
-9.91185 -49.652901 82.804604
-4.2789001 -47.3535 88.673401
-6.2288899 -46.126999 85.501503
-3.7965901 -54.5009 87.175697
-9.2946901 -51.4739 85.173103
-10.1447 -54.373402 89.641701
-9.2927399 -55.3144 91.822601
-7.5529399 -56.011799 92.296097
-10.3052 -52.541698 87.456398
