ply
format ascii 1.0
comment Created by Blender 2.72 (sub 0) - www.blender.org, source file: ''
element vertex 863
property float x
property float y
property float z
property float nx
property float ny
property float nz
end_header
0.317500 -0.000000 0.025400 -0.000000 1.000000 0.000000
0.269875 -0.000000 0.028575 0.000000 1.000000 0.000000
0.254000 -0.000000 0.028575 0.000000 1.000000 0.000000
0.269875 -0.000000 0.025400 0.000000 1.000000 0.000000
0.254000 -0.000000 0.025400 -0.000000 1.000000 0.000000
0.285750 -0.000000 0.019050 0.000000 1.000000 0.000000
0.269875 -0.000000 0.019050 0.000000 1.000000 0.000000
0.269875 -0.000000 0.022225 0.000000 1.000000 0.000000
0.285750 -0.000000 0.022225 0.000000 1.000000 0.000000
0.254000 -0.000000 0.019050 0.000000 1.000000 0.000000
0.254000 -0.000000 0.022225 0.000000 1.000000 0.000000
0.301625 -0.000000 0.022225 0.000000 1.000000 0.000000
0.301625 -0.000000 0.019050 0.000000 1.000000 0.000000
0.317500 -0.000000 0.022225 0.000000 1.000000 0.000000
0.317500 -0.000000 0.019050 0.000000 1.000000 0.000000
0.301625 -0.000000 0.015875 0.000000 1.000000 0.000000
0.285750 -0.000000 0.015875 0.000000 1.000000 0.000000
0.301625 -0.000000 0.012700 0.000000 1.000000 0.000000
0.285750 -0.000000 0.012700 0.000000 1.000000 0.000000
0.317500 -0.000000 0.015875 0.000000 1.000000 0.000000
0.317500 -0.000000 0.012700 -0.000000 1.000000 0.000000
0.269875 -0.000000 0.015875 0.000000 1.000000 0.000000
0.254000 -0.000000 0.015875 0.000000 1.000000 0.000000
0.269875 -0.000000 0.012700 -0.000000 1.000000 0.000000
0.254000 -0.000000 0.012700 0.000000 1.000000 0.000000
0.285750 -0.000000 0.006350 0.000000 1.000000 0.000000
0.269875 -0.000000 0.006350 0.000000 1.000000 0.000000
0.269875 -0.000000 0.009525 0.000000 1.000000 0.000000
0.285750 -0.000000 0.009525 0.000000 1.000000 0.000000
0.254000 -0.000000 0.006350 0.000000 1.000000 0.000000
0.254000 -0.000000 0.009525 0.000000 1.000000 0.000000
0.301625 -0.000000 0.009525 0.000000 1.000000 0.000000
0.301625 -0.000000 0.006350 0.000000 1.000000 0.000000
0.317500 -0.000000 0.009525 -0.000000 1.000000 0.000000
0.317500 -0.000000 0.006350 -0.000000 1.000000 0.000000
0.301625 -0.000000 0.003175 0.000000 1.000000 0.000000
0.285750 -0.000000 0.003175 0.000000 1.000000 0.000000
0.301625 0.000000 0.000000 0.000000 1.000000 0.000000
0.285750 0.000000 0.000000 0.000000 1.000000 0.000000
0.317500 -0.000000 0.003175 -0.000000 1.000000 0.000000
0.317500 0.000000 0.000000 0.000000 1.000000 0.000000
0.269875 -0.000000 0.003175 0.000000 1.000000 0.000000
0.254000 -0.000000 0.003175 0.000000 1.000000 0.000000
0.269875 0.000000 0.000000 0.000000 1.000000 0.000000
0.254000 0.000000 0.000000 0.000000 1.000000 0.000000
0.349250 -0.000000 0.044450 0.000000 1.000000 0.000000
0.333375 -0.000000 0.044450 0.000000 1.000000 0.000000
0.333375 -0.000000 0.047625 0.000000 1.000000 0.000000
0.349250 -0.000000 0.047625 0.000000 1.000000 0.000000
0.365125 -0.000000 0.047625 -0.000000 1.000000 0.000000
0.365125 -0.000000 0.044450 -0.000000 1.000000 0.000000
0.381000 -0.000000 0.047625 0.000000 1.000000 0.000000
0.381000 -0.000000 0.044450 0.000000 1.000000 0.000000
0.365125 -0.000000 0.041275 -0.000000 1.000000 0.000000
0.349250 -0.000000 0.041275 -0.000000 1.000000 0.000000
0.365125 -0.000000 0.038100 0.000000 1.000000 0.000000
0.349250 -0.000000 0.038100 0.000000 1.000000 0.000000
0.381000 -0.000000 0.041275 0.000000 1.000000 0.000000
0.381000 -0.000000 0.038100 0.000000 1.000000 0.000000
0.333375 -0.000000 0.041275 0.000000 1.000000 0.000000
0.333375 -0.000000 0.038100 0.000000 1.000000 0.000000
0.349250 -0.000000 0.031750 0.000000 1.000000 0.000000
0.333375 -0.000000 0.031750 0.000000 1.000000 0.000000
0.333375 -0.000000 0.034925 0.000000 1.000000 0.000000
0.349250 -0.000000 0.034925 0.000000 1.000000 0.000000
0.365125 -0.000000 0.034925 0.000000 1.000000 0.000000
0.365125 -0.000000 0.031750 0.000000 1.000000 0.000000
0.381000 -0.000000 0.034925 -0.000000 1.000000 0.000000
0.381000 -0.000000 0.031750 -0.000000 1.000000 0.000000
0.365125 -0.000000 0.028575 0.000000 1.000000 0.000000
0.349250 -0.000000 0.028575 0.000000 1.000000 0.000000
0.365125 -0.000000 0.025400 0.000000 1.000000 0.000000
0.349250 -0.000000 0.025400 0.000000 1.000000 0.000000
0.381000 -0.000000 0.028575 -0.000000 1.000000 0.000000
0.381000 -0.000000 0.025400 -0.000000 1.000000 0.000000
0.333375 -0.000000 0.028575 0.000000 1.000000 0.000000
0.333375 -0.000000 0.025400 0.000000 1.000000 0.000000
0.349250 -0.000000 0.019050 0.000000 1.000000 0.000000
0.333375 -0.000000 0.019050 0.000000 1.000000 0.000000
0.333375 -0.000000 0.022225 0.000000 1.000000 0.000000
0.349250 -0.000000 0.022225 0.000000 1.000000 0.000000
0.365125 -0.000000 0.022225 0.000000 1.000000 0.000000
0.365125 -0.000000 0.019050 0.000000 1.000000 0.000000
0.381000 -0.000000 0.022225 0.000000 1.000000 0.000000
0.381000 -0.000000 0.019050 0.000000 1.000000 0.000000
0.365125 -0.000000 0.015875 0.000000 1.000000 0.000000
0.349250 -0.000000 0.015875 0.000000 1.000000 0.000000
0.365125 -0.000000 0.012700 0.000000 1.000000 0.000000
0.349250 -0.000000 0.012700 0.000000 1.000000 0.000000
0.381000 -0.000000 0.015875 0.000000 1.000000 0.000000
0.381000 -0.000000 0.012700 -0.000000 1.000000 0.000000
0.333375 -0.000000 0.015875 0.000000 1.000000 0.000000
0.333375 -0.000000 0.012700 -0.000000 1.000000 0.000000
0.349250 -0.000000 0.006350 0.000000 1.000000 0.000000
0.333375 -0.000000 0.006350 0.000000 1.000000 0.000000
0.333375 -0.000000 0.009525 0.000000 1.000000 0.000000
0.349250 -0.000000 0.009525 0.000000 1.000000 0.000000
0.365125 -0.000000 0.009525 0.000000 1.000000 0.000000
0.365125 -0.000000 0.006350 0.000000 1.000000 0.000000
0.381000 -0.000000 0.009525 -0.000000 1.000000 0.000000
0.381000 -0.000000 0.006350 -0.000000 1.000000 0.000000
0.365125 -0.000000 0.003175 0.000000 1.000000 0.000000
0.349250 -0.000000 0.003175 0.000000 1.000000 0.000000
0.365125 0.000000 0.000000 0.000000 1.000000 0.000000
0.349250 0.000000 0.000000 0.000000 1.000000 0.000000
0.381000 -0.000000 0.003175 -0.000000 1.000000 0.000000
0.381000 0.000000 0.000000 0.000000 1.000000 0.000000
0.333375 -0.000000 0.003175 0.000000 1.000000 0.000000
0.333375 0.000000 0.000000 0.000000 1.000000 0.000000
0.412750 -0.000000 0.044450 0.000000 1.000000 0.000000
0.396875 -0.000000 0.044450 0.000000 1.000000 0.000000
0.396875 -0.000000 0.047625 0.000000 1.000000 0.000000
0.412750 -0.000000 0.047625 0.000000 1.000000 0.000000
0.428625 -0.000000 0.047625 -0.000000 1.000000 0.000000
0.428625 -0.000000 0.044450 -0.000000 1.000000 0.000000
0.444500 -0.000000 0.047625 0.000000 1.000000 0.000000
0.444500 -0.000000 0.044450 0.000000 1.000000 0.000000
0.428625 -0.000000 0.041275 -0.000000 1.000000 0.000000
0.412750 -0.000000 0.041275 -0.000000 1.000000 0.000000
0.428625 -0.000000 0.038100 0.000000 1.000000 0.000000
0.412750 -0.000000 0.038100 0.000000 1.000000 0.000000
0.444500 -0.000000 0.041275 0.000000 1.000000 0.000000
0.444500 -0.000000 0.038100 0.000000 1.000000 0.000000
0.396875 -0.000000 0.041275 0.000000 1.000000 0.000000
0.396875 -0.000000 0.038100 0.000000 1.000000 0.000000
0.412750 -0.000000 0.031750 0.000000 1.000000 0.000000
0.396875 -0.000000 0.031750 0.000000 1.000000 0.000000
0.396875 -0.000000 0.034925 0.000000 1.000000 0.000000
0.412750 -0.000000 0.034925 0.000000 1.000000 0.000000
0.428625 -0.000000 0.034925 0.000000 1.000000 0.000000
0.428625 -0.000000 0.031750 0.000000 1.000000 0.000000
0.444500 -0.000000 0.034925 -0.000000 1.000000 0.000000
0.444500 -0.000000 0.031750 -0.000000 1.000000 0.000000
0.428625 -0.000000 0.028575 0.000000 1.000000 0.000000
0.412750 -0.000000 0.028575 0.000000 1.000000 0.000000
0.428625 -0.000000 0.025400 0.000000 1.000000 0.000000
0.412750 -0.000000 0.025400 0.000000 1.000000 0.000000
0.444500 -0.000000 0.028575 -0.000000 1.000000 0.000000
0.444500 -0.000000 0.025400 -0.000000 1.000000 0.000000
0.396875 -0.000000 0.028575 0.000000 1.000000 0.000000
0.396875 -0.000000 0.025400 0.000000 1.000000 0.000000
0.412750 -0.000000 0.019050 0.000000 1.000000 0.000000
0.396875 -0.000000 0.019050 0.000000 1.000000 0.000000
0.396875 -0.000000 0.022225 0.000000 1.000000 0.000000
0.412750 -0.000000 0.022225 0.000000 1.000000 0.000000
0.428625 -0.000000 0.022225 0.000000 1.000000 0.000000
0.428625 -0.000000 0.019050 0.000000 1.000000 0.000000
0.444500 -0.000000 0.022225 0.000000 1.000000 0.000000
0.444500 -0.000000 0.019050 0.000000 1.000000 0.000000
0.428625 -0.000000 0.015875 0.000000 1.000000 0.000000
0.412750 -0.000000 0.015875 0.000000 1.000000 0.000000
0.428625 -0.000000 0.012700 0.000000 1.000000 0.000000
0.412750 -0.000000 0.012700 0.000000 1.000000 0.000000
0.444500 -0.000000 0.015875 0.000000 1.000000 0.000000
0.444500 -0.000000 0.012700 -0.000000 1.000000 0.000000
0.396875 -0.000000 0.015875 0.000000 1.000000 0.000000
0.396875 -0.000000 0.012700 -0.000000 1.000000 0.000000
0.412750 -0.000000 0.006350 0.000000 1.000000 0.000000
0.396875 -0.000000 0.006350 0.000000 1.000000 0.000000
0.396875 -0.000000 0.009525 0.000000 1.000000 0.000000
0.412750 -0.000000 0.009525 0.000000 1.000000 0.000000
0.428625 -0.000000 0.009525 0.000000 1.000000 0.000000
0.428625 -0.000000 0.006350 0.000000 1.000000 0.000000
0.444500 -0.000000 0.009525 -0.000000 1.000000 0.000000
0.444500 -0.000000 0.006350 -0.000000 1.000000 0.000000
0.428625 -0.000000 0.003175 0.000000 1.000000 0.000000
0.412750 -0.000000 0.003175 0.000000 1.000000 0.000000
0.428625 0.000000 0.000000 0.000000 1.000000 0.000000
0.412750 0.000000 0.000000 0.000000 1.000000 0.000000
0.444500 -0.000000 0.003175 -0.000000 1.000000 0.000000
0.444500 0.000000 0.000000 0.000000 1.000000 0.000000
0.396875 -0.000000 0.003175 0.000000 1.000000 0.000000
0.396875 0.000000 0.000000 0.000000 1.000000 0.000000
0.476250 -0.000000 0.044450 0.000000 1.000000 0.000000
0.460375 -0.000000 0.044450 0.000000 1.000000 0.000000
0.460375 -0.000000 0.047625 0.000000 1.000000 0.000000
0.476250 -0.000000 0.047625 0.000000 1.000000 0.000000
0.492125 -0.000000 0.047625 -0.000000 1.000000 0.000000
0.492125 -0.000000 0.044450 -0.000000 1.000000 0.000000
0.508000 -0.000000 0.047625 0.000000 1.000000 0.000000
0.508000 -0.000000 0.044450 0.000000 1.000000 0.000000
0.492125 -0.000000 0.041275 -0.000000 1.000000 0.000000
0.476250 -0.000000 0.041275 -0.000000 1.000000 0.000000
0.492125 -0.000000 0.038100 0.000000 1.000000 0.000000
0.476250 -0.000000 0.038100 0.000000 1.000000 0.000000
0.508000 -0.000000 0.041275 0.000000 1.000000 0.000000
0.508000 -0.000000 0.038100 0.000000 1.000000 0.000000
0.460375 -0.000000 0.041275 0.000000 1.000000 0.000000
0.460375 -0.000000 0.038100 0.000000 1.000000 0.000000
0.476250 -0.000000 0.031750 0.000000 1.000000 0.000000
0.460375 -0.000000 0.031750 0.000000 1.000000 0.000000
0.460375 -0.000000 0.034925 0.000000 1.000000 0.000000
0.476250 -0.000000 0.034925 0.000000 1.000000 0.000000
0.492125 -0.000000 0.034925 0.000000 1.000000 0.000000
0.492125 -0.000000 0.031750 0.000000 1.000000 0.000000
0.508000 -0.000000 0.034925 -0.000000 1.000000 0.000000
0.508000 -0.000000 0.031750 -0.000000 1.000000 0.000000
0.492125 -0.000000 0.028575 0.000000 1.000000 0.000000
0.476250 -0.000000 0.028575 0.000000 1.000000 0.000000
0.492125 -0.000000 0.025400 0.000000 1.000000 0.000000
0.476250 -0.000000 0.025400 0.000000 1.000000 0.000000
0.508000 -0.000000 0.028575 -0.000000 1.000000 0.000000
0.508000 -0.000000 0.025400 -0.000000 1.000000 0.000000
0.460375 -0.000000 0.028575 0.000000 1.000000 0.000000
0.460375 -0.000000 0.025400 0.000000 1.000000 0.000000
0.476250 -0.000000 0.019050 0.000000 1.000000 0.000000
0.460375 -0.000000 0.019050 0.000000 1.000000 0.000000
0.460375 -0.000000 0.022225 0.000000 1.000000 0.000000
0.476250 -0.000000 0.022225 0.000000 1.000000 0.000000
0.492125 -0.000000 0.022225 0.000000 1.000000 0.000000
0.492125 -0.000000 0.019050 0.000000 1.000000 0.000000
0.508000 -0.000000 0.022225 0.000000 1.000000 0.000000
0.508000 -0.000000 0.019050 0.000000 1.000000 0.000000
0.492125 -0.000000 0.015875 0.000000 1.000000 0.000000
0.476250 -0.000000 0.015875 0.000000 1.000000 0.000000
0.492125 -0.000000 0.012700 0.000000 1.000000 0.000000
0.476250 -0.000000 0.012700 0.000000 1.000000 0.000000
0.508000 -0.000000 0.015875 0.000000 1.000000 0.000000
0.508000 -0.000000 0.012700 -0.000000 1.000000 0.000000
0.460375 -0.000000 0.015875 0.000000 1.000000 0.000000
0.460375 -0.000000 0.012700 -0.000000 1.000000 0.000000
0.476126 -0.000000 0.006375 0.000000 1.000000 0.000000
0.460375 -0.000000 0.006350 0.000000 1.000000 0.000000
0.460375 -0.000000 0.009525 0.000000 1.000000 0.000000
0.476250 -0.000000 0.009525 0.000000 1.000000 0.000000
0.492125 -0.000000 0.009525 -0.000000 1.000000 0.000000
0.491629 -0.000000 0.006449 -0.000000 1.000000 0.000000
0.508000 -0.000000 0.009525 0.000000 1.000000 0.000000
0.507008 -0.000000 0.006548 0.000000 1.000000 0.000000
0.490141 -0.000000 0.003572 0.000000 1.000000 0.000000
0.475754 -0.000000 0.003274 0.000000 1.000000 0.000000
0.488156 -0.000000 0.000794 0.000000 1.000000 0.000000
0.475258 -0.000000 0.000198 0.000000 1.000000 0.000000
0.504031 -0.000000 0.003969 0.000000 1.000000 0.000000
0.498078 -0.000000 0.001984 0.000000 1.000000 0.000000
0.460375 -0.000000 0.003175 0.000000 1.000000 0.000000
0.460375 0.000000 0.000000 0.000000 1.000000 0.000000
0.222250 -0.000000 0.044450 -0.000000 1.000000 0.000000
0.222250 -0.000000 0.047625 -0.000000 1.000000 0.000000
0.238125 -0.000000 0.047625 -0.000000 1.000000 0.000000
0.238125 -0.000000 0.044450 -0.000000 1.000000 0.000000
0.222250 -0.000000 0.050800 -0.000000 1.000000 0.000000
0.238125 -0.000000 0.050800 -0.000000 1.000000 0.000000
0.238125 -0.000000 0.041275 0.000000 1.000000 0.000000
0.222250 -0.000000 0.041275 0.000000 1.000000 0.000000
0.238125 -0.000000 0.038100 0.000000 1.000000 0.000000
0.222250 -0.000000 0.038100 0.000000 1.000000 0.000000
0.206375 -0.000000 0.041275 0.000000 1.000000 0.000000
0.206375 -0.000000 0.044450 0.000000 1.000000 0.000000
0.190500 -0.000000 0.041275 0.000000 1.000000 0.000000
0.190500 -0.000000 0.044450 0.000000 1.000000 0.000000
0.206375 -0.000000 0.038100 0.000000 1.000000 0.000000
0.190500 -0.000000 0.038100 0.000000 1.000000 0.000000
0.206375 -0.000000 0.047625 0.000000 1.000000 0.000000
0.206375 -0.000000 0.050800 0.000000 1.000000 0.000000
0.190500 -0.000000 0.047625 0.000000 1.000000 0.000000
0.190500 -0.000000 0.050800 0.000000 1.000000 0.000000
0.158750 -0.000000 0.044450 -0.000000 1.000000 0.000000
0.158750 -0.000000 0.047625 -0.000000 1.000000 0.000000
0.174625 -0.000000 0.047625 -0.000000 1.000000 0.000000
0.174625 -0.000000 0.044450 -0.000000 1.000000 0.000000
0.158750 -0.000000 0.050800 -0.000000 1.000000 0.000000
0.174625 -0.000000 0.050800 -0.000000 1.000000 0.000000
0.174625 -0.000000 0.041275 0.000000 1.000000 0.000000
0.158750 -0.000000 0.041275 0.000000 1.000000 0.000000
0.174625 -0.000000 0.038100 0.000000 1.000000 0.000000
0.158750 -0.000000 0.038100 0.000000 1.000000 0.000000
0.142875 -0.000000 0.041275 0.000000 1.000000 0.000000
0.142875 -0.000000 0.044450 0.000000 1.000000 0.000000
0.127000 -0.000000 0.041275 0.000000 1.000000 0.000000
0.127000 -0.000000 0.044450 0.000000 1.000000 0.000000
0.142875 -0.000000 0.038100 0.000000 1.000000 0.000000
0.127000 -0.000000 0.038100 0.000000 1.000000 0.000000
0.142875 -0.000000 0.047625 0.000000 1.000000 0.000000
0.142875 -0.000000 0.050800 0.000000 1.000000 0.000000
0.127000 -0.000000 0.047625 0.000000 1.000000 0.000000
0.127000 -0.000000 0.050800 0.000000 1.000000 0.000000
0.095250 -0.000000 0.044450 -0.000000 1.000000 0.000000
0.095250 -0.000000 0.047625 -0.000000 1.000000 0.000000
0.111125 -0.000000 0.047625 -0.000000 1.000000 0.000000
0.111125 -0.000000 0.044450 -0.000000 1.000000 0.000000
0.095250 -0.000000 0.050800 -0.000000 1.000000 0.000000
0.111125 -0.000000 0.050800 -0.000000 1.000000 0.000000
0.111125 -0.000000 0.041275 0.000000 1.000000 0.000000
0.095250 -0.000000 0.041275 0.000000 1.000000 0.000000
0.111125 -0.000000 0.038100 0.000000 1.000000 0.000000
0.095250 -0.000000 0.038100 0.000000 1.000000 0.000000
0.079375 -0.000000 0.041275 0.000000 1.000000 0.000000
0.079375 -0.000000 0.044450 0.000000 1.000000 0.000000
0.063500 -0.000000 0.041275 0.000000 1.000000 0.000000
0.063500 -0.000000 0.044450 0.000000 1.000000 0.000000
0.079375 -0.000000 0.038100 0.000000 1.000000 0.000000
0.063500 -0.000000 0.038100 0.000000 1.000000 0.000000
0.079375 -0.000000 0.047625 0.000000 1.000000 0.000000
0.079375 -0.000000 0.050800 0.000000 1.000000 0.000000
0.063500 -0.000000 0.047625 0.000000 1.000000 0.000000
0.063500 -0.000000 0.050800 0.000000 1.000000 0.000000
0.032742 -0.000198 0.044450 -0.013332 0.999911 0.000000
0.032742 -0.000198 0.047625 -0.013332 0.999911 0.000000
0.047625 -0.000000 0.047625 -0.013332 0.999911 0.000000
0.047625 -0.000000 0.044450 -0.013332 0.999911 0.000000
0.047625 -0.000000 0.044450 0.000000 1.000000 0.000000
0.047625 -0.000000 0.047625 0.000000 1.000000 0.000000
0.032742 -0.000198 0.050800 -0.013332 0.999911 0.000000
0.047625 -0.000000 0.050800 -0.013332 0.999911 0.000000
0.047625 -0.000000 0.050800 0.000000 1.000000 0.000000
0.047625 -0.000000 0.041275 -0.013332 0.999911 0.000000
0.032742 -0.000198 0.041275 -0.013332 0.999911 0.000000
0.047625 -0.000000 0.038100 -0.013332 0.999911 0.000000
0.032742 -0.000198 0.038100 -0.013332 0.999911 0.000000
0.047625 -0.000000 0.041275 0.000000 1.000000 0.000000
0.047625 -0.000000 0.038100 0.000000 1.000000 0.000000
0.032742 -0.000198 0.044450 -0.046105 0.998937 0.000000
0.032742 -0.000198 0.041275 -0.046105 0.998937 0.000000
0.019844 -0.000794 0.041275 -0.046105 0.998937 0.000000
0.019844 -0.000794 0.044450 -0.046105 0.998937 0.000000
0.019844 -0.000794 0.044450 -0.119145 0.992877 0.000000
0.019844 -0.000794 0.041275 -0.119145 0.992877 0.000000
0.009922 -0.001984 0.041275 -0.119145 0.992877 0.000000
0.009922 -0.001984 0.044450 -0.119145 0.992877 0.000000
0.032742 -0.000198 0.038100 -0.046105 0.998937 0.000000
0.019844 -0.000794 0.038100 -0.046105 0.998937 0.000000
0.019844 -0.000794 0.038100 -0.119145 0.992877 0.000000
0.009922 -0.001984 0.038100 -0.119145 0.992877 0.000000
0.019844 -0.000794 0.047625 -0.046105 0.998937 0.000000
0.032742 -0.000198 0.047625 -0.046105 0.998937 0.000000
0.019844 -0.000794 0.050800 -0.046105 0.998937 0.000000
0.032742 -0.000198 0.050800 -0.046105 0.998937 0.000000
0.009922 -0.001984 0.047625 -0.119145 0.992877 0.000000
0.019844 -0.000794 0.047625 -0.119145 0.992877 0.000000
0.009922 -0.001984 0.050800 -0.119145 0.992877 0.000000
0.019844 -0.000794 0.050800 -0.119145 0.992877 0.000000
0.222250 -0.000000 0.031750 0.000000 1.000000 0.000000
0.222250 -0.000000 0.034925 0.000000 1.000000 0.000000
0.238125 -0.000000 0.034925 0.000000 1.000000 0.000000
0.238125 -0.000000 0.031750 0.000000 1.000000 0.000000
0.238125 -0.000000 0.028575 0.000000 1.000000 0.000000
0.222250 -0.000000 0.028575 0.000000 1.000000 0.000000
0.238125 -0.000000 0.025400 0.000000 1.000000 0.000000
0.222250 -0.000000 0.025400 0.000000 1.000000 0.000000
0.206375 -0.000000 0.028575 0.000000 1.000000 0.000000
0.206375 -0.000000 0.031750 0.000000 1.000000 0.000000
0.190500 -0.000000 0.028575 0.000000 1.000000 0.000000
0.190500 -0.000000 0.031750 0.000000 1.000000 0.000000
0.206375 -0.000000 0.025400 0.000000 1.000000 0.000000
0.190500 -0.000000 0.025400 -0.000000 1.000000 0.000000
0.206375 -0.000000 0.034925 0.000000 1.000000 0.000000
0.190500 -0.000000 0.034925 0.000000 1.000000 0.000000
0.158750 -0.000000 0.031750 0.000000 1.000000 0.000000
0.158750 -0.000000 0.034925 0.000000 1.000000 0.000000
0.174625 -0.000000 0.034925 0.000000 1.000000 0.000000
0.174625 -0.000000 0.031750 0.000000 1.000000 0.000000
0.174625 -0.000000 0.028575 0.000000 1.000000 0.000000
0.158750 -0.000000 0.028575 0.000000 1.000000 0.000000
0.174625 -0.000000 0.025400 0.000000 1.000000 0.000000
0.158750 -0.000000 0.025400 0.000000 1.000000 0.000000
0.142875 -0.000000 0.028575 0.000000 1.000000 0.000000
0.142875 -0.000000 0.031750 0.000000 1.000000 0.000000
0.127000 -0.000000 0.028575 0.000000 1.000000 0.000000
0.127000 -0.000000 0.031750 0.000000 1.000000 0.000000
0.142875 -0.000000 0.025400 0.000000 1.000000 0.000000
0.127000 -0.000000 0.025400 -0.000000 1.000000 0.000000
0.142875 -0.000000 0.034925 0.000000 1.000000 0.000000
0.127000 -0.000000 0.034925 0.000000 1.000000 0.000000
0.095250 -0.000000 0.031750 0.000000 1.000000 0.000000
0.095250 -0.000000 0.034925 0.000000 1.000000 0.000000
0.111125 -0.000000 0.034925 0.000000 1.000000 0.000000
0.111125 -0.000000 0.031750 0.000000 1.000000 0.000000
0.111125 -0.000000 0.028575 0.000000 1.000000 0.000000
0.095250 -0.000000 0.028575 0.000000 1.000000 0.000000
0.111125 -0.000000 0.025400 0.000000 1.000000 0.000000
0.095250 -0.000000 0.025400 0.000000 1.000000 0.000000
0.079375 -0.000000 0.028575 0.000000 1.000000 0.000000
0.079375 -0.000000 0.031750 0.000000 1.000000 0.000000
0.063500 -0.000000 0.028575 0.000000 1.000000 0.000000
0.063500 -0.000000 0.031750 0.000000 1.000000 0.000000
0.079375 -0.000000 0.025400 0.000000 1.000000 0.000000
0.063500 -0.000000 0.025400 -0.000000 1.000000 0.000000
0.079375 -0.000000 0.034925 0.000000 1.000000 0.000000
0.063500 -0.000000 0.034925 0.000000 1.000000 0.000000
0.032742 -0.000198 0.031750 -0.013332 0.999911 0.000000
0.032742 -0.000198 0.034925 -0.013332 0.999911 0.000000
0.047625 -0.000000 0.034925 -0.013332 0.999911 0.000000
0.047625 -0.000000 0.031750 -0.013332 0.999911 0.000000
0.047625 -0.000000 0.031750 -0.000000 1.000000 0.000000
0.047625 -0.000000 0.034925 -0.000000 1.000000 0.000000
0.047625 -0.000000 0.028575 -0.013332 0.999911 0.000000
0.032742 -0.000198 0.028575 -0.013332 0.999911 0.000000
0.047625 -0.000000 0.025400 -0.013332 0.999911 0.000000
0.032742 -0.000198 0.025400 -0.013332 0.999911 0.000000
0.047625 -0.000000 0.028575 -0.000000 1.000000 0.000000
0.047625 -0.000000 0.025400 -0.000000 1.000000 0.000000
0.032742 -0.000198 0.031750 -0.046105 0.998937 0.000000
0.032742 -0.000198 0.028575 -0.046105 0.998937 0.000000
0.019844 -0.000794 0.028575 -0.046105 0.998937 0.000000
0.019844 -0.000794 0.031750 -0.046105 0.998937 0.000000
0.019844 -0.000794 0.031750 -0.119145 0.992877 0.000000
0.019844 -0.000794 0.028575 -0.119145 0.992877 0.000000
0.009922 -0.001984 0.028575 -0.119145 0.992877 0.000000
0.009922 -0.001984 0.031750 -0.119145 0.992877 0.000000
0.032742 -0.000198 0.025400 -0.046105 0.998937 0.000000
0.019844 -0.000794 0.025400 -0.046105 0.998937 0.000000
0.019844 -0.000794 0.025400 -0.119145 0.992877 0.000000
0.009922 -0.001984 0.025400 -0.119145 0.992877 0.000000
0.019844 -0.000794 0.034925 -0.046105 0.998937 0.000000
0.032742 -0.000198 0.034925 -0.046105 0.998937 0.000000
0.009922 -0.001984 0.034925 -0.119145 0.992877 0.000000
0.019844 -0.000794 0.034925 -0.119145 0.992877 0.000000
0.222250 -0.000000 0.019050 0.000000 1.000000 0.000000
0.222250 -0.000000 0.022225 0.000000 1.000000 0.000000
0.238125 -0.000000 0.022225 0.000000 1.000000 0.000000
0.238125 -0.000000 0.019050 0.000000 1.000000 0.000000
0.238125 -0.000000 0.015875 0.000000 1.000000 0.000000
0.222250 -0.000000 0.015875 0.000000 1.000000 0.000000
0.238125 -0.000000 0.012700 0.000000 1.000000 0.000000
0.222250 -0.000000 0.012700 0.000000 1.000000 0.000000
0.206375 -0.000000 0.015875 0.000000 1.000000 0.000000
0.206375 -0.000000 0.019050 0.000000 1.000000 0.000000
0.190500 -0.000000 0.015875 0.000000 1.000000 0.000000
0.190500 -0.000000 0.019050 0.000000 1.000000 0.000000
0.206375 -0.000000 0.012700 -0.000000 1.000000 0.000000
0.190500 -0.000000 0.012700 0.000000 1.000000 0.000000
0.206375 -0.000000 0.022225 0.000000 1.000000 0.000000
0.190500 -0.000000 0.022225 0.000000 1.000000 0.000000
0.158750 -0.000000 0.019050 0.000000 1.000000 0.000000
0.158750 -0.000000 0.022225 0.000000 1.000000 0.000000
0.174625 -0.000000 0.022225 0.000000 1.000000 0.000000
0.174625 -0.000000 0.019050 0.000000 1.000000 0.000000
0.174625 -0.000000 0.015875 0.000000 1.000000 0.000000
0.158750 -0.000000 0.015875 0.000000 1.000000 0.000000
0.174625 -0.000000 0.012700 0.000000 1.000000 0.000000
0.158750 -0.000000 0.012700 0.000000 1.000000 0.000000
0.142875 -0.000000 0.015875 0.000000 1.000000 0.000000
0.142875 -0.000000 0.019050 0.000000 1.000000 0.000000
0.127000 -0.000000 0.015875 0.000000 1.000000 0.000000
0.127000 -0.000000 0.019050 0.000000 1.000000 0.000000
0.142875 -0.000000 0.012700 -0.000000 1.000000 0.000000
0.127000 -0.000000 0.012700 0.000000 1.000000 0.000000
0.142875 -0.000000 0.022225 0.000000 1.000000 0.000000
0.127000 -0.000000 0.022225 0.000000 1.000000 0.000000
0.095250 -0.000000 0.019050 0.000000 1.000000 0.000000
0.095250 -0.000000 0.022225 0.000000 1.000000 0.000000
0.111125 -0.000000 0.022225 0.000000 1.000000 0.000000
0.111125 -0.000000 0.019050 0.000000 1.000000 0.000000
0.111125 -0.000000 0.015875 0.000000 1.000000 0.000000
0.095250 -0.000000 0.015875 0.000000 1.000000 0.000000
0.111125 -0.000000 0.012700 0.000000 1.000000 0.000000
0.095250 -0.000000 0.012700 0.000000 1.000000 0.000000
0.079375 -0.000000 0.015875 0.000000 1.000000 0.000000
0.079375 -0.000000 0.019050 0.000000 1.000000 0.000000
0.063500 -0.000000 0.015875 0.000000 1.000000 0.000000
0.063500 -0.000000 0.019050 0.000000 1.000000 0.000000
0.079375 -0.000000 0.012700 -0.000000 1.000000 0.000000
0.063500 -0.000000 0.012700 0.000000 1.000000 0.000000
0.079375 -0.000000 0.022225 0.000000 1.000000 0.000000
0.063500 -0.000000 0.022225 0.000000 1.000000 0.000000
0.032742 -0.000198 0.019050 -0.013332 0.999911 0.000000
0.032742 -0.000198 0.022225 -0.013332 0.999911 0.000000
0.047625 -0.000000 0.022225 -0.013332 0.999911 0.000000
0.047625 -0.000000 0.019050 -0.013332 0.999911 0.000000
0.047625 -0.000000 0.019050 0.000000 1.000000 0.000000
0.047625 -0.000000 0.022225 0.000000 1.000000 0.000000
0.047625 -0.000000 0.015875 -0.013332 0.999911 0.000000
0.032742 -0.000198 0.015875 -0.013332 0.999911 0.000000
0.047625 -0.000000 0.012700 -0.013332 0.999911 0.000000
0.032742 -0.000198 0.012700 -0.013332 0.999911 0.000000
0.047625 -0.000000 0.015875 0.000000 1.000000 0.000000
0.047625 -0.000000 0.012700 -0.000000 1.000000 0.000000
0.032742 -0.000198 0.019050 -0.046105 0.998937 0.000000
0.032742 -0.000198 0.015875 -0.046105 0.998937 0.000000
0.019844 -0.000794 0.015875 -0.046105 0.998937 0.000000
0.019844 -0.000794 0.019050 -0.046105 0.998937 0.000000
0.019844 -0.000794 0.019050 -0.119145 0.992877 0.000000
0.019844 -0.000794 0.015875 -0.119145 0.992877 0.000000
0.009922 -0.001984 0.015875 -0.119145 0.992877 0.000000
0.009922 -0.001984 0.019050 -0.119145 0.992877 0.000000
0.032742 -0.000198 0.012700 -0.046105 0.998937 0.000000
0.019844 -0.000794 0.012700 -0.046105 0.998937 0.000000
0.019844 -0.000794 0.012700 -0.119145 0.992877 0.000000
0.009922 -0.001984 0.012700 -0.119145 0.992877 0.000000
0.019844 -0.000794 0.022225 -0.046105 0.998937 0.000000
0.032742 -0.000198 0.022225 -0.046105 0.998937 0.000000
0.009922 -0.001984 0.022225 -0.119145 0.992877 0.000000
0.019844 -0.000794 0.022225 -0.119145 0.992877 0.000000
0.222250 -0.000000 0.006350 0.000000 1.000000 0.000000
0.222250 -0.000000 0.009525 0.000000 1.000000 0.000000
0.238125 -0.000000 0.009525 0.000000 1.000000 0.000000
0.238125 -0.000000 0.006350 0.000000 1.000000 0.000000
0.238125 -0.000000 0.003175 0.000000 1.000000 0.000000
0.222250 -0.000000 0.003175 0.000000 1.000000 0.000000
0.238125 0.000000 0.000000 0.000000 1.000000 0.000000
0.222250 0.000000 0.000000 0.000000 1.000000 0.000000
0.206375 -0.000000 0.003175 0.000000 1.000000 0.000000
0.206375 -0.000000 0.006350 0.000000 1.000000 0.000000
0.190500 -0.000000 0.003175 0.000000 1.000000 0.000000
0.190500 -0.000000 0.006350 0.000000 1.000000 0.000000
0.206375 0.000000 0.000000 0.000000 1.000000 0.000000
0.190500 0.000000 0.000000 0.000000 1.000000 0.000000
0.206375 -0.000000 0.009525 0.000000 1.000000 0.000000
0.190500 -0.000000 0.009525 0.000000 1.000000 0.000000
0.158750 -0.000000 0.006350 0.000000 1.000000 0.000000
0.158750 -0.000000 0.009525 0.000000 1.000000 0.000000
0.174625 -0.000000 0.009525 0.000000 1.000000 0.000000
0.174625 -0.000000 0.006350 0.000000 1.000000 0.000000
0.174625 -0.000000 0.003175 0.000000 1.000000 0.000000
0.158750 -0.000000 0.003175 0.000000 1.000000 0.000000
0.174625 0.000000 0.000000 0.000000 1.000000 0.000000
0.158750 0.000000 0.000000 0.000000 1.000000 0.000000
0.142875 -0.000000 0.003175 0.000000 1.000000 0.000000
0.142875 -0.000000 0.006350 0.000000 1.000000 0.000000
0.127000 -0.000000 0.003175 0.000000 1.000000 0.000000
0.127000 -0.000000 0.006350 0.000000 1.000000 0.000000
0.142875 0.000000 0.000000 0.000000 1.000000 0.000000
0.127000 0.000000 0.000000 0.000000 1.000000 0.000000
0.142875 -0.000000 0.009525 0.000000 1.000000 0.000000
0.127000 -0.000000 0.009525 0.000000 1.000000 0.000000
0.095250 -0.000000 0.006350 0.000000 1.000000 0.000000
0.095250 -0.000000 0.009525 0.000000 1.000000 0.000000
0.111125 -0.000000 0.009525 0.000000 1.000000 0.000000
0.111125 -0.000000 0.006350 0.000000 1.000000 0.000000
0.111125 -0.000000 0.003175 0.000000 1.000000 0.000000
0.095250 -0.000000 0.003175 0.000000 1.000000 0.000000
0.111125 0.000000 0.000000 0.000000 1.000000 0.000000
0.095250 0.000000 0.000000 0.000000 1.000000 0.000000
0.079375 -0.000000 0.003175 0.000000 1.000000 0.000000
0.079375 -0.000000 0.006350 0.000000 1.000000 0.000000
0.063500 -0.000000 0.003175 0.000000 1.000000 0.000000
0.063500 -0.000000 0.006350 0.000000 1.000000 0.000000
0.079375 0.000000 0.000000 0.000000 1.000000 0.000000
0.063500 0.000000 0.000000 0.000000 1.000000 0.000000
0.079375 -0.000000 0.009525 0.000000 1.000000 0.000000
0.063500 -0.000000 0.009525 0.000000 1.000000 0.000000
0.032742 -0.000198 0.006350 -0.013332 0.999911 0.000000
0.032742 -0.000198 0.009525 -0.013332 0.999911 0.000000
0.047625 -0.000000 0.009525 -0.013332 0.999911 0.000000
0.047625 -0.000000 0.006350 -0.013332 0.999911 0.000000
0.047625 -0.000000 0.006350 -0.000000 1.000000 0.000000
0.047625 -0.000000 0.009525 -0.000000 1.000000 0.000000
0.047625 -0.000000 0.003175 -0.013332 0.999911 0.000000
0.032742 -0.000198 0.003175 -0.013332 0.999911 0.000000
0.047625 0.000000 0.000000 -0.013332 0.999911 0.000000
0.032742 -0.000198 -0.000000 -0.013332 0.999911 0.000000
0.047625 -0.000000 0.003175 -0.000000 1.000000 0.000000
0.047625 0.000000 0.000000 0.000000 1.000000 0.000000
0.032742 -0.000198 0.006350 -0.046105 0.998937 0.000000
0.032742 -0.000198 0.003175 -0.046105 0.998937 0.000000
0.019844 -0.000794 0.003175 -0.046105 0.998937 0.000000
0.019844 -0.000794 0.006350 -0.046105 0.998937 0.000000
0.019844 -0.000794 0.006350 -0.119145 0.992877 0.000000
0.019844 -0.000794 0.003175 -0.119145 0.992877 0.000000
0.009922 -0.001984 0.003175 -0.119145 0.992877 0.000000
0.009922 -0.001984 0.006350 -0.119145 0.992877 0.000000
0.032742 -0.000198 -0.000000 -0.046105 0.998937 0.000000
0.019844 -0.000794 -0.000000 -0.046105 0.998937 0.000000
0.019844 -0.000794 -0.000000 -0.119145 0.992877 0.000000
0.009922 -0.001984 -0.000000 -0.119145 0.992877 0.000000
0.019844 -0.000794 0.009525 -0.046105 0.998937 0.000000
0.032742 -0.000198 0.009525 -0.046105 0.998937 0.000000
0.009922 -0.001984 0.009525 -0.119145 0.992877 0.000000
0.019844 -0.000794 0.009525 -0.119145 0.992877 0.000000
0.222250 -0.000000 0.057150 -0.000000 1.000000 0.000000
0.238125 -0.000000 0.057150 -0.000000 1.000000 0.000000
0.238125 -0.000000 0.053975 -0.000000 1.000000 0.000000
0.222250 -0.000000 0.053975 -0.000000 1.000000 0.000000
0.206375 -0.000000 0.053975 0.000000 1.000000 0.000000
0.206375 -0.000000 0.057150 0.000000 1.000000 0.000000
0.190500 -0.000000 0.053975 0.000000 1.000000 0.000000
0.190500 -0.000000 0.057150 0.000000 1.000000 0.000000
0.206375 -0.000000 0.060325 0.000000 1.000000 0.000000
0.222250 -0.000000 0.060325 0.000000 1.000000 0.000000
0.206375 -0.000000 0.063500 0.000000 1.000000 0.000000
0.222250 -0.000000 0.063500 0.000000 1.000000 0.000000
0.190500 -0.000000 0.060325 0.000000 1.000000 0.000000
0.190500 -0.000000 0.063500 0.000000 1.000000 0.000000
0.238125 -0.000000 0.060325 0.000000 1.000000 0.000000
0.238125 -0.000000 0.063500 0.000000 1.000000 0.000000
0.222250 -0.000000 0.069850 -0.000000 1.000000 0.000000
0.238125 -0.000000 0.069850 -0.000000 1.000000 0.000000
0.238125 -0.000000 0.066675 -0.000000 1.000000 0.000000
0.222250 -0.000000 0.066675 -0.000000 1.000000 0.000000
0.206375 -0.000000 0.066675 0.000000 1.000000 0.000000
0.206375 -0.000000 0.069850 0.000000 1.000000 0.000000
0.190500 -0.000000 0.066675 0.000000 1.000000 0.000000
0.190500 -0.000000 0.069850 0.000000 1.000000 0.000000
0.206375 -0.000000 0.073025 0.000000 1.000000 0.000000
0.222250 -0.000000 0.073025 0.000000 1.000000 0.000000
0.206375 -0.000000 0.076200 0.000000 1.000000 0.000000
0.222250 -0.000000 0.076200 0.000000 1.000000 0.000000
0.190500 -0.000000 0.073025 0.000000 1.000000 0.000000
0.190500 -0.000000 0.076200 0.000000 1.000000 0.000000
0.238125 -0.000000 0.073025 -0.000000 1.000000 0.000000
0.238125 -0.000000 0.076200 0.000000 1.000000 0.000000
0.222250 -0.000000 0.082550 0.000000 1.000000 0.000000
0.238125 -0.000000 0.082550 0.000000 1.000000 0.000000
0.238125 -0.000000 0.079375 0.000000 1.000000 0.000000
0.222250 -0.000000 0.079375 0.000000 1.000000 0.000000
0.206375 -0.000000 0.079375 0.000000 1.000000 0.000000
0.206375 -0.000000 0.082550 0.000000 1.000000 0.000000
0.190500 -0.000000 0.079375 -0.000000 1.000000 0.000000
0.190500 -0.000000 0.082550 -0.000000 1.000000 0.000000
0.206375 -0.000000 0.085725 0.000000 1.000000 0.000000
0.222250 -0.000000 0.085725 0.000000 1.000000 0.000000
0.206375 -0.000000 0.088900 0.000000 1.000000 0.000000
0.222250 -0.000000 0.088900 0.000000 1.000000 0.000000
0.190500 -0.000000 0.085725 -0.000000 1.000000 0.000000
0.190500 -0.000000 0.088900 -0.000000 1.000000 0.000000
0.238125 -0.000000 0.085725 0.000000 1.000000 0.000000
0.238125 -0.000000 0.088900 0.000000 1.000000 0.000000
0.222250 -0.000198 0.095052 -0.000000 0.997785 0.066519
0.238125 -0.000198 0.095052 -0.000000 0.997785 0.066519
0.238125 -0.000000 0.092075 -0.000000 0.997785 0.066519
0.222250 -0.000000 0.092075 -0.000000 0.997785 0.066519
0.222250 -0.000000 0.092075 0.000000 1.000000 0.000000
0.238125 -0.000000 0.092075 0.000000 1.000000 0.000000
0.206375 -0.000000 0.092075 -0.000000 0.997785 0.066519
0.206375 -0.000198 0.095052 -0.000000 0.997785 0.066519
0.190500 -0.000000 0.092075 0.000000 0.997785 0.066519
0.190500 -0.000198 0.095052 0.000000 0.997785 0.066519
0.206375 -0.000000 0.092075 0.000000 1.000000 0.000000
0.190500 -0.000000 0.092075 -0.000000 1.000000 0.000000
0.222250 -0.000198 0.095052 0.000000 0.974391 0.224859
0.206375 -0.000198 0.095052 0.000000 0.974391 0.224859
0.206375 -0.000794 0.097631 0.000000 0.974391 0.224859
0.222250 -0.000794 0.097631 0.000000 0.974391 0.224859
0.222250 -0.000794 0.097631 0.000000 0.857493 0.514496
0.206375 -0.000794 0.097631 0.000000 0.857493 0.514496
0.206375 -0.001984 0.099616 0.000000 0.857493 0.514496
0.222250 -0.001984 0.099616 0.000000 0.857493 0.514496
0.190500 -0.000198 0.095052 0.000000 0.974391 0.224859
0.190500 -0.000794 0.097631 0.000000 0.974391 0.224859
0.190500 -0.000794 0.097631 0.000000 0.857493 0.514496
0.190500 -0.001984 0.099616 0.000000 0.857493 0.514496
0.222250 -0.000198 0.095052 -0.000000 0.974391 0.224860
0.222250 -0.000794 0.097631 -0.000000 0.974391 0.224860
0.238125 -0.000794 0.097631 -0.000000 0.974391 0.224860
0.238125 -0.000198 0.095052 -0.000000 0.974391 0.224860
0.254000 -0.000794 0.097631 0.000000 0.974391 0.224860
0.254000 -0.000198 0.095052 0.000000 0.974391 0.224860
0.238125 -0.001984 0.099616 0.000000 0.857493 0.514496
0.238125 -0.000794 0.097631 0.000000 0.857493 0.514496
0.158750 -0.000000 0.057150 -0.000000 1.000000 0.000000
0.174625 -0.000000 0.057150 -0.000000 1.000000 0.000000
0.174625 -0.000000 0.053975 -0.000000 1.000000 0.000000
0.158750 -0.000000 0.053975 -0.000000 1.000000 0.000000
0.142875 -0.000000 0.053975 0.000000 1.000000 0.000000
0.142875 -0.000000 0.057150 0.000000 1.000000 0.000000
0.127000 -0.000000 0.053975 0.000000 1.000000 0.000000
0.127000 -0.000000 0.057150 0.000000 1.000000 0.000000
0.142875 -0.000000 0.060325 0.000000 1.000000 0.000000
0.158750 -0.000000 0.060325 0.000000 1.000000 0.000000
0.142875 -0.000000 0.063500 0.000000 1.000000 0.000000
0.158750 -0.000000 0.063500 0.000000 1.000000 0.000000
0.127000 -0.000000 0.060325 0.000000 1.000000 0.000000
0.127000 -0.000000 0.063500 0.000000 1.000000 0.000000
0.174625 -0.000000 0.060325 0.000000 1.000000 0.000000
0.174625 -0.000000 0.063500 0.000000 1.000000 0.000000
0.158750 -0.000000 0.069850 -0.000000 1.000000 0.000000
0.174625 -0.000000 0.069850 -0.000000 1.000000 0.000000
0.174625 -0.000000 0.066675 -0.000000 1.000000 0.000000
0.158750 -0.000000 0.066675 -0.000000 1.000000 0.000000
0.142875 -0.000000 0.066675 0.000000 1.000000 0.000000
0.142875 -0.000000 0.069850 0.000000 1.000000 0.000000
0.127000 -0.000000 0.066675 0.000000 1.000000 0.000000
0.127000 -0.000000 0.069850 0.000000 1.000000 0.000000
0.142875 -0.000000 0.073025 0.000000 1.000000 0.000000
0.158750 -0.000000 0.073025 0.000000 1.000000 0.000000
0.142875 -0.000000 0.076200 0.000000 1.000000 0.000000
0.158750 -0.000000 0.076200 0.000000 1.000000 0.000000
0.127000 -0.000000 0.073025 0.000000 1.000000 0.000000
0.127000 -0.000000 0.076200 0.000000 1.000000 0.000000
0.174625 -0.000000 0.073025 -0.000000 1.000000 0.000000
0.174625 -0.000000 0.076200 0.000000 1.000000 0.000000
0.158750 -0.000000 0.082550 0.000000 1.000000 0.000000
0.174625 -0.000000 0.082550 0.000000 1.000000 0.000000
0.174625 -0.000000 0.079375 0.000000 1.000000 0.000000
0.158750 -0.000000 0.079375 0.000000 1.000000 0.000000
0.142875 -0.000000 0.079375 0.000000 1.000000 0.000000
0.142875 -0.000000 0.082550 0.000000 1.000000 0.000000
0.127000 -0.000000 0.079375 -0.000000 1.000000 0.000000
0.127000 -0.000000 0.082550 -0.000000 1.000000 0.000000
0.142875 -0.000000 0.085725 0.000000 1.000000 0.000000
0.158750 -0.000000 0.085725 0.000000 1.000000 0.000000
0.142875 -0.000000 0.088900 0.000000 1.000000 0.000000
0.158750 -0.000000 0.088900 0.000000 1.000000 0.000000
0.127000 -0.000000 0.085725 -0.000000 1.000000 0.000000
0.127000 -0.000000 0.088900 -0.000000 1.000000 0.000000
0.174625 -0.000000 0.085725 0.000000 1.000000 0.000000
0.174625 -0.000000 0.088900 0.000000 1.000000 0.000000
0.158750 -0.000198 0.095052 -0.000000 0.997785 0.066519
0.174625 -0.000198 0.095052 -0.000000 0.997785 0.066519
0.174625 -0.000000 0.092075 -0.000000 0.997785 0.066519
0.158750 -0.000000 0.092075 -0.000000 0.997785 0.066519
0.158750 -0.000000 0.092075 0.000000 1.000000 0.000000
0.174625 -0.000000 0.092075 0.000000 1.000000 0.000000
0.142875 -0.000000 0.092075 -0.000000 0.997785 0.066519
0.142875 -0.000198 0.095052 -0.000000 0.997785 0.066519
0.127000 -0.000000 0.092075 0.000000 0.997785 0.066519
0.127000 -0.000198 0.095052 0.000000 0.997785 0.066519
0.142875 -0.000000 0.092075 0.000000 1.000000 0.000000
0.127000 -0.000000 0.092075 -0.000000 1.000000 0.000000
0.158750 -0.000198 0.095052 0.000000 0.974391 0.224859
0.142875 -0.000198 0.095052 0.000000 0.974391 0.224859
0.142875 -0.000794 0.097631 0.000000 0.974391 0.224859
0.158750 -0.000794 0.097631 0.000000 0.974391 0.224859
0.158750 -0.000794 0.097631 0.000000 0.857493 0.514496
0.142875 -0.000794 0.097631 0.000000 0.857493 0.514496
0.142875 -0.001984 0.099616 0.000000 0.857493 0.514496
0.158750 -0.001984 0.099616 0.000000 0.857493 0.514496
0.127000 -0.000198 0.095052 0.000000 0.974391 0.224859
0.127000 -0.000794 0.097631 0.000000 0.974391 0.224859
0.127000 -0.000794 0.097631 0.000000 0.857493 0.514496
0.127000 -0.001984 0.099616 0.000000 0.857493 0.514496
0.158750 -0.000198 0.095052 -0.000000 0.974391 0.224860
0.158750 -0.000794 0.097631 -0.000000 0.974391 0.224860
0.174625 -0.000794 0.097631 -0.000000 0.974391 0.224860
0.174625 -0.000198 0.095052 -0.000000 0.974391 0.224860
0.190500 -0.000794 0.097631 0.000000 0.974391 0.224860
0.190500 -0.000198 0.095052 0.000000 0.974391 0.224860
0.174625 -0.001984 0.099616 0.000000 0.857493 0.514496
0.174625 -0.000794 0.097631 0.000000 0.857493 0.514496
0.095250 -0.000000 0.057150 -0.000000 1.000000 0.000000
0.111125 -0.000000 0.057150 -0.000000 1.000000 0.000000
0.111125 -0.000000 0.053975 -0.000000 1.000000 0.000000
0.095250 -0.000000 0.053975 -0.000000 1.000000 0.000000
0.079375 -0.000000 0.053975 0.000000 1.000000 0.000000
0.079375 -0.000000 0.057150 0.000000 1.000000 0.000000
0.063500 -0.000000 0.053975 0.000000 1.000000 0.000000
0.063500 -0.000000 0.057150 0.000000 1.000000 0.000000
0.079375 -0.000000 0.060325 0.000000 1.000000 0.000000
0.095250 -0.000000 0.060325 0.000000 1.000000 0.000000
0.079375 -0.000000 0.063500 0.000000 1.000000 0.000000
0.095250 -0.000000 0.063500 0.000000 1.000000 0.000000
0.063500 -0.000000 0.060325 0.000000 1.000000 0.000000
0.063500 -0.000000 0.063500 0.000000 1.000000 0.000000
0.111125 -0.000000 0.060325 0.000000 1.000000 0.000000
0.111125 -0.000000 0.063500 0.000000 1.000000 0.000000
0.095250 -0.000000 0.069850 -0.000000 1.000000 0.000000
0.111125 -0.000000 0.069850 -0.000000 1.000000 0.000000
0.111125 -0.000000 0.066675 -0.000000 1.000000 0.000000
0.095250 -0.000000 0.066675 -0.000000 1.000000 0.000000
0.079375 -0.000000 0.066675 0.000000 1.000000 0.000000
0.079375 -0.000000 0.069850 0.000000 1.000000 0.000000
0.063500 -0.000000 0.066675 0.000000 1.000000 0.000000
0.063500 -0.000000 0.069850 0.000000 1.000000 0.000000
0.079375 -0.000000 0.073025 0.000000 1.000000 0.000000
0.095250 -0.000000 0.073025 0.000000 1.000000 0.000000
0.079375 -0.000000 0.076200 0.000000 1.000000 0.000000
0.095250 -0.000000 0.076200 0.000000 1.000000 0.000000
0.063500 -0.000000 0.073025 0.000000 1.000000 0.000000
0.063500 -0.000000 0.076200 0.000000 1.000000 0.000000
0.111125 -0.000000 0.073025 -0.000000 1.000000 0.000000
0.111125 -0.000000 0.076200 0.000000 1.000000 0.000000
0.095250 -0.000000 0.082550 0.000000 1.000000 0.000000
0.111125 -0.000000 0.082550 0.000000 1.000000 0.000000
0.111125 -0.000000 0.079375 0.000000 1.000000 0.000000
0.095250 -0.000000 0.079375 0.000000 1.000000 0.000000
0.079375 -0.000000 0.079375 0.000000 1.000000 0.000000
0.079375 -0.000000 0.082550 0.000000 1.000000 0.000000
0.063500 -0.000000 0.079375 -0.000000 1.000000 0.000000
0.063500 -0.000000 0.082550 -0.000000 1.000000 0.000000
0.079375 -0.000000 0.085725 0.000000 1.000000 0.000000
0.095250 -0.000000 0.085725 0.000000 1.000000 0.000000
0.079375 -0.000000 0.088900 0.000000 1.000000 0.000000
0.095250 -0.000000 0.088900 0.000000 1.000000 0.000000
0.063500 -0.000000 0.085725 -0.000000 1.000000 0.000000
0.063500 -0.000000 0.088900 -0.000000 1.000000 0.000000
0.111125 -0.000000 0.085725 0.000000 1.000000 0.000000
0.111125 -0.000000 0.088900 0.000000 1.000000 0.000000
0.095250 -0.000198 0.095052 -0.000000 0.997785 0.066519
0.111125 -0.000198 0.095052 -0.000000 0.997785 0.066519
0.111125 -0.000000 0.092075 -0.000000 0.997785 0.066519
0.095250 -0.000000 0.092075 -0.000000 0.997785 0.066519
0.095250 -0.000000 0.092075 0.000000 1.000000 0.000000
0.111125 -0.000000 0.092075 0.000000 1.000000 0.000000
0.079375 -0.000000 0.092075 -0.000000 0.997785 0.066519
0.079375 -0.000198 0.095052 -0.000000 0.997785 0.066519
0.063500 -0.000000 0.092075 0.000000 0.997785 0.066519
0.063500 -0.000198 0.095052 0.000000 0.997785 0.066519
0.079375 -0.000000 0.092075 0.000000 1.000000 0.000000
0.063500 -0.000000 0.092075 -0.000000 1.000000 0.000000
0.095250 -0.000198 0.095052 0.000000 0.974391 0.224859
0.079375 -0.000198 0.095052 0.000000 0.974391 0.224859
0.079375 -0.000794 0.097631 0.000000 0.974391 0.224859
0.095250 -0.000794 0.097631 0.000000 0.974391 0.224859
0.095250 -0.000794 0.097631 0.000000 0.857493 0.514496
0.079375 -0.000794 0.097631 0.000000 0.857493 0.514496
0.079375 -0.001984 0.099616 0.000000 0.857493 0.514496
0.095250 -0.001984 0.099616 0.000000 0.857493 0.514496
0.063500 -0.000198 0.095052 0.000000 0.974391 0.224859
0.063500 -0.000794 0.097631 0.000000 0.974391 0.224859
0.063500 -0.000794 0.097631 0.000000 0.857493 0.514496
0.063500 -0.001984 0.099616 0.000000 0.857493 0.514496
0.095250 -0.000198 0.095052 -0.000000 0.974391 0.224860
0.095250 -0.000794 0.097631 -0.000000 0.974391 0.224860
0.111125 -0.000794 0.097631 -0.000000 0.974391 0.224860
0.111125 -0.000198 0.095052 -0.000000 0.974391 0.224860
0.127000 -0.000794 0.097631 0.000000 0.974391 0.224860
0.127000 -0.000198 0.095052 0.000000 0.974391 0.224860
0.111125 -0.001984 0.099616 0.000000 0.857493 0.514496
0.111125 -0.000794 0.097631 0.000000 0.857493 0.514496
0.032742 -0.000198 0.057150 -0.013332 0.999911 0.000000
0.047625 -0.000000 0.057150 -0.013332 0.999911 0.000000
0.047625 -0.000000 0.053975 -0.013332 0.999911 0.000000
0.032742 -0.000198 0.053975 -0.013332 0.999911 0.000000
0.047625 -0.000000 0.057150 0.000000 1.000000 0.000000
0.047625 -0.000000 0.053975 0.000000 1.000000 0.000000
0.032742 -0.000198 0.057150 -0.046105 0.998937 0.000000
0.032742 -0.000198 0.053975 -0.046105 0.998937 0.000000
0.019844 -0.000794 0.053975 -0.046105 0.998937 0.000000
0.019844 -0.000794 0.057150 -0.046105 0.998937 0.000000
0.019844 -0.000794 0.057150 -0.119145 0.992877 0.000000
0.019844 -0.000794 0.053975 -0.119145 0.992877 0.000000
0.009922 -0.001984 0.053975 -0.119145 0.992877 0.000000
0.009922 -0.001984 0.057150 -0.119145 0.992877 0.000000
0.019844 -0.000794 0.060325 -0.046105 0.998937 0.000000
0.032742 -0.000198 0.060325 -0.046105 0.998937 0.000000
0.019844 -0.000794 0.063500 -0.046105 0.998937 0.000000
0.032742 -0.000198 0.063500 -0.046105 0.998937 0.000000
0.009922 -0.001984 0.060325 -0.119145 0.992877 0.000000
0.019844 -0.000794 0.060325 -0.119145 0.992877 0.000000
0.009922 -0.001984 0.063500 -0.119145 0.992877 0.000000
0.019844 -0.000794 0.063500 -0.119145 0.992877 0.000000
0.032742 -0.000198 0.060325 -0.013332 0.999911 0.000000
0.047625 -0.000000 0.060325 -0.013332 0.999911 0.000000
0.047625 -0.000000 0.060325 -0.000000 1.000000 0.000000
0.032742 -0.000198 0.063500 -0.013332 0.999911 0.000000
0.047625 -0.000000 0.063500 -0.013332 0.999911 0.000000
0.047625 -0.000000 0.063500 -0.000000 1.000000 0.000000
0.032742 -0.000198 0.069850 -0.013332 0.999911 0.000000
0.047625 -0.000000 0.069850 -0.013332 0.999911 0.000000
0.047625 -0.000000 0.066675 -0.013332 0.999911 0.000000
0.032742 -0.000198 0.066675 -0.013332 0.999911 0.000000
0.047625 -0.000000 0.069850 0.000000 1.000000 0.000000
0.047625 -0.000000 0.066675 0.000000 1.000000 0.000000
0.032742 -0.000198 0.069850 -0.046105 0.998937 0.000000
0.032742 -0.000198 0.066675 -0.046105 0.998937 0.000000
0.019844 -0.000794 0.066675 -0.046105 0.998937 0.000000
0.019844 -0.000794 0.069850 -0.046105 0.998937 0.000000
0.019844 -0.000794 0.069850 -0.119145 0.992877 0.000000
0.019844 -0.000794 0.066675 -0.119145 0.992877 0.000000
0.009922 -0.001984 0.066675 -0.119145 0.992877 0.000000
0.009922 -0.001984 0.069850 -0.119145 0.992877 0.000000
0.019844 -0.000794 0.073025 -0.046105 0.998937 0.000000
0.032742 -0.000198 0.073025 -0.046105 0.998937 0.000000
0.019844 -0.000794 0.076200 -0.046105 0.998937 0.000000
0.032742 -0.000198 0.076200 -0.046105 0.998937 0.000000
0.009922 -0.001984 0.073025 -0.119145 0.992877 0.000000
0.019844 -0.000794 0.073025 -0.119145 0.992877 0.000000
0.009922 -0.001984 0.076200 -0.119145 0.992877 0.000000
0.019844 -0.000794 0.076200 -0.119145 0.992877 0.000000
0.032742 -0.000198 0.073025 -0.013332 0.999911 0.000000
0.047625 -0.000000 0.073025 -0.013332 0.999911 0.000000
0.047625 -0.000000 0.073025 0.000000 1.000000 0.000000
0.032742 -0.000198 0.076200 -0.013332 0.999911 0.000000
0.047625 -0.000000 0.076200 -0.013332 0.999911 0.000000
0.047625 -0.000000 0.076200 0.000000 1.000000 0.000000
0.032742 -0.000198 0.082550 -0.013332 0.999911 0.000000
0.047625 -0.000000 0.082550 -0.013332 0.999911 0.000000
0.047625 -0.000000 0.079375 -0.013332 0.999911 0.000000
0.032742 -0.000198 0.079375 -0.013332 0.999911 0.000000
0.047625 -0.000000 0.082550 0.000000 1.000000 0.000000
0.047625 -0.000000 0.079375 0.000000 1.000000 0.000000
0.032742 -0.000198 0.082550 -0.046105 0.998937 0.000000
