ply
format ascii 1.0
comment PCL generated
element vertex 1457
property float x
property float y
property float z
end_header
0.87191743 -0.018323451 0.9101032
0.88696957 -0.024429962 0.8995744
0.90256143 -0.030755395 0.88866806
0.91872311 -0.037312001 0.87736315
0.93548703 -0.044112943 0.86563694
0.89703155 0.027329337 0.89048696
0.89503402 0.02262187 0.8918888
0.89304465 0.017933933 0.89328486
0.89106357 0.013265215 0.89467514
0.88909042 0.0086154239 0.89605981
0.88712519 0.003984279 0.897439
0.88516784 -0.00062851945 0.89881259
0.88321823 -0.0052232612 0.90018082
0.88127601 -0.0098002041 0.9015438
0.88692451 -0.015000906 0.89757985
1.0435302 0.21415165 0.94686979
1.0435303 0.21963242 0.94686973
1.0435303 0.22512439 0.94686979
1.0435303 0.23062786 0.94686979
1.0435305 0.23614308 0.94686979
1.0435305 0.24167031 0.94686979
1.0435306 0.24720979 0.94686979
1.0435307 0.25276178 0.94686973
1.0435307 0.2583265 0.94686979
1.0435307 0.26390424 0.94686979
1.0435307 0.26949525 0.94686979
1.0435308 0.27509978 0.94686979
1.0435308 0.28071812 0.94686979
1.0435309 0.28635055 0.94686973
1.0435309 0.29199725 0.94686979
1.0435309 0.29765859 0.94686979
1.0435311 0.3033348 0.94686973
1.0435309 0.30902615 0.94686979
1.0435309 0.31473291 0.94686985
1.0435311 0.32045543 0.94686979
1.0435311 0.3261939 0.94686979
1.0435312 0.3319487 0.94686979
1.0435312 0.33772007 0.94686979
1.0435313 0.34350827 0.94686973
1.0435312 0.34931362 0.94686985
1.0435313 0.35513645 0.94686979
1.0435314 0.36097708 0.94686973
1.0435314 0.36683574 0.94686979
1.0435315 0.37271279 0.94686979
1.0435317 0.37860852 0.94686973
1.0435317 0.38452324 0.94686979
1.0435318 0.3904573 0.94686973
1.0435317 0.39641094 0.94686979
1.0435317 0.40238461 0.94686985
1.0435318 0.40837857 0.94686979
1.0435318 0.41439319 0.94686979
1.0435318 0.42042872 0.94686985
1.0435319 0.42648563 0.94686979
1.043532 0.43256417 0.94686973
1.0435319 0.43866467 0.94686985
1.043532 0.44478762 0.94686979
1.0452764 0.45178723 0.94591182
0.95647448 0.012573089 0.93831348
0.9564746 0.017484033 0.93831348
0.9564746 0.022397967 0.93831348
0.95647472 0.027315052 0.93831342
0.95647466 0.032235477 0.93831348
0.95647478 0.037159454 0.93831348
0.9564749 0.042087179 0.93831342
0.9564749 0.047018815 0.93831342
0.95647478 0.051954564 0.93831348
0.9564749 0.056894634 0.93831348
0.95647502 0.061839227 0.93831342
0.9564749 0.066788509 0.93831348
0.9564749 0.071742684 0.93831348
0.95647502 0.076701954 0.93831348
0.95647514 0.081666544 0.93831342
0.95647514 0.086636603 0.93831342
0.9564752 0.091612339 0.93831342
0.9564752 0.096593976 0.93831348
0.9564752 0.10158171 0.93831348
0.95647532 0.10657574 0.93831342
0.9564752 0.11157624 0.93831348
0.95647532 0.11658348 0.93831348
0.95647544 0.1215976 0.93831342
0.95647532 0.12661883 0.93831348
0.95647544 0.13164739 0.93831342
0.95647544 0.13668345 0.93831348
0.9564755 0.14172725 0.93831348
0.95647556 0.14677902 0.93831342
0.95647562 0.15183893 0.93831342
0.95647562 0.1569072 0.93831348
0.95647562 0.16198407 0.93831348
0.95647573 0.16706975 0.93831342
0.95647573 0.17216443 0.93831342
0.95647573 0.17726834 0.93831348
0.95647573 0.18238173 0.93831348
0.95647585 0.1875048 0.93831342
0.95647579 0.19263774 0.93831348
0.95647585 0.19778085 0.93831348
0.95647591 0.20293429 0.93831348
0.95647603 0.20809835 0.93831342
0.95647603 0.21327317 0.93831342
0.95647603 0.21845907 0.93831348
0.95647615 0.22365624 0.93831342
0.95647615 0.22886494 0.93831342
0.95647615 0.23408535 0.93831342
0.95647615 0.23931777 0.93831348
0.95647627 0.24456248 0.93831342
0.95815188 0.25036234 0.93729442
0.96065432 0.25646582 0.9357726
0.96317589 0.26261634 0.93423909
0.96571732 0.2688148 0.93269354
0.96827865 0.27506194 0.93113589
0.97086012 0.28135854 0.92956597
0.97346246 0.28770554 0.92798334
0.97608566 0.29410371 0.92638803
0.9787302 0.30055395 0.92477977
0.9813965 0.30705714 0.92315829
0.98408484 0.31361419 0.92152339
0.98679566 0.32022598 0.91987479
0.98952937 0.32689354 0.91821229
0.99228632 0.33361781 0.91653568
0.99506682 0.34039971 0.91484469
0.99787146 0.3472403 0.9131391
1.0007006 0.35414061 0.91141862
1.0035546 0.36110172 0.90968293
1.006434 0.3681246 0.9079318
1.0093391 0.37521049 0.90616506
1.0122706 0.38236037 0.90438235
1.0152287 0.38957554 0.9025833
1.0182141 0.39685705 0.9007678
1.0212272 0.40420616 0.89893538
1.0242686 0.41162407 0.89708579
1.0273386 0.41911209 0.89521873
1.0304381 0.42667148 0.89333385
1.0335671 0.43430352 0.89143091
1.0367266 0.44200963 0.8895095
1.0399169 0.44979113 0.88756931
1.0431389 0.45764947 0.88560992
0.92609346 -0.041366145 0.89756763
0.91481489 -0.036777608 0.90514803
0.90380579 -0.032298677 0.91254735
0.89305615 -0.027925303 0.91977227
0.88255656 -0.023653639 0.9268291
0.87229788 -0.019480022 0.93372405
0.86227161 -0.015400962 0.94046277
0.85662287 -0.011176405 0.94425935
0.85711092 -0.0066274232 0.94393134
0.85902828 -0.0019747107 0.94264269
0.86095506 0.0027011582 0.94134772
0.8628915 0.0074005299 0.94004625
0.86483794 0.012123781 0.93873805
0.86679417 0.016871253 0.93742329
0.86876059 0.021643328 0.93610168
0.87073737 0.026440376 0.93477303
0.87272459 0.031262796 0.93343747
0.87472236 0.036110941 0.93209475
0.87673098 0.040985238 0.93074483
0.87875038 0.045886058 0.92938757
0.88078111 0.050813828 0.92802268
0.88282305 0.055768955 0.92665035
0.88487625 0.060751844 0.92527038
0.88694119 0.065762937 0.92388254
0.88901794 0.070802674 0.92248678
0.89110667 0.075871468 0.92108297
0.89320755 0.080969781 0.919671
0.89532089 0.08609809 0.91825062
0.89744663 0.091256812 0.9168219
0.89958519 0.096446455 0.91538459
0.90173662 0.10166749 0.91393864
0.90390122 0.10692038 0.91248381
0.90607917 0.11220565 0.91102004
0.9082706 0.11752377 0.90954721
0.91047585 0.1228753 0.90806502
0.91269499 0.12826072 0.90657359
0.91492844 0.13368057 0.90507251
0.91717625 0.13913541 0.90356177
0.9194386 0.14462575 0.90204126
0.92171597 0.15015221 0.90051061
0.92400831 0.15571529 0.89896995
0.9263162 0.16131563 0.89741886
0.92863947 0.16695377 0.89585733
0.93097872 0.17263037 0.8942852
0.93333387 0.17834598 0.89270228
0.93570554 0.18410127 0.89110827
0.93809378 0.18989687 0.88950318
0.94049889 0.1957334 0.8878867
0.9429211 0.20161155 0.88625878
0.94536078 0.20753196 0.88461906
0.94781804 0.21349537 0.88296759
0.95029348 0.21950245 0.88130379
0.95278716 0.2255539 0.87962782
0.95529938 0.23165044 0.8779394
0.95783055 0.23779288 0.87623823
0.96038079 0.24398187 0.87452418
0.96295077 0.25021827 0.87279695
0.96554041 0.25650281 0.87105644
0.96815032 0.26283634 0.86930233
0.97078073 0.26921967 0.86753446
0.973432 0.2756536 0.86575258
0.97610444 0.282139 0.86395639
0.97879851 0.28867674 0.86214578
0.98151445 0.29526773 0.86032039
0.98425275 0.30191284 0.85847998
0.86314428 -0.013470181 0.86438036
0.86182344 -0.0088053094 0.86538363
0.86384296 -0.0039362065 0.86384964
0.86587304 0.00095798686 0.86230767
1.0417119 0.20143974 0.95290422
1.0417119 0.20669603 0.95290422
1.0417118 0.21195802 0.95290422
1.0417118 0.21722588 0.95290422
1.0417119 0.22249985 0.95290416
1.0417119 0.22778013 0.95290416
1.0417119 0.23306695 0.95290422
1.0417119 0.23836049 0.95290422
1.0417118 0.243661 0.95290422
1.0417119 0.24896869 0.95290416
1.0417119 0.25428379 0.95290416
1.0417119 0.25960645 0.95290416
1.0417119 0.26493698 0.95290422
1.0417119 0.27027556 0.95290416
1.0417119 0.2756224 0.95290416
1.0417118 0.28097773 0.95290422
1.0417119 0.28634179 0.95290416
1.0417119 0.29171479 0.95290416
1.0417119 0.297097 0.95290422
1.0417119 0.30248857 0.95290422
1.0417119 0.30788982 0.95290416
1.0417118 0.31330088 0.95290422
1.0417119 0.3187221 0.95290416
1.0417119 0.32415363 0.95290416
1.0417119 0.32959574 0.95290422
1.0417119 0.33504868 0.95290422
1.0417118 0.34051266 0.95290422
1.0417119 0.34598795 0.95290416
1.0417118 0.35147476 0.95290422
1.0417119 0.35697338 0.95290416
1.0417119 0.36248407 0.95290422
1.0417119 0.368007 0.95290422
1.0417118 0.37354249 0.95290422
1.0417119 0.37909079 0.95290416
1.0417119 0.38465211 0.95290416
1.0417119 0.39022678 0.95290416
1.0417119 0.39581499 0.95290422
1.0417119 0.40141702 0.95290422
1.0417119 0.40703323 0.95290416
1.0417118 0.41266373 0.95290422
1.0417119 0.41830891 0.95290416
1.0417119 0.42396903 0.95290422
1.0417119 0.42964432 0.95290422
1.041896 0.43540141 0.95280397
1.0446737 0.44212496 0.9512918
1.047474 0.44890347 0.94976735
1.0502974 0.45573789 0.94823033
0.95533544 -0.0071684527 0.95222819
0.95533556 -0.0022985744 0.95222813
0.9553355 0.0025689234 0.95222819
0.9553355 0.007434227 0.95222819
0.9553355 0.012297516 0.95222819
0.95533544 0.017158985 0.95222819
0.95533544 0.022018816 0.95222819
0.95533544 0.026877198 0.95222819
0.95533544 0.031734318 0.95222825
0.9553355 0.036590353 0.95222819
0.9553355 0.041445497 0.95222819
0.9553355 0.046299931 0.95222819
0.95533544 0.051153846 0.95222819
0.95533556 0.056007423 0.95222813
0.95533544 0.060860846 0.95222819
0.9553355 0.0657143 0.95222819
0.9553355 0.070567973 0.95222819
0.9553355 0.075422056 0.95222819
0.9553355 0.08027672 0.95222819
0.95533544 0.085132159 0.95222819
0.95533544 0.089988559 0.95222819
0.95533544 0.094846107 0.95222825
0.95533544 0.099704973 0.95222825
0.9553355 0.10456537 0.95222819
0.9553355 0.10942746 0.95222819
0.9553355 0.11429144 0.95222819
0.95533544 0.1191575 0.95222819
0.95533544 0.12402583 0.95222819
0.95533544 0.12889659 0.95222825
0.9553355 0.13377 0.95222819
0.95533538 0.13864625 0.95222825
0.9553355 0.1435255 0.95222819
0.95533544 0.14840795 0.95222819
0.95533544 0.1532938 0.95222819
0.95533544 0.15818323 0.95222819
0.95533544 0.16307645 0.95222825
0.95533538 0.16797361 0.95222825
0.9553355 0.17287496 0.95222819
0.9553355 0.17778063 0.95222819
0.95533544 0.18269086 0.95222819
0.95533544 0.18760583 0.95222819
0.95533544 0.19252571 0.95222825
0.9553355 0.19745074 0.95222819
0.9553355 0.20238107 0.95222819
0.9553355 0.20731695 0.95222819
0.95533544 0.21225853 0.95222819
0.95533544 0.21720603 0.95222819
0.95533544 0.22215965 0.95222819
0.95720685 0.22744694 0.95111603
0.95943087 0.23282376 0.94979423
0.96166849 0.23823296 0.94846439
0.96391958 0.24367501 0.94712651
0.9661845 0.24915047 0.94578046
0.96846336 0.2546598 0.94442606
0.97075659 0.2602036 0.94306314
0.97306418 0.26578233 0.94169176
0.9753865 0.27139661 0.94031155
0.97772378 0.27704695 0.93892246
0.98007619 0.28273392 0.93752438
0.98244393 0.28845811 0.93611717
0.98482734 0.29422009 0.93470067
0.98722672 0.30002049 0.93327469
0.98964214 0.30585989 0.93183917
0.99207401 0.31173891 0.93039387
0.99452251 0.31765822 0.92893869
0.996988 0.32361838 0.92747343
0.99947059 0.32962012 0.92599797
1.0019706 0.33566412 0.92451215
1.0044885 0.34175098 0.92301577
1.0070243 0.34788144 0.92150867
1.0095786 0.35405627 0.91999066
1.0121514 0.36027604 0.91846156
1.0147431 0.36654162 0.91692126
1.017354 0.3728537 0.91536951
1.0199845 0.37921301 0.9138062
1.022635 0.38562045 0.91223097
1.0253055 0.39207664 0.91064382
1.0279968 0.39858255 0.90904438
1.0307088 0.40513891 0.90743262
1.033442 0.41174662 0.90580815
1.0361968 0.41840646 0.90417099
1.0389737 0.42511943 0.9025206
1.0417727 0.43188629 0.90085709
1.0445945 0.43870804 0.89918005
1.0474393 0.44558561 0.89748931
1.0503078 0.45251995 0.89578456
0.92195475 -0.041131359 0.90360284
0.90589696 -0.034573205 0.91433871
0.89040053 -0.028244311 0.92469925
0.87543583 -0.022132615 0.9347043
0.86826867 -0.016872603 0.9394961
0.86826855 -0.012287962 0.93949616
0.86826855 -0.0077061011 0.93949616
0.86826861 -0.0031268329 0.9394961
0.86826849 0.0014500254 0.93949622
0.86826861 0.0060246373 0.93949616
0.86826855 0.010597185 0.93949616
0.86826855 0.015167848 0.93949616
0.86826855 0.019736793 0.93949616
0.86826855 0.0243042 0.93949616
0.8683818 0.028866189 0.93942046
0.87023258 0.033375014 0.93818307
0.87209088 0.037902091 0.93694061
0.87395686 0.042447705 0.93569309
0.87583053 0.047012147 0.93444037
0.87771207 0.051595706 0.93318248
0.87960148 0.056198686 0.93191922
0.88149905 0.060821377 0.93065053
0.88340485 0.065464087 0.92937636
0.88531893 0.070127122 0.92809665
0.88724148 0.074810803 0.92681128
0.88917273 0.079515442 0.92552012
0.89111274 0.08424136 0.92422307
0.89306146 0.088988885 0.92292023
0.89501923 0.093758345 0.92161125
0.89698631 0.098550081 0.92029613
0.89896244 0.10336443 0.91897494
0.90094823 0.10820173 0.9176473
0.90294337 0.11306235 0.91631335
0.90494829 0.11794662 0.91497296
0.90696317 0.12285494 0.91362584
0.90898788 0.12778762 0.91227216
0.91102302 0.13274509 0.91091156
0.91306823 0.13772769 0.90954417
0.91512406 0.14273582 0.90816969
0.91719049 0.14776987 0.90678811
0.91926765 0.1528302 0.90539938
0.92135584 0.15791728 0.90400326
0.92345518 0.16303144 0.90259969
0.92556572 0.16817315 0.90118861
0.92768782 0.17334281 0.89976984
0.92982167 0.17854087 0.89834321
0.9319672 0.18376772 0.89690876
0.93412477 0.18902384 0.89546621
0.9362945 0.19430962 0.89401561
0.93847668 0.19962561 0.89255667
0.94067144 0.20497222 0.89108932
0.9428789 0.2103499 0.88961345
0.94509929 0.21575917 0.88812894
0.94733292 0.22120051 0.8866356
0.94957989 0.22667438 0.88513327
0.9518404 0.23218133 0.88362199
0.95411474 0.23772185 0.88210142
0.95640308 0.24329644 0.88057148
0.95870566 0.24890569 0.87903208
0.96102262 0.25455007 0.87748301
0.96335423 0.26023018 0.87592411
0.96570069 0.26594657 0.87435532
0.96806228 0.27169976 0.87277645
0.97043937 0.27749041 0.87118715
0.97283196 0.28331906 0.86958754
0.97524035 0.2891863 0.86797732
0.97766483 0.29509276 0.86635637
0.98010576 0.30103907 0.8647244
0.98256338 0.30702588 0.86308134
0.98503768 0.31305376 0.86142707
0.98752928 0.31912342 0.85976124
0.99003816 0.32523555 0.85808384
0.9925648 0.3313908 0.85639459
0.9951095 0.33758986 0.85469329
0.99767244 0.34383351 0.85297978
1.000254 0.35012236 0.85125381
0.91901207 -0.038085841 0.86216998
0.90271777 -0.031463772 0.87383348
0.88700235 -0.025076937 0.88508254
0.87183481 -0.018912805 0.89593953
0.85718644 -0.012959701 0.90642482
0.85731804 -0.0083457492 0.90633065
0.85916817 -0.00386073 0.90500635
0.86102521 0.0006413029 0.90367705
0.86288965 0.0051606176 0.90234244
0.86476105 0.0096975006 0.90100288
0.86664003 0.014252213 0.89965791
0.8685264 0.018825049 0.89830768
0.87042028 0.023416281 0.89695203
0.87232202 0.028026197 0.89559072
0.87423146 0.032655098 0.89422399
0.87614888 0.037303276 0.89285147
0.87807441 0.041971024 0.89147317
0.88000816 0.04665865 0.89008904
0.88195014 0.05136646 0.88869894
0.88390076 0.056094766 0.8873027
0.88585979 0.060843881 0.88590038
0.88782758 0.065614127 0.88449186
0.88980424 0.070405826 0.88307697
0.89178997 0.075219318 0.88165557
0.89378464 0.080054924 0.88022774
0.89578867 0.084912986 0.8787933
0.89780211 0.089793846 0.87735206
0.8998251 0.094697863 0.87590402
0.90185773 0.099625371 0.87444907
0.90390033 0.10457675 0.87298697
0.90595275 0.10955235 0.87151784
0.90801537 0.11455254 0.87004137
0.91008836 0.11957771 0.86855757
0.91217184 0.12462822 0.8670662
0.91426581 0.12970448 0.86556733
0.91637063 0.13480686 0.8640607
0.91848636 0.13993575 0.86254627
0.92061329 0.14509159 0.86102378
0.92275143 0.15027478 0.85949332
0.92490107 0.15548572 0.85795462
1.0772781 0.43944341 0.94257265
1.0772783 0.43322521 0.94257265
1.0772784 0.42702895 0.94257259
1.0772784 0.42085418 0.94257265
1.0772784 0.4147006 0.94257265
1.0772785 0.40856782 0.94257259
1.0772786 0.40245563 0.94257259
1.0772786 0.39636353 0.94257259
1.0772786 0.39029127 0.94257259
1.0772786 0.38423854 0.94257265
1.0772787 0.378205 0.94257259
1.0772787 0.37219033 0.94257259
1.0772789 0.36619419 0.94257259
1.0772789 0.36021629 0.94257259
1.0772789 0.3542563 0.94257259
1.0772789 0.3483139 0.94257265
1.0772789 0.34238887 0.94257265
1.077279 0.33648086 0.94257259
1.077279 0.3305895 0.94257265
1.0772791 0.32471463 0.94257259
1.0772791 0.31885585 0.94257259
1.0772792 0.3130129 0.94257265
1.0772792 0.30718553 0.94257259
1.0617574 0.45717657 0.91955167
1.058481 0.44932681 0.92140454
1.0552366 0.44155377 0.92323941
1.0520236 0.43385607 0.9250564
1.0488415 0.42623222 0.92685598
1.0456897 0.41868097 0.92863846
1.0425676 0.41120094 0.93040413
1.0394746 0.40379086 0.93215328
1.0364105 0.39644954 0.93388617
1.0333744 0.38917568 0.93560314
1.0303661 0.38196811 0.93730444
1.0273848 0.3748256 0.93899047
1.0244303 0.3677471 0.94066131
1.021502 0.36073145 0.94231737
1.0185995 0.35377747 0.94395882
1.0157224 0.34688425 0.94558591
1.01287 0.34005058 0.94719905
1.0100422 0.33327553 0.94879824
1.0072383 0.32655808 0.9503839
1.0044581 0.31989717 0.95195621
1.0017012 0.31329197 0.95351535
0.99896705 0.30674145 0.95506155
0.9962554 0.30024469 0.95659512
0.99356568 0.29380077 0.95811623
0.99089766 0.28740886 0.95962507
0.98825127 0.28106809 0.96112168
0.98562545 0.27477753 0.96260667
0.98302054 0.26853642 0.9640798
0.98043585 0.26234394 0.96554154
0.97787118 0.2561993 0.9669919
0.97634721 0.25042635 0.96785378
0.97634721 0.24515891 0.96785384
0.97634721 0.23990399 0.96785384
0.97634733 0.23466134 0.96785378
0.97634733 0.22943068 0.96785378
0.97634733 0.22421181 0.96785384
0.97634739 0.21900448 0.96785384
0.97634745 0.21380845 0.96785378
0.97634751 0.2086235 0.96785384
0.97634751 0.20344934 0.96785384
0.97634763 0.19828582 0.96785378
0.97634763 0.19313267 0.96785378
0.97634751 0.18798965 0.9678539
0.97634763 0.18285657 0.96785384
0.97634763 0.17773318 0.96785384
0.97634763 0.17261927 0.9678539
0.97634774 0.16751464 0.96785384
0.97634774 0.16241901 0.96785384
0.9763478 0.15733221 0.96785384
0.9763478 0.152254 0.9678539
0.97634792 0.14718419 0.96785384
0.97634792 0.14212255 0.96785384
0.97634792 0.13706887 0.96785384
0.97634804 0.13202295 0.96785384
0.97634792 0.12698454 0.9678539
0.97634804 0.12195349 0.96785384
0.97634816 0.11692956 0.96785384
0.97634804 0.11191252 0.9678539
0.97634816 0.10690223 0.96785384
0.97634822 0.10189842 0.96785384
0.97634822 0.096900925 0.9678539
0.97634822 0.091909513 0.9678539
0.97634834 0.086924016 0.96785384
0.97634834 0.081944227 0.96785384
0.97634834 0.076969936 0.9678539
0.97634834 0.072000936 0.9678539
0.97634846 0.067037061 0.96785384
0.97634846 0.062078085 0.9678539
0.97634846 0.057123814 0.9678539
0.97634846 0.052174065 0.9678539
0.97634858 0.047228631 0.96785384
0.97634864 0.042287331 0.9678539
0.97634864 0.037349965 0.9678539
0.97634876 0.03241634 0.96785384
0.97634876 0.027486259 0.96785384
0.97634876 0.022559533 0.9678539
1.0224094 0.3809289 0.86696607
1.0193971 0.37365881 0.86889017
1.0164118 0.36645398 0.87079698
1.013453 0.35931325 0.8726868
1.0105205 0.3522355 0.87455994
1.0076134 0.34521961 0.87641674
1.0047317 0.33826458 0.87825739
1.0018747 0.33136928 0.88008225
0.99904197 0.32453269 0.88189155
0.99623322 0.31775388 0.88368559
0.99344796 0.31103176 0.88546467
0.99068588 0.30436549 0.88722885
0.98794639 0.29775402 0.88897866
0.98522931 0.29119647 0.89071411
0.98253429 0.28469196 0.89243555
0.97986078 0.27823955 0.89414316
0.97720855 0.2718384 0.89583725
0.97457707 0.26548767 0.89751804
0.97196633 0.25918651 0.8991856
0.96937561 0.25293413 0.90084034
0.96680486 0.2467297 0.90248239
0.96425354 0.24057242 0.90411198
0.96172172 0.23446164 0.90572912
0.95920855 0.22839642 0.90733439
0.95671421 0.22237617 0.90892756
0.95423794 0.21640012 0.91050923
0.9517799 0.21046755 0.91207927
0.94933951 0.20457774 0.913638
0.94691652 0.19873005 0.91518563
0.94451076 0.19292381 0.91672224
0.9421218 0.18715832 0.91824812
0.93974954 0.18143298 0.91976339
0.93739367 0.17574713 0.92126817
0.93505383 0.17010014 0.92276263
0.93273002 0.16449144 0.92424697
0.93042171 0.15892041 0.92572135
0.92812872 0.15338641 0.92718595
0.92585081 0.14788894 0.9286409
0.92358792 0.14242741 0.93008626
0.92133963 0.13700123 0.93152231
0.91910571 0.13160989 0.93294919
0.91688615 0.12625284 0.93436688
0.91468042 0.12092955 0.93577576
0.91248852 0.11563949 0.93717581
0.91031027 0.11038217 0.9385671
0.90814525 0.10515706 0.93994999
0.9059934 0.099963695 0.94132441
0.90385437 0.09480159 0.94269067
0.90172839 0.089670256 0.94404864
0.89961481 0.084569231 0.94539863
0.89751357 0.079498038 0.94674075
0.89542454 0.074456245 0.94807506
0.8933475 0.069443405 0.94940174
0.89128226 0.064459063 0.95072085
0.88922864 0.059502807 0.95203251
0.88876522 0.054778073 0.95232856
0.88876522 0.050120052 0.95232856
0.88876528 0.045466293 0.95232856
0.88876528 0.040816579 0.95232862
0.88876528 0.036170762 0.95232862
0.88876539 0.031528641 0.95232856
0.88876528 0.026890026 0.95232862
0.88876539 0.022254759 0.95232862
0.88876539 0.017622644 0.95232862
0.88876551 0.012993517 0.95232856
0.88876551 0.0083671762 0.95232856
0.88876545 0.0037434571 0.95232868
0.88876557 -0.00087782129 0.95232862
0.88876557 -0.0054968386 0.95232862
0.88876569 -0.010113769 0.95232856
0.88876569 -0.014728797 0.95232856
0.88876569 -0.019342093 0.95232862
0.88876569 -0.023953838 0.95232862
0.89868319 -0.028213421 0.94599414
0.90940231 -0.032550473 0.93914765
0.92037761 -0.036991239 0.93213755
0.93161905 -0.041539654 0.92495745
0.95703775 0.23485631 0.85803103
0.95449328 0.22868437 0.85979104
0.95196784 0.22255847 0.86153787
0.94946104 0.21647781 0.86327183
0.94697273 0.21044177 0.86499298
0.94450229 0.2044495 0.86670172
0.9420498 0.19850037 0.86839813
0.93961477 0.19259369 0.87008244
0.93719691 0.18672878 0.87175488
0.93479598 0.18090495 0.87341559
0.93241167 0.17512158 0.87506479
0.930044 0.16937804 0.87670249
0.92769241 0.16367368 0.8783291
0.92535657 0.15800789 0.87994474
0.9230364 0.15238005 0.8815496
0.92073178 0.14678961 0.88314372
0.91844231 0.14123596 0.8847273
0.91616768 0.13571852 0.88630068
0.91390783 0.13023674 0.88786381
0.91166228 0.12479007 0.88941705
0.90943116 0.11937797 0.89096028
0.90721405 0.1139999 0.89249384
0.9050107 0.10865533 0.89401788
0.90282106 0.10334378 0.89553249
0.9006446 0.098064691 0.89703786
0.89848155 0.092817619 0.89853406
0.89633143 0.087602049 0.90002131
0.89419401 0.082417503 0.90149975
0.89206928 0.077263504 0.90296942
0.88995695 0.072139606 0.90443045
0.88785684 0.067045331 0.90588313
0.88576865 0.061980236 0.90732753
0.88369244 0.056943882 0.90876365
0.8816278 0.05193584 0.91019171
0.87957472 0.046955679 0.91161186
0.8775329 0.042002972 0.91302413
0.87550241 0.037077326 0.91442865
0.87348276 0.032178301 0.91582561
0.87147391 0.027305523 0.91721511
0.86947572 0.022458585 0.91859728
0.86748803 0.017637106 0.91997212
0.86551064 0.012840684 0.92133987
0.86354351 0.0080689741 0.92270052
0.86158633 0.0033215829 0.92405427
0.85963905 -0.0014018579 0.92540121
0.85770154 -0.0061016842 0.92674136
0.85577369 -0.010778275 0.9280749
0.86171508 -0.015021705 0.92396533
0.87182117 -0.019131413 0.91697514
0.88216335 -0.023337228 0.90982163
0.8927508 -0.027642725 0.90249848
0.90359271 -0.03205166 0.89499933
0.9146986 -0.036567982 0.8873176
0.92607868 -0.041195843 0.87944621
0.93774384 -0.045939609 0.87137759
0.8745935 0.0009379448 0.87455177
0.87254375 -0.0039545945 0.87606454
0.87050456 -0.0088220621 0.87756944
0.87187845 -0.013483283 0.87655562
1.0870653 0.43736517 0.94503146
1.0870653 0.43149662 0.94503146
1.0870653 0.42564353 0.94503146
1.0870653 0.41980562 0.94503152
1.0870653 0.41398263 0.94503152
1.0870653 0.40817425 0.94503152
1.0870653 0.40238023 0.94503152
1.0870653 0.39660028 0.94503146
1.0870653 0.39083412 0.94503146
1.0870653 0.3850815 0.94503152
1.0870653 0.37934214 0.94503152
1.0870653 0.37361577 0.94503152
1.0870653 0.36790219 0.94503146
1.0870652 0.36220104 0.94503152
1.0870653 0.35651213 0.94503146
1.0870653 0.3508352 0.94503152
1.0870653 0.34516999 0.94503152
1.0870653 0.33951625 0.94503146
1.0870652 0.33387369 0.94503152
1.0870653 0.32824212 0.94503146
1.0870653 0.32262126 0.94503152
1.0400518 0.45470151 0.90075874
1.0372299 0.44780633 0.90243888
1.0344311 0.44096765 0.90410531
1.0316551 0.43418446 0.90575814
1.0289013 0.4274559 0.90739769
1.0261695 0.42078105 0.90902418
1.0234593 0.41415897 0.9106378
1.0207704 0.40758881 0.91223872
1.0181025 0.40106976 0.91382724
1.0154551 0.3946009 0.91540349
1.012828 0.38818151 0.91696763
1.0107632 0.38198352 0.91819698
1.0081726 0.37565666 0.91973943
1.0056015 0.3693769 0.92127025
1.0030493 0.36314347 0.92278987
1.0005156 0.35695559 0.92429841
0.99800032 0.35081258 0.92579597
0.99550319 0.34471369 0.92728275
0.99302375 0.33865821 0.92875898
0.99056184 0.33264548 0.93022478
0.98811716 0.32667482 0.93168032
0.9856894 0.32074553 0.93312579
0.98327833 0.31485698 0.93456137
0.98088384 0.30900854 0.93598706
0.98049808 0.30369484 0.93621671
0.98049814 0.2984888 0.93621665
0.98049814 0.29329222 0.93621665
0.98049814 0.28810492 0.93621665
0.98049808 0.28292668 0.93621671
0.98049808 0.27775726 0.93621671
0.98049808 0.27259645 0.93621671
0.98049808 0.26744404 0.93621671
0.98049814 0.26229981 0.93621665
0.98049814 0.25716352 0.93621665
0.98049808 0.25203499 0.93621671
0.98049808 0.246914 0.93621671
0.98049808 0.24180031 0.93621671
0.98049814 0.23669374 0.93621665
0.98049802 0.23159406 0.93621671
0.98049814 0.22650109 0.93621665
0.98049814 0.2214146 0.93621665
0.98049808 0.21633439 0.93621671
0.98049808 0.21126024 0.93621671
0.98049814 0.206192 0.93621665
0.98049802 0.20112941 0.93621671
0.98049802 0.19607227 0.93621671
0.98049802 0.1910204 0.93621671
0.98049808 0.18597361 0.93621671
0.98049808 0.18093167 0.93621671
0.98049819 0.17589441 0.93621665
0.98049814 0.1708616 0.93621665
0.98049814 0.16583307 0.93621665
0.98049814 0.16080861 0.93621665
0.98049814 0.155788 0.93621665
0.98049819 0.15077111 0.93621665
0.98049808 0.14575768 0.93621671
0.98049808 0.14074755 0.93621671
0.98049802 0.1357405 0.93621671
0.98049814 0.13073638 0.93621665
0.98049814 0.12573494 0.93621665
0.98049808 0.12073603 0.93621671
0.98049819 0.11573944 0.93621665
0.98049808 0.11074498 0.93621671
0.98049814 0.10575247 0.93621665
0.98049814 0.1007617 0.93621665
0.98049814 0.095772482 0.93621665
0.98049814 0.090784639 0.93621665
0.98049808 0.085797966 0.93621671
0.98049808 0.080812283 0.93621671
0.98049814 0.07582739 0.93621665
1.0561767 0.45772314 0.87409109
1.0532541 0.45068264 0.87587833
1.0503557 0.44370025 0.87765092
1.0474809 0.436775 0.87940896
1.0446296 0.42990595 0.88115275
1.0418011 0.42309213 0.88288254
1.0389953 0.41633269 0.88459843
1.0362115 0.4096266 0.88630086
1.0334495 0.40297315 0.88798994
1.0307091 0.3963713 0.88966584
1.0279897 0.38982028 0.89132893
1.0252911 0.38331929 0.89297926
1.0226129 0.37686747 0.89461714
1.0199547 0.37046403 0.8962428
1.0173163 0.36410818 0.89785624
1.0146976 0.35779917 0.89945781
1.0120977 0.35153624 0.90104777
1.0095166 0.34531862 0.90262622
1.0069542 0.33914563 0.90419328
1.00441 0.33301654 0.9057492
1.0018836 0.32693067 0.90729421
0.99937499 0.32088733 0.90882838
0.99688375 0.3148858 0.91035187
0.9944095 0.30892545 0.91186506
0.99195224 0.30300567 0.91336781
0.98951137 0.29712573 0.91486055
0.98708683 0.29128513 0.91634327
0.98467845 0.28548318 0.9178161
0.9822858 0.27971929 0.91927934
0.97990876 0.27399287 0.92073303
0.97754687 0.26830333 0.92217743
0.97520036 0.26265016 0.92361248
0.9728685 0.25703269 0.92503852
0.97055125 0.25145048 0.92645568
0.96824837 0.24590291 0.92786402
0.96595973 0.2403895 0.92926365
0.96368486 0.23490967 0.93065482
0.96142399 0.22946298 0.93203747
0.95917654 0.22404888 0.9334119
0.9569425 0.21866687 0.93477815
0.95472133 0.21331647 0.93613648
0.95251334 0.20799722 0.93748677
0.95031804 0.20270862 0.9388293
0.94813526 0.19745022 0.94016421
0.94596481 0.19222155 0.9414916
0.94380641 0.18702216 0.94281155
0.94166017 0.18185164 0.9441241
0.93952554 0.17670952 0.9454295
0.93740261 0.17159539 0.94672781
0.93529111 0.16650882 0.94801915
0.933191 0.16144942 0.94930345
0.93110186 0.15641673 0.95058107
0.92902362 0.15141039 0.95185202
0.9269563 0.14642999 0.9531163
0.92489952 0.14147516 0.95437413
0.92285311 0.13654548 0.95562565
0.921794 0.13171659 0.95627332
0.921794 0.12697832 0.95627332
0.92179394 0.12224261 0.95627338
0.92179394 0.11750928 0.95627338
0.92179394 0.11277814 0.95627338
0.92179394 0.10804903 0.95627338
0.92179388 0.10332175 0.95627338
0.921794 0.098596133 0.95627332
0.92179388 0.093871981 0.95627344
0.92179394 0.089149125 0.95627338
0.92179394 0.084427387 0.95627338
0.92179394 0.079706572 0.95627338
0.921794 0.074986517 0.95627332
0.921794 0.070267029 0.95627332
0.92179388 0.065547936 0.95627338
0.921794 0.060829055 0.95627332
0.92179394 0.056110203 0.95627338
0.92179406 0.051391203 0.95627332
0.92179406 0.046671875 0.95627332
0.92179394 0.04195204 0.95627338
0.921794 0.037231516 0.95627332
0.921794 0.03251012 0.95627332
0.921794 0.027787678 0.95627338
0.92179394 0.023064006 0.95627338
0.92179394 0.018338922 0.95627338
0.92179394 0.013612248 0.95627338
0.921794 0.0088837966 0.95627332
0.921794 0.0041533932 0.95627332
0.92179388 -0.0005791412 0.95627338
0.92179394 -0.005314 0.95627338
0.92179394 -0.010051355 0.95627338
0.92179394 -0.014791399 0.95627338
0.921794 -0.019534305 0.95627332
0.92179388 -0.024280258 0.95627338
0.921794 -0.029029451 0.95627332
0.921794 -0.033782065 0.95627332
0.92739117 -0.039136615 0.95285034
0.94380271 -0.045764636 0.94281381
0.97361773 0.25714004 0.8685382
0.97123909 0.25141412 0.87012976
0.96887541 0.24572422 0.87171131
0.96652663 0.24006982 0.87328297
0.96419227 0.23445037 0.87484491
0.96187216 0.22886531 0.87639731
0.95956606 0.22331411 0.87794036
0.9572739 0.21779628 0.87947404
0.95499545 0.21231131 0.88099861
0.95273036 0.20685866 0.88251424
0.95047855 0.20143791 0.88402092
0.94823968 0.19604851 0.88551897
0.94601375 0.19069001 0.88700837
0.94380039 0.18536195 0.88848943
0.94159961 0.18006386 0.88996196
0.93941098 0.1747953 0.89142638
0.93723446 0.1695558 0.89288276
0.9350698 0.16434495 0.89433116
0.93291688 0.15916228 0.89577168
0.93077552 0.15400741 0.89720452
0.92864549 0.1488799 0.89862972
0.92652661 0.14377934 0.90004748
0.92441887 0.13870533 0.90145785
0.92232192 0.13365746 0.90286094
0.92023563 0.12863535 0.90425688
0.91816002 0.12363861 0.90564573
0.91609466 0.11866684 0.90702772
0.91403961 0.1137197 0.90840274
0.91199458 0.10879681 0.90977114
0.90995944 0.10389778 0.91113287
0.90793407 0.099022277 0.91248804
0.90591836 0.094169937 0.91383678
0.90391219 0.089340419 0.91517919
0.90191525 0.084533371 0.91651535
0.89992762 0.079748459 0.91784531
0.89794892 0.074985348 0.91916925
0.89597917 0.070243709 0.92048723
0.89401835 0.065523222 0.92179924
0.89206594 0.06082356 0.92310566
0.89012223 0.056144409 0.92440623
0.88818687 0.05148546 0.9257012
0.88625973 0.046846401 0.92699069
0.88434076 0.042226937 0.92827469
0.88242996 0.037626762 0.92955327
0.88052678 0.033045586 0.93082666
0.87863153 0.028483111 0.93209481
0.87674385 0.023939058 0.93335789
0.87486374 0.019413142 0.93461591
0.87299109 0.014905076 0.93586892
0.8711257 0.010414588 0.9371171
0.8692674 0.0059414138 0.93836051
0.86741632 0.0014852706 0.9395991
0.86557215 -0.0029541089 0.94083303
0.86373484 -0.007376974 0.94206244
0.86190438 -0.011783597 0.94328719
0.87428188 -0.017431997 0.93500525
0.88920009 -0.0234526 0.9250232
0.90464705 -0.029686563 0.91468745
0.92065179 -0.036145668 0.90397847
0.93724597 -0.042842608 0.89287502
0.89806622 0.065690979 0.87042612
0.89604574 0.060848515 0.87188756
0.89403433 0.05602783 0.87334245
0.89203179 0.051228587 0.87479085
0.89003801 0.046450466 0.87623298
0.888053 0.04169314 0.87766874
0.88607651 0.036956303 0.87909836
0.88410848 0.032239631 0.88052183
0.88214862 0.02754283 0.88193941
0.88019711 0.022865586 0.88335097
0.87825346 0.018207608 0.88475674
0.87631774 0.013568595 0.88615686
0.87438989 0.00894826 0.88755131
0.87246972 0.0043463097 0.88894016
0.87055713 -0.00023753953 0.89032352
0.86865187 -0.0048035597 0.89170164
0.86675406 -0.0093520489 0.89307433
0.87054831 -0.014368899 0.8903299
0.8857156 -0.020462887 0.87935942
1.0119103 0.15041035 0.93737721
1.0119103 0.15567955 0.93737721
1.0119103 0.16095726 0.93737721
1.0119104 0.1662437 0.93737715
1.0119104 0.1715391 0.93737721
1.0119104 0.17684367 0.93737721
1.0119106 0.18215765 0.93737715
1.0119107 0.18748128 0.93737715
1.0119106 0.19281477 0.93737721
1.0119107 0.19815835 0.93737715
1.0119107 0.20351225 0.93737715
1.0119108 0.20887673 0.93737715
1.0119107 0.21425197 0.93737721
1.0119108 0.21963829 0.93737715
1.0119108 0.22503591 0.93737721
1.0119109 0.230445 0.93737715
1.0119109 0.23586586 0.93737715
1.0119109 0.24129876 0.93737715
1.011911 0.24674392 0.93737715
1.0119112 0.25220156 0.93737715
1.0119112 0.25767198 0.93737715
1.0119112 0.26315543 0.93737721
1.0119113 0.26865211 0.93737715
1.0119113 0.27416235 0.93737715
1.0119113 0.27968639 0.93737715
1.0119114 0.28522447 0.93737715
1.0119114 0.29077685 0.93737715
1.0119114 0.29634386 0.93737715
1.0119115 0.30192572 0.93737715
1.0119114 0.30752268 0.93737721
1.0119115 0.31313509 0.93737715
1.0119115 0.31876314 0.93737721
1.0119115 0.32440719 0.93737721
1.0119116 0.33006752 0.93737715
1.0119117 0.33574435 0.9373771
1.0119117 0.34143803 0.93737715
1.0119117 0.34714881 0.93737715
1.0119117 0.35287702 0.93737715
1.0119117 0.35862297 0.93737721
1.0119119 0.36438695 0.93737715
1.011912 0.37016922 0.93737715
1.011912 0.37597016 0.93737715
1.0119121 0.38179001 0.93737715
1.0141511 0.38861957 0.93608803
1.0170978 0.39581183 0.93439144
1.020072 0.40307072 0.93267906
1.0230737 0.41039732 0.93095076
1.0261039 0.41779298 0.92920613
1.0291629 0.4252589 0.92744488
1.0322512 0.43279645 0.92566675
1.0353693 0.44040692 0.92387152
1.0385178 0.44809157 0.9220587
1.0416974 0.45585191 0.92022806
0.92667925 -0.041766252 0.94255573
0.92286319 -0.037090819 0.94493371
0.92286319 -0.03233942 0.94493371
0.92286325 -0.027586965 0.94493371
0.92286325 -0.022833275 0.94493371
0.92286336 -0.018078165 0.94493371
0.92286336 -0.013321449 0.94493371
0.92286336 -0.0085629532 0.94493371
0.92286336 -0.0038024909 0.94493371
0.92286348 0.00096012891 0.94493371
0.92286348 0.0057250732 0.94493371
0.92286348 0.010492536 0.94493371
0.9228636 0.015262703 0.94493365
0.9228636 0.020035746 0.94493371
0.92286354 0.024811866 0.94493377
0.92286372 0.029591242 0.94493365
0.92286372 0.034374062 0.94493365
0.92286378 0.039160501 0.94493365
0.92286378 0.043950755 0.94493371
0.92286378 0.048745017 0.94493371
0.92286378 0.053543467 0.94493371
0.9228639 0.05834629 0.94493365
0.9228639 0.063153684 0.94493371
0.9228639 0.067965835 0.94493371
0.92286402 0.072782949 0.94493365
0.92286402 0.077605188 0.94493365
0.92286402 0.082432762 0.94493371
0.92286408 0.087265864 0.94493371
0.92286408 0.092104688 0.94493371
0.9228642 0.096949443 0.94493365
0.9228642 0.10180029 0.94493371
0.9228642 0.10665745 0.94493371
0.9228642 0.11152111 0.94493371
0.9228642 0.11639148 0.94493371
0.92286432 0.12126876 0.94493371
0.92286432 0.12615316 0.94493371
0.92286432 0.13104486 0.94493371
0.92286438 0.13594407 0.94493371
0.92286444 0.14085101 0.94493365
0.9228645 0.14576584 0.94493371
0.9228645 0.15068881 0.94493371
0.92364818 0.15580325 0.94444537
0.92590714 0.16128717 0.94303781
0.92818093 0.16680773 0.94162095
0.93047017 0.17236559 0.94019443
0.93277514 0.1779613 0.93875819
0.93509591 0.18359548 0.93731207
0.93743259 0.18926872 0.93585598
0.93978584 0.19498169 0.93438965
0.94215554 0.20073497 0.93291301
0.94454217 0.20652926 0.93142587
0.94694602 0.21236521 0.92992795
0.94936734 0.21824351 0.92841917
0.95180631 0.22416478 0.92689943
0.95426321 0.23012981 0.92536849
0.95673853 0.23613927 0.92382604
0.95923239 0.24219391 0.92227209
0.96174526 0.24829444 0.92070621
0.96427727 0.25444168 0.91912848
0.96682876 0.26063633 0.91753858
0.96940023 0.26687926 0.91593623
0.9719919 0.27317122 0.9143213
0.97460413 0.27951306 0.91269356
0.97723722 0.2859056 0.91105288
0.97989154 0.2923497 0.90939891
0.98256749 0.29884624 0.90773141
0.98526531 0.30539611 0.90605038
0.98798549 0.31200024 0.90435535
0.99072856 0.31865957 0.90264612
0.99349457 0.32537502 0.90092254
0.99628425 0.33214757 0.89918423
0.99909782 0.33897823 0.89743102
1.0019355 0.34586796 0.89566278
1.0047983 0.35281789 0.89387894
1.0076861 0.35982901 0.89207947
1.0105996 0.36690244 0.89026397
1.0135393 0.37403926 0.8884322
1.0165055 0.38124058 0.88658392
1.0194988 0.38850763 0.88471872
1.0225196 0.39584151 0.8828364
1.0255685 0.40324354 0.88093656
1.0286459 0.41071486 0.87901896
1.0317523 0.41825676 0.87708324
1.0348886 0.42587057 0.87512898
1.0380547 0.43355754 0.87315607
1.0412518 0.44131917 0.87116396
1.0444801 0.4491567 0.86915237
1.0477403 0.45707166 0.8671208
0.93594766 -0.045851033 0.85628951
0.92423242 -0.041078858 0.8645972
0.91280514 -0.036424007 0.87270063
0.90165496 -0.031882029 0.88060766
0.89077151 -0.027448701 0.88832545
0.88014495 -0.02312001 0.89586115
0.86976594 -0.01889213 0.90322125
0.85962546 -0.014761426 0.91041219
0.85446858 -0.010448777 0.91406912
0.85640651 -0.0057400665 0.91269487
0.85835403 -0.0010078078 0.91131383
0.86031151 0.0037483596 0.90992576
0.862279 0.0085288016 0.90853059
0.86425662 0.013333882 0.90712821
0.86624444 0.018163966 0.90571862
0.86824286 0.023019472 0.90430152
0.87025177 0.027900742 0.90287691
0.87227148 0.032808203 0.90144473
0.87430215 0.037742246 0.90000468
0.87634385 0.042703267 0.89855689
0.87839687 0.047691692 0.89710104
0.88046134 0.052707929 0.89563709
0.88253754 0.057752419 0.8941648
0.88462543 0.062825575 0.89268428
0.88672537 0.067927852 0.89119518
0.88883734 0.073059708 0.88969749
0.89096189 0.078221574 0.88819093
0.89309877 0.083413914 0.88667566
0.89524847 0.088637218 0.88515121
0.89741111 0.093891963 0.88361764
0.89958692 0.099178627 0.88207477
0.90177608 0.1044977 0.88052237
0.90397871 0.10984969 0.87896043
0.90619516 0.11523512 0.87738872
0.90842545 0.12065449 0.87580711
0.91067022 0.12610836 0.87421536
0.91292912 0.13159724 0.87261349
0.9152028 0.13712172 0.87100118
0.91749132 0.1426823 0.86937839
0.91979498 0.14827961 0.8677448
0.9221139 0.15391418 0.86610037
0.92444843 0.15958664 0.86444491
0.92679888 0.16529757 0.86277819
0.92916542 0.17104761 0.86109996
0.93154824 0.17683734 0.85941029
0.93394768 0.18266743 0.85770881
0.93636394 0.18853852 0.85599536
0.93879741 0.19445127 0.85426974
0.8522315 -0.013416325 0.84822786
0.85108703 -0.00873644 0.84913003
1.0747234 0.27499044 0.9582845
1.0747234 0.28045717 0.9582845
1.0747234 0.28593257 0.9582845
1.0747234 0.29141691 0.95828456
1.0747235 0.29691043 0.9582845
1.0747234 0.30241325 0.9582845
1.0747234 0.30792576 0.9582845
1.0747234 0.3134481 0.9582845
1.0747235 0.31898052 0.95828444
1.0747235 0.32452327 0.9582845
1.0747234 0.33007658 0.95828456
1.0747234 0.33564076 0.9582845
1.0747234 0.34121594 0.9582845
1.0747234 0.34680244 0.9582845
1.0747234 0.35240048 0.9582845
1.0747235 0.35801035 0.9582845
1.0747235 0.36363226 0.9582845
1.0747234 0.36926648 0.9582845
1.0747234 0.37491325 0.9582845
1.0747234 0.38057289 0.9582845
1.0747234 0.38624558 0.9582845
1.0747234 0.39193159 0.95828456
1.0747234 0.39763126 0.9582845
1.0747234 0.40334478 0.9582845
1.0747234 0.40907246 0.9582845
1.0747235 0.41481456 0.95828444
1.0747235 0.42057133 0.9582845
1.0747235 0.42634311 0.9582845
1.0747234 0.4321301 0.9582845
1.0747234 0.43793264 0.9582845
1.0747234 0.44375098 0.9582845
0.96843046 0.041139048 0.93835932
0.96843052 0.04607366 0.93835932
0.96843052 0.05100774 0.93835932
0.96843052 0.055941481 0.93835932
0.9684304 0.060875062 0.93835938
0.96843046 0.065808684 0.93835932
0.96843046 0.070742518 0.93835932
0.96843046 0.075676769 0.93835938
0.96843046 0.080611616 0.93835938
0.9684304 0.085547246 0.93835938
0.9684304 0.090483852 0.93835938
0.96843052 0.095421627 0.93835932
0.96843046 0.10036075 0.93835932
0.96843046 0.10530142 0.93835932
0.96843046 0.11024381 0.93835938
0.96843046 0.11518813 0.93835938
0.9684304 0.12013455 0.93835938
0.96843052 0.12508328 0.93835932
0.96843046 0.13003451 0.93835932
0.96843046 0.1349884 0.93835932
0.96843046 0.13994518 0.93835932
0.96843046 0.14490502 0.93835938
0.9684304 0.1498681 0.93835938
0.96843052 0.15483466 0.93835932
0.9684304 0.15980484 0.93835938
0.96843046 0.16477886 0.93835932
0.96843046 0.16975693 0.93835932
0.96843046 0.17473921 0.93835938
0.96843046 0.17972592 0.93835938
0.96843052 0.18471724 0.93835932
0.96843052 0.18971337 0.93835932
0.9684304 0.19471452 0.93835938
0.96843046 0.19972087 0.93835932
0.96843046 0.20473266 0.93835932
0.96843046 0.20975006 0.93835938
0.9684304 0.21477324 0.93835938
0.9684304 0.21980245 0.93835938
0.96843052 0.2248379 0.93835932
0.96843046 0.22987975 0.93835932
0.96843046 0.23492822 0.93835932
0.96843046 0.23998354 0.93835938
0.96843046 0.24504589 0.93835938
0.9684304 0.25011551 0.93835938
0.9684304 0.25519255 0.93835938
0.9684304 0.2602773 0.93835938
0.96843034 0.26536989 0.93835938
0.96843046 0.27047062 0.93835938
0.96849215 0.27559334 0.93832231
0.97080666 0.28123865 0.93693221
0.97313631 0.28692073 0.93553299
0.97548127 0.29264018 0.93412465
0.97784173 0.29839751 0.93270695
0.98021799 0.30419338 0.93127972
0.98261034 0.3100284 0.92984289
0.98501903 0.31590319 0.92839622
0.98744422 0.32181835 0.92693967
0.98988611 0.32777455 0.92547303
0.99234527 0.33377248 0.92399609
0.99482173 0.33981276 0.92250872
0.99731588 0.34589607 0.92101073
0.99982798 0.35202318 0.91950196
1.0023583 0.35819474 0.91798228
1.0049071 0.36441147 0.91645145
1.0074747 0.3706741 0.9149093
1.0100615 0.37698343 0.91335571
1.0126678 0.38334024 0.91179037
1.0152938 0.38974521 0.91021317
1.0179399 0.3961992 0.90862393
1.0206065 0.40270311 0.90702236
1.0232937 0.40925762 0.90540838
1.0260022 0.41586363 0.90378165
1.0287321 0.42252204 0.90214211
1.0314839 0.42923373 0.90048939
1.0342578 0.43599957 0.89882338
1.0370544 0.44282049 0.89714372
1.0398738 0.44969738 0.89545035
1.0427167 0.45663133 0.89374292
0.93051803 -0.040073786 0.93819916
0.91447771 -0.033601258 0.9482283
0.90111715 -0.0275592 0.95658189
0.90111727 -0.022888029 0.95658183
0.90111715 -0.018220032 0.95658189
0.90111721 -0.013555038 0.95658183
0.90111721 -0.0088928593 0.95658183
0.90111721 -0.0042333258 0.95658183
0.90111721 0.00042374901 0.95658189
0.90111727 0.0050785476 0.95658183
0.90111727 0.0097312415 0.95658183
0.90111715 0.014382021 0.95658189
0.90111721 0.019031053 0.95658183
0.90111721 0.023678521 0.95658183
0.90111721 0.028324598 0.95658183
0.90111721 0.032969471 0.95658189
0.90111727 0.037613306 0.95658183
0.90111727 0.042256292 0.95658183
0.90111727 0.046898596 0.95658183
0.90111721 0.051540405 0.95658183
0.90111721 0.056181889 0.95658183
0.90111721 0.060823228 0.95658183
0.90111721 0.065464601 0.95658189
0.90111715 0.070106179 0.95658189
0.90111715 0.074748144 0.95658189
0.90111727 0.079390667 0.95658183
0.9018448 0.084053338 0.95612693
0.90380162 0.08876355 0.95490342
0.90576762 0.093495369 0.9536742
0.90774256 0.098249115 0.95243937
0.90972692 0.10302514 0.9511987
0.91172057 0.10782377 0.94995219
0.91372383 0.11264536 0.94869965
0.91573668 0.11749025 0.9474411
0.91775942 0.12235881 0.94617641
0.91979218 0.12725139 0.9449054
0.92183495 0.13216835 0.94362819
0.92388815 0.13711008 0.94234443
0.92595166 0.14207694 0.94105428
0.92802584 0.14706933 0.93975735
0.93011081 0.15208763 0.93845379
0.93220675 0.15713222 0.93714333
0.93431371 0.16220354 0.93582594
0.93643188 0.16730195 0.93450159
0.93856156 0.17242791 0.93316996
0.94070292 0.1775818 0.93183112
0.94285595 0.18276408 0.93048495
0.94502091 0.18797517 0.92913133
0.94719815 0.1932155 0.92777002
0.94938779 0.19848555 0.92640096
0.95158982 0.20378575 0.92502415
0.95380455 0.20911656 0.92363942
0.95603228 0.21447848 0.92224652
0.95827311 0.21987195 0.92084551
0.96052724 0.22529748 0.9194361
0.9627949 0.2307556 0.91801828
0.96507639 0.23624673 0.91659176
0.96737164 0.24177144 0.91515666
0.9696812 0.24733026 0.91371262
0.97200507 0.2529237 0.91225964
0.9743436 0.25855228 0.91079748
0.97669685 0.26421657 0.90932614
0.9790653 0.26991719 0.90784526
0.98144901 0.27565458 0.90635484
0.98384827 0.28142941 0.90485471
0.98626333 0.28724226 0.90334475
0.98869449 0.29309371 0.90182471
0.99114186 0.29898438 0.90029448
0.99360573 0.30491489 0.89875394
0.99608654 0.31088591 0.89720285
0.99858439 0.31689802 0.89564109
1.0010996 0.32295188 0.89406848
1.0036324 0.32904825 0.89248484
1.0061831 0.33518773 0.89089
1.0087521 0.34137106 0.88928372
1.0113397 0.34759891 0.88766593
1.0139461 0.353872 0.88603628
1.0165713 0.36019114 0.88439488
1.0192161 0.36655697 0.88274121
1.0218807 0.37297037 0.8810752
1.0245653 0.37943205 0.87939668
1.0272703 0.38594285 0.87770534
1.0299962 0.39250356 0.876001
1.032743 0.39911497 0.87428361
1.0355113 0.40577796 0.87255281
0.93719947 -0.043754149 0.87484384
0.92046034 -0.0369821 0.88636684
0.90432078 -0.030452587 0.89747709
0.88874835 -0.024152558 0.90819699
0.87371343 -0.018069912 0.9185468
0.85960507 -0.012228421 0.92825878
0.86144233 -0.0077949222 0.92699403
0.86328632 -0.0033449503 0.92572469
0.86513734 0.0011217481 0.92445046
0.86699533 0.0056054452 0.92317146
0.86886054 0.010106398 0.92188746
0.8707329 0.014624889 0.92059857
0.87261266 0.019161195 0.91930455
0.87450004 0.023715589 0.91800529
0.87639493 0.028288363 0.9167009
0.87829751 0.032879796 0.91539115
0.88020813 0.037490182 0.91407591
0.88212651 0.042119816 0.91275537
0.88405305 0.046768997 0.91142917
0.88598794 0.051438022 0.91009718
0.88793111 0.056127205 0.90875953
0.88988268 0.060836855 0.90741611
0.8918429 0.065567285 0.90606672
0.89381194 0.070318811 0.90471125
0.89578974 0.075091764 0.90334976
0.89777666 0.079886474 0.90198201
0.8997727 0.084703267 0.90060794
0.9017781 0.089542486 0.89922744
0.90379268 0.094404466 0.89784062
0.90581709 0.099289566 0.89644706
0.90785116 0.10419814 0.89504683
0.90989512 0.10913052 0.8936398
0.9119491 0.1140871 0.89222586
0.91401321 0.11906824 0.89080495
0.91608769 0.12407432 0.88937688
0.9181726 0.1291057 0.88794166
0.92026824 0.13416278 0.88649905
0.92237467 0.13924594 0.88504905
0.92449206 0.14435562 0.88359141
0.92662054 0.14949217 0.88212621
0.92876035 0.15465602 0.8806532
0.93091178 0.1598476 0.87917221
0.93307483 0.16506732 0.87768316
0.93524957 0.17031561 0.87618607
0.9374364 0.1755929 0.8746807
0.93963552 0.18089966 0.87316686
0.94184691 0.18623632 0.87164456
0.94407105 0.19160333 0.87011349
0.9463079 0.19700119 0.86857373
0.94855756 0.20243035 0.86702508
0.95082057 0.20789129 0.86546719
0.95309699 0.21338452 0.86390018
0.85670477 -0.014972853 0.8570742
0.85132521 -0.0097798752 0.86123699
0.85320103 -0.0052036974 0.85978544
0.85508418 -0.00060975016 0.85832822
0.85697472 0.0040022647 0.85686529
0.85887277 0.0086326199 0.85539663
0.86077839 0.013281608 0.85392201
0.86269188 0.017949518 0.85244131
0.86461318 0.022636646 0.85095459
0.86654252 0.027343286 0.84946167
1.1075276 0.42567736 0.93929064
1.1075277 0.41940281 0.93929064
1.1075277 0.41314921 0.93929064
1.1075277 0.40691623 0.9392907
1.1075277 0.40070361 0.9392907
1.1075279 0.39451092 0.93929064
1.107528 0.38833785 0.9392907
1.107528 0.38218409 0.93929064
1.0521928 0.45254058 0.89525342
1.0489473 0.4447087 0.89718044
1.0457335 0.43695301 0.89908868
1.0425506 0.42927212 0.90097862
1.0393982 0.4216646 0.90285039
1.0362755 0.41412914 0.90470451
1.0331824 0.40666443 0.90654117
1.0301179 0.39926919 0.90836072
1.0270816 0.39194223 0.91016352
1.0240731 0.3846823 0.91194987
1.0210921 0.37748817 0.91371995
1.0181377 0.37035874 0.91547412
1.0152097 0.36329284 0.91721272
1.0123075 0.35628936 0.91893589
1.0094308 0.34934723 0.92064399
1.006579 0.3424654 0.92233723
1.0037519 0.33564278 0.92401594
1.0009487 0.32887837 0.92568034
0.99816936 0.32217121 0.92733061
0.9954133 0.31552026 0.92896706
0.99268019 0.30892462 0.93058991
0.98996955 0.30238333 0.93219942
0.98728108 0.29589549 0.93379569
0.98461431 0.28946015 0.93537915
0.98196906 0.28307652 0.93694979
0.97934479 0.27674368 0.93850797
0.97674125 0.27046078 0.94005388
0.97415811 0.26422703 0.94158769
0.97159493 0.25804162 0.94310957
0.96905142 0.25190374 0.94461983
0.96652734 0.24581259 0.94611853
0.96402228 0.23976746 0.94760597
0.96153599 0.23376754 0.94908226
0.95906824 0.2278122 0.95054752
0.95661855 0.22190061 0.95200205
0.95418668 0.21603212 0.95344597
0.95177245 0.21020603 0.95487946
0.95174223 0.20508084 0.95489746
0.95174217 0.19997492 0.95489752
0.95174223 0.1948795 0.95489746
0.95174229 0.18979433 0.95489746
0.95174229 0.18471913 0.95489752
0.95174229 0.17965375 0.95489752
0.95174241 0.17459793 0.95489746
0.95174253 0.16955148 0.95489746
0.95174241 0.16451412 0.95489752
0.95174253 0.15948573 0.95489746
0.95174253 0.154466 0.95489746
0.95174265 0.14945479 0.95489746
0.95174265 0.14445183 0.95489746
0.95174259 0.13945693 0.95489752
