ply
format ascii 1.0
comment PCL generated
element vertex 1465
property float x
property float y
property float z
end_header
1.1554556 -0.70301497 0.54860711
1.1544712 -0.70970494 0.54883832
1.1534827 -0.71642148 0.54907048
1.1524905 -0.72316498 0.54930353
1.151494 -0.72993588 0.5495376
1.1504935 -0.73673451 0.54977256
1.1494888 -0.74356145 0.55000859
1.1484799 -0.75041705 0.55024552
1.1474668 -0.75730181 0.55048347
1.1464493 -0.76421613 0.55072248
1.1454275 -0.77116054 0.55096251
1.1634721 -0.77158463 0.61781293
1.1644332 -0.7651552 0.61764592
1.1653908 -0.75874853 0.6174795
1.1663452 -0.75236446 0.61731368
1.1672963 -0.7460025 0.61714846
1.168244 -0.73966229 0.61698377
1.1691885 -0.73334354 0.61681968
1.17013 -0.72704589 0.61665606
1.1710682 -0.72076899 0.61649305
1.1720034 -0.71451247 0.61633056
1.1729357 -0.70827603 0.61616856
1.1738651 -0.70205933 0.61600709
1.1747915 -0.695862 0.61584616
1.175715 -0.68968379 0.6156857
1.1766357 -0.68352431 0.61552572
1.1775538 -0.6773833 0.61536622
1.1784691 -0.67126042 0.61520714
1.1793816 -0.66515523 0.61504859
1.1802917 -0.65906769 0.61489052
1.1811992 -0.65299726 0.6147328
1.182104 -0.64694375 0.61457556
1.1830064 -0.64090675 0.6144188
1.1839064 -0.63488615 0.6142624
1.184804 -0.62888145 0.61410642
1.1856992 -0.6228925 0.61395091
1.1865922 -0.61691898 0.61379576
1.187483 -0.6109606 0.61364096
1.1883714 -0.60501707 0.61348659
1.1892577 -0.59908801 0.61333263
1.1901419 -0.59317333 0.61317897
1.1910239 -0.58727258 0.61302572
1.1919039 -0.58138561 0.61287284
1.192782 -0.57551211 0.61272025
1.193658 -0.56965184 0.61256808
1.194532 -0.56380439 0.61241621
1.1954042 -0.55796963 0.61226463
1.1962746 -0.55214733 0.61211342
1.1971432 -0.54633713 0.6119625
1.19801 -0.54053885 0.61181188
1.198875 -0.53475213 0.61166161
1.1997383 -0.5289768 0.61151159
1.2005999 -0.52321261 0.61136186
1.2014599 -0.51745921 0.61121243
1.2023184 -0.51171649 0.6110633
1.2031753 -0.50598413 0.61091441
1.2040308 -0.50026184 0.61076576
1.2048848 -0.49454951 0.6106174
1.2057371 -0.48884675 0.61046928
1.2065881 -0.48315337 0.6103214
1.207438 -0.47746918 0.61017376
1.2082863 -0.47179389 0.61002636
1.2091334 -0.46612725 0.6098792
1.2099792 -0.46046907 0.60973221
1.2108237 -0.45481908 0.60958546
1.2116671 -0.44917709 0.60943896
1.2125093 -0.44354278 0.60929263
1.2133505 -0.43791604 0.60914642
1.2141905 -0.43229657 0.6090005
1.2150295 -0.42668414 0.60885471
1.2158674 -0.42107853 0.6087091
1.2167044 -0.41547954 0.60856372
1.2175405 -0.40988693 0.60841841
1.2183754 -0.40430045 0.60827333
1.2192097 -0.39871988 0.60812837
1.2200431 -0.39314505 0.60798359
1.2208756 -0.38757572 0.60783893
1.2217073 -0.38201162 0.60769445
1.2225384 -0.37645259 0.60755002
1.2233686 -0.37089837 0.60740578
1.2241981 -0.36534876 0.60726166
1.2250272 -0.35980356 0.60711759
1.2258555 -0.35426253 0.60697371
1.2266831 -0.34872544 0.60682988
1.2275103 -0.3431921 0.60668617
1.2283369 -0.33766231 0.60654253
1.2291631 -0.3321358 0.606399
1.2299888 -0.32661241 0.60625553
1.230814 -0.32109189 0.60611212
1.2316387 -0.31557408 0.60596883
1.2324634 -0.31005871 0.60582554
1.2332873 -0.30454561 0.60568237
1.2341111 -0.29903454 0.60553926
1.2349347 -0.29352531 0.60539615
1.2357579 -0.28801766 0.6052531
1.2365811 -0.28251147 0.60511011
1.2374041 -0.27700645 0.60496712
1.1522906 -0.77143782 0.58004451
1.153319 -0.76449132 0.57983035
1.1543429 -0.75757486 0.57961708
1.1553625 -0.75068802 0.57940477
1.1563777 -0.74383032 0.57919341
1.1573888 -0.7370013 0.57898283
1.1583955 -0.73020053 0.5787732
1.1593983 -0.72342759 0.57856435
1.1603969 -0.71668202 0.57835644
1.1613916 -0.70996344 0.57814926
1.1623822 -0.70327133 0.57794297
1.1633691 -0.69660544 0.57773751
1.1643522 -0.68996531 0.57753277
1.1653316 -0.68335044 0.5773288
1.1663071 -0.67676055 0.57712567
1.1672791 -0.67019516 0.57692325
1.1682475 -0.66365397 0.57672161
1.1692123 -0.6571365 0.57652068
1.1701736 -0.65064245 0.57632047
1.1711318 -0.64417154 0.57612097
1.1720865 -0.63772321 0.57592219
1.1730378 -0.63129717 0.57572407
1.173986 -0.62489313 0.5755266
1.1749307 -0.61851054 0.57532984
1.1758726 -0.61214936 0.57513374
1.1768112 -0.60580897 0.5749383
1.1777468 -0.59948909 0.57474345
1.1786795 -0.59318948 0.5745492
1.1796091 -0.58690971 0.5743556
1.1805359 -0.5806495 0.5741626
1.1814598 -0.57440847 0.57397026
1.182381 -0.56818634 0.57377839
1.1832995 -0.56198275 0.57358712
1.1842153 -0.5557974 0.57339644
1.1851282 -0.54962999 0.57320631
1.1860386 -0.54348016 0.5730167
1.1869465 -0.53734767 0.57282764
1.1878519 -0.53123218 0.57263911
1.1887548 -0.52513337 0.57245111
1.1896552 -0.51905096 0.5722636
1.1905534 -0.51298469 0.57207656
1.1914492 -0.50693423 0.57189
1.1923426 -0.5008992 0.57170397
1.1932338 -0.49487948 0.57151836
1.1941228 -0.48887461 0.57133329
1.1950096 -0.48288441 0.57114857
1.1958942 -0.47690862 0.57096434
1.1967769 -0.47094688 0.57078058
1.1976576 -0.46499905 0.57059717
1.198536 -0.45906469 0.57041425
1.1994127 -0.45314363 0.57023168
1.2002872 -0.44723555 0.57004958
1.2011601 -0.44134024 0.56986779
1.202031 -0.43545735 0.56968647
1.2029001 -0.42958674 0.56950545
1.2037675 -0.42372802 0.56932485
1.2046331 -0.41788095 0.56914455
1.205497 -0.41204536 0.56896466
1.2063593 -0.40622091 0.56878513
1.20722 -0.40040743 0.5686059
1.208079 -0.39460456 0.56842697
1.2089366 -0.38881215 0.56824839
1.2097925 -0.38302991 0.56807017
1.2106472 -0.37725762 0.56789219
1.2115004 -0.37149495 0.56771451
1.212352 -0.3657417 0.56753713
1.2132025 -0.35999769 0.56736004
1.2140515 -0.35426259 0.56718326
1.2148992 -0.34853622 0.56700671
1.2157458 -0.34281835 0.56683046
1.2165911 -0.3371087 0.56665444
1.2174352 -0.33140704 0.56647867
1.2182782 -0.32571316 0.56630307
1.2191199 -0.32002681 0.56612784
1.2199608 -0.31434774 0.56595272
1.2208004 -0.3086758 0.56577784
1.2216392 -0.30301067 0.5656032
1.2224768 -0.29735216 0.56542873
1.2233136 -0.29170004 0.56525451
1.2241495 -0.2860541 0.56508046
1.2249844 -0.2804141 0.56490654
1.2300469 -0.27593455 0.56385237
1.2780141 -0.28293312 0.55386358
1.220721 -0.27692229 0.52669972
1.2199094 -0.28242522 0.52689469
1.2190979 -0.28792936 0.52708972
1.2182859 -0.29343492 0.52728486
1.2174737 -0.29894206 0.52748001
1.2166615 -0.30445108 0.52767521
1.2158487 -0.30996209 0.52787048
1.2150357 -0.3154754 0.52806586
1.2142222 -0.32099116 0.5282613
1.2134085 -0.32650959 0.52845687
1.2125943 -0.33203092 0.52865249
1.2117796 -0.33755535 0.52884829
1.2109643 -0.34308311 0.52904415
1.2101487 -0.34861439 0.52924019
1.2093325 -0.3541494 0.52943629
1.2085155 -0.35968837 0.52963263
1.2076981 -0.36523154 0.52982903
1.20688 -0.3707791 0.5300256
1.2060612 -0.37633127 0.53022236
1.2052419 -0.38188827 0.53041923
1.2044215 -0.38745031 0.53061634
1.2036006 -0.39301762 0.53081363
1.2027788 -0.39859039 0.5310111
1.2019562 -0.4041689 0.53120881
1.2011327 -0.40975335 0.5314067
1.2003082 -0.41534391 0.53160477
1.1994828 -0.42094088 0.53180313
1.1986564 -0.42654443 0.53200167
1.1978291 -0.43215477 0.53220052
1.1970006 -0.43777224 0.53239959
1.1961713 -0.44339696 0.53259885
1.1953406 -0.44902918 0.53279847
1.1945089 -0.45466912 0.53299832
1.193676 -0.46031711 0.53319848
1.192842 -0.46597323 0.53339887
1.1920066 -0.47163782 0.53359962
1.19117 -0.47731107 0.53380066
1.1903321 -0.48299325 0.53400201
1.1894927 -0.48868454 0.53420371
1.188652 -0.49438524 0.53440571
1.1878099 -0.50009561 0.53460807
1.1869664 -0.5058158 0.53481078
1.1861213 -0.51154613 0.53501379
1.1852748 -0.51728684 0.53521723
1.1844267 -0.52303809 0.53542101
1.1835769 -0.52880031 0.53562522
1.1827255 -0.53457355 0.53582978
1.1818726 -0.54035825 0.53603476
1.1810178 -0.5461545 0.53624016
1.1801614 -0.55196261 0.53644598
1.1793028 -0.55778289 0.53665227
1.1784427 -0.56361556 0.53685892
1.1775808 -0.56946087 0.53706604
1.1767169 -0.57531917 0.53727365
1.175851 -0.58119065 0.53748173
1.1749831 -0.58707553 0.53769028
1.1741133 -0.59297413 0.53789932
1.1732414 -0.59888685 0.53810877
1.1723675 -0.60481375 0.53831881
1.1714911 -0.61075521 0.5385294
1.1706128 -0.61671156 0.53874046
1.1697322 -0.62268305 0.53895205
1.1688493 -0.62866992 0.53916419
1.1679641 -0.63467252 0.53937691
1.1670766 -0.6406911 0.53959018
1.1661866 -0.64672595 0.53980398
1.1652943 -0.65277737 0.54001844
1.1643993 -0.65884572 0.54023349
1.163502 -0.66493124 0.54044914
1.1626019 -0.67103428 0.54066539
1.1616993 -0.67715508 0.54088229
1.160794 -0.683294 0.54109985
1.159886 -0.6894514 0.541318
1.1589751 -0.69562751 0.54153687
1.1580617 -0.7018227 0.54175639
1.1571451 -0.70803732 0.54197663
1.1562258 -0.71427161 0.54219753
1.1553035 -0.72052604 0.54241914
1.1543782 -0.72680086 0.54264152
1.1534498 -0.7330963 0.54286462
1.1525182 -0.73941296 0.54308844
1.1515834 -0.74575096 0.54331309
1.1506456 -0.75211084 0.54353839
1.1497046 -0.75849283 0.54376453
1.1487601 -0.76489729 0.54399151
1.1478124 -0.77132469 0.54421926
1.146861 -0.77777523 0.54444784
1.2737373 -0.28276441 0.53722149
1.2259545 -0.2757757 0.54782963
1.2219708 -0.28054884 0.54871404
1.2211375 -0.28619087 0.54889905
1.2203035 -0.29183882 0.54908419
1.2194685 -0.29749295 0.54926956
1.2186325 -0.30315343 0.54945517
1.2177955 -0.30882055 0.54964101
1.2169577 -0.31449455 0.54982698
1.2161187 -0.32017559 0.55001324
1.2152785 -0.32586393 0.55019975
1.2144374 -0.33155978 0.55038649
1.213595 -0.33726344 0.55057353
1.2127515 -0.34297508 0.55076081
1.2119068 -0.34869501 0.55094832
1.2110608 -0.35442334 0.55113614
1.2102135 -0.36016044 0.55132425
1.2093649 -0.36590645 0.55151266
1.2085149 -0.37166169 0.55170131
1.2076637 -0.37742636 0.55189031
1.2068108 -0.38320065 0.55207968
1.2059565 -0.38898489 0.55226934
1.2051008 -0.39477932 0.5524593
1.2042435 -0.40058419 0.55264962
1.2033848 -0.40639973 0.55284029
1.2025243 -0.41222614 0.55303133
1.2016621 -0.41806373 0.55322272
1.2007983 -0.42391276 0.55341446
1.1999327 -0.42977354 0.55360663
1.1990654 -0.43564615 0.55379915
1.1981964 -0.44153103 0.55399215
1.1973253 -0.44742838 0.55418551
1.1964526 -0.45333847 0.55437922
1.1955779 -0.45926157 0.55457348
1.1947012 -0.46519795 0.55476809
1.1938224 -0.47114787 0.55496317
1.1929418 -0.47711161 0.55515867
1.1920589 -0.48308942 0.55535471
1.1911739 -0.48908162 0.55555117
1.1902868 -0.49508846 0.55574811
1.1893975 -0.50111026 0.55594558
1.188506 -0.50714731 0.55614346
1.1876121 -0.51319981 0.55634189
1.1867158 -0.51926821 0.55654091
1.1858172 -0.52535266 0.55674034
1.1849163 -0.53145349 0.55694038
1.1840128 -0.53757101 0.55714095
1.1831068 -0.54370558 0.55734211
1.1821984 -0.54985744 0.55754381
1.1812873 -0.55602694 0.55774605
1.1803734 -0.56221431 0.55794895
1.1794568 -0.56841987 0.55815244
1.1785377 -0.57464415 0.55835646
1.1776156 -0.5808872 0.55856121
1.1766908 -0.5871495 0.55876648
1.1757631 -0.59343135 0.55897248
1.1748325 -0.59973311 0.55917907
1.1738988 -0.60605502 0.55938637
1.1729622 -0.61239749 0.55959427
1.1720223 -0.61876082 0.55980295
1.1710795 -0.62514544 0.56001222
1.1701334 -0.63155156 0.56022233
1.1691841 -0.63797975 0.56043303
1.1682314 -0.64443016 0.56064457
1.1672754 -0.65090328 0.56085676
1.166316 -0.65739942 0.56106979
1.1653533 -0.66391897 0.56128353
1.164387 -0.67046225 0.56149805
1.163417 -0.67702967 0.5617134
1.1624435 -0.68362176 0.56192952
1.1614664 -0.69023871 0.56214643
1.1604853 -0.69688106 0.56236428
1.1595005 -0.70354909 0.56258291
1.1585119 -0.71024334 0.56280237
1.1575193 -0.71696407 0.56302273
1.1565229 -0.72371185 0.56324393
1.1555222 -0.73048699 0.56346607
1.1545175 -0.73728997 0.56368911
1.1535087 -0.74412113 0.56391311
1.1524956 -0.75098103 0.564138
1.1514782 -0.75787008 0.5643639
1.1504564 -0.76478869 0.56459075
1.1494302 -0.77173734 0.56481856
1.1453145 -0.77402264 0.51606929
1.146264 -0.76757318 0.5158174
1.1472099 -0.76114661 0.51556635
1.1481526 -0.75474244 0.51531625
1.149092 -0.74836063 0.51506698
1.1500281 -0.74200058 0.51481861
1.1509612 -0.73566198 0.51457101
1.1518911 -0.72934449 0.51432425
1.152818 -0.72304779 0.51407832
1.1537417 -0.71677148 0.51383322
1.1546627 -0.71051532 0.51358885
1.1555806 -0.70427889 0.5133453
1.1564959 -0.69806188 0.51310241
1.1574082 -0.69186401 0.51286036
1.1583177 -0.68568492 0.51261902
1.1592246 -0.67952424 0.51237839
1.1601287 -0.67338175 0.51213849
1.1610303 -0.66725713 0.51189923
1.1619292 -0.66114998 0.51166075
1.1628256 -0.65506005 0.51142287
1.1637195 -0.648987 0.51118571
1.1646111 -0.64293063 0.51094913
1.1655002 -0.63689053 0.51071322
1.166387 -0.63086647 0.51047796
1.1672714 -0.62485808 0.51024324
1.1681534 -0.61886513 0.51000923
1.1690334 -0.61288738 0.5097757
1.1699111 -0.60692447 0.50954282
1.1707866 -0.60097611 0.50931048
1.1716602 -0.59504211 0.50907874
1.1725316 -0.58912206 0.50884753
1.173401 -0.58321583 0.50861681
1.1742684 -0.57732302 0.50838667
1.1751339 -0.57144344 0.50815701
1.1759974 -0.56557679 0.50792789
1.1768591 -0.55972278 0.50769925
1.177719 -0.55388123 0.50747108
1.1785771 -0.54805183 0.50724339
1.1794333 -0.5422343 0.50701618
1.180288 -0.53642839 0.50678945
1.181141 -0.53063387 0.50656307
1.1819923 -0.52485049 0.50633723
1.182842 -0.51907796 0.50611174
1.1836901 -0.51331604 0.50588673
1.1845367 -0.50756449 0.50566208
1.1853819 -0.50182307 0.50543779
1.1862257 -0.49609154 0.50521392
1.1870679 -0.49036965 0.50499046
1.1879086 -0.48465711 0.50476736
1.1887482 -0.47895372 0.50454462
1.1895864 -0.4732593 0.50432217
1.1904233 -0.46757352 0.50410014
1.191259 -0.46189618 0.50387836
1.1920935 -0.45622703 0.50365692
1.1929269 -0.4505659 0.50343585
1.193759 -0.44491246 0.50321501
1.1945901 -0.43926656 0.50299448
1.1954201 -0.43362793 0.50277424
1.196249 -0.42799634 0.5025543
1.197077 -0.42237157 0.50233459
1.1979041 -0.41675341 0.50211513
1.19873 -0.4111416 0.50189602
1.1995552 -0.40553594 0.5016771
1.2003795 -0.39993623 0.50145835
1.2012029 -0.39434218 0.50123984
1.2020254 -0.38875362 0.50102156
1.2028474 -0.38317031 0.50080353
1.2036685 -0.37759206 0.50058562
1.2044888 -0.37201858 0.50036794
1.2053086 -0.36644974 0.50015044
1.2061278 -0.36088526 0.49993309
1.2069463 -0.35532495 0.49971589
1.2077641 -0.34976861 0.4994989
1.2085813 -0.34421596 0.49928203
1.2093982 -0.33866683 0.49906531
1.2102145 -0.333121 0.49884871
1.2110304 -0.32757828 0.49863222
1.211846 -0.32203841 0.4984158
1.2126609 -0.31650123 0.49819958
1.2134757 -0.31096646 0.4979834
1.21429 -0.30543393 0.4977673
1.2151041 -0.29990342 0.49755129
1.2159179 -0.29437473 0.49733534
1.2167315 -0.28884763 0.49711949
1.2175448 -0.28332192 0.49690366
1.218358 -0.27779737 0.49668789
1.1505945 -0.77201331 0.56819981
1.1516221 -0.76506257 0.56797498
1.1526452 -0.75814188 0.56775105
1.153664 -0.75125074 0.56752807
1.1546785 -0.74438876 0.5673061
1.1556886 -0.7375555 0.56708503
1.1566947 -0.73075044 0.56686485
1.1576967 -0.72397327 0.56664556
1.1586945 -0.71722347 0.56642717
1.1596885 -0.71050066 0.56620967
1.1606784 -0.70380437 0.56599307
1.1616645 -0.69713432 0.56577724
1.1626468 -0.69048995 0.56556231
1.1636254 -0.68387091 0.56534809
1.1646001 -0.67727679 0.56513482
1.1655715 -0.67070723 0.56492221
1.1665391 -0.66416186 0.56471044
1.1675032 -0.65764022 0.5644995
1.1684638 -0.65114206 0.56428927
1.1694212 -0.64466697 0.56407976
1.1703751 -0.63821447 0.56387097
1.1713257 -0.63178438 0.56366295
1.172273 -0.62537611 0.56345564
1.1732173 -0.61898953 0.56324899
1.1741583 -0.61262417 0.56304306
1.1750963 -0.60627967 0.56283778
1.1760312 -0.59995574 0.56263316
1.1769632 -0.59365201 0.56242925
1.1778921 -0.58736819 0.56222594
1.1788182 -0.58110386 0.56202328
1.1797416 -0.57485878 0.56182116
1.180662 -0.5686326 0.56161976
1.1815797 -0.56242496 0.56141889
1.1824948 -0.55623549 0.56121868
1.1834071 -0.55006403 0.561019
1.1843169 -0.54391015 0.56081992
1.1852241 -0.53777361 0.56062138
1.1861287 -0.53165412 0.56042337
1.1870311 -0.52555132 0.5602259
1.1879308 -0.51946485 0.56002903
1.1888283 -0.51339453 0.55983263
1.1897234 -0.50734001 0.55963677
1.1906161 -0.50130099 0.55944133
1.1915067 -0.49527723 0.55924642
1.1923951 -0.48926842 0.55905205
1.1932813 -0.48327422 0.5588581
1.1941653 -0.47729442 0.55866462
1.1950473 -0.47132871 0.55847162
1.1959271 -0.46537682 0.5582791
1.1968051 -0.45943847 0.55808693
1.197681 -0.45351341 0.55789524
1.1985552 -0.44760135 0.55770397
1.1994271 -0.44170204 0.55751312
1.2002975 -0.43581516 0.55732268
1.201166 -0.42994052 0.5571326
1.2020328 -0.42407784 0.55694294
1.2028978 -0.41822681 0.55675364
1.2037611 -0.41238722 0.55656469
1.2046229 -0.40655887 0.5563761
1.2054828 -0.40074134 0.55618787
1.2063411 -0.39493454 0.55600005
1.2071983 -0.38913816 0.55581248
1.2080537 -0.38335195 0.55562526
1.2089076 -0.37757564 0.5554384
1.2097602 -0.37180901 0.55525184
1.2106113 -0.36605179 0.55506557
1.2114611 -0.36030382 0.55487961
1.2123095 -0.35456479 0.55469394
1.2131567 -0.34883446 0.55450851
1.2140026 -0.34311259 0.55432338
1.2148472 -0.33739895 0.55413854
1.2156909 -0.33169335 0.55395395
1.2165332 -0.3259955 0.55376959
1.2173744 -0.32030517 0.55358547
1.2182145 -0.31462213 0.55340165
1.2190537 -0.30894622 0.55321801
1.2198918 -0.30327713 0.55303454
1.220729 -0.29761466 0.55285138
1.2215651 -0.29195857 0.55266839
1.2224004 -0.28630862 0.55248559
1.2232348 -0.28066462 0.55230296
1.2263097 -0.2756398 0.55163008
1.2740873 -0.28262043 0.54117423
1.2230027 -0.2773518 0.52555567
1.2221879 -0.28286535 0.52575189
1.2213732 -0.28838006 0.52594805
1.2205582 -0.2938962 0.52614427
1.2197428 -0.29941392 0.5263406
1.2189274 -0.30493349 0.52653694
1.2181116 -0.31045505 0.5267334
1.2172954 -0.31597888 0.52692991
1.2164788 -0.32150519 0.52712649
1.2156619 -0.32703412 0.52732325
1.2148446 -0.33256596 0.52752
1.2140268 -0.33810091 0.52771693
1.2132086 -0.34363914 0.52791393
1.2123897 -0.34918091 0.5281111
1.2115704 -0.3547264 0.52830839
1.2107505 -0.36027586 0.5285058
1.2099299 -0.36582947 0.52870339
1.2091087 -0.37138748 0.5289011
1.2082869 -0.37695009 0.52909899
1.2074642 -0.38251752 0.52929705
1.206641 -0.38809001 0.5294953
1.2058167 -0.39366773 0.52969372
1.2049918 -0.39925095 0.52989239
1.2041661 -0.40483987 0.53009123
1.2033395 -0.41043472 0.53029025
1.2025118 -0.41603571 0.5304895
1.2016833 -0.42164308 0.530689
1.2008538 -0.42725703 0.53088874
1.2000233 -0.43287784 0.53108871
1.1991918 -0.43850568 0.53128892
1.1983593 -0.44414082 0.53148937
1.1975256 -0.44978344 0.53169012
1.1966907 -0.45543382 0.53189111
1.1958545 -0.46109211 0.53209245
1.1950173 -0.46675867 0.53229403
1.1941789 -0.47243369 0.53249592
1.1933392 -0.47811732 0.53269809
1.1924981 -0.48380989 0.53290063
1.1916556 -0.48951164 0.53310347
1.1908118 -0.49522272 0.53330666
1.1899666 -0.50094348 0.53351015
1.1891199 -0.50667411 0.53371406
1.1882716 -0.51241481 0.53391826
1.1874219 -0.51816595 0.53412288
1.1865706 -0.52392763 0.53432786
1.1857177 -0.52970022 0.53453326
1.1848632 -0.53548396 0.53473896
1.1840069 -0.54127902 0.53494513
1.183149 -0.5470857 0.53515172
1.1822894 -0.55290431 0.53535873
1.1814277 -0.55873501 0.53556615
1.1805644 -0.56457812 0.53577405
1.1796993 -0.57043397 0.53598237
1.1788322 -0.57630265 0.53619117
1.177963 -0.58218461 0.53640044
1.1770921 -0.58807999 0.53661013
1.1762189 -0.59398907 0.53682035
1.1753438 -0.59991223 0.53703111
1.1744665 -0.60584974 0.53724229
1.1735871 -0.61180168 0.53745407
1.1727054 -0.61776859 0.53766632
1.1718216 -0.62375057 0.53787917
1.1709355 -0.62974799 0.53809249
1.170047 -0.63576114 0.53830642
1.1691562 -0.64179027 0.53852093
1.168263 -0.64783567 0.53873599
1.1673673 -0.6538977 0.53895164
1.1664691 -0.65997666 0.53916794
1.1655684 -0.66607279 0.53938478
1.1646651 -0.67218643 0.53960228
1.1637592 -0.6783179 0.53982043
1.1628506 -0.68446743 0.54003918
1.1619391 -0.6906355 0.54025865
1.1610252 -0.69682229 0.54047877
1.1601081 -0.7030282 0.54069954
1.1591884 -0.70925349 0.54092097
1.1582657 -0.71549857 0.54114318
1.15734 -0.72176367 0.54136604
1.1564113 -0.72804922 0.54158968
1.1554796 -0.73435551 0.54181403
1.1545447 -0.74068296 0.5420391
1.1536065 -0.74703175 0.542265
1.1526653 -0.75340241 0.54249167
1.1517208 -0.75979525 0.54271907
1.1507728 -0.76621062 0.54294729
1.1498218 -0.77264881 0.54317629
1.2699152 -0.28245205 0.52574795
1.2223177 -0.27548116 0.53677678
1.2203133 -0.2807996 0.53724122
1.2194806 -0.28644562 0.53743416
1.218647 -0.29209754 0.53762734
1.2178125 -0.29775563 0.53782064
1.216977 -0.30342013 0.53801423
1.2161406 -0.30909121 0.53820807
1.2153031 -0.31476912 0.53840214
1.2144647 -0.32045418 0.53859639
1.2136252 -0.32614648 0.53879094
1.2127844 -0.33184633 0.53898573
1.2119426 -0.33755392 0.53918082
1.2110996 -0.34326956 0.53937608
1.2102555 -0.34899345 0.5395717
1.2094102 -0.35472578 0.53976756
1.2085633 -0.36046681 0.53996378
1.2077153 -0.36621684 0.5401603
1.2068658 -0.37197602 0.54035711
1.206015 -0.37774467 0.54055429
1.2051629 -0.38352296 0.5407517
1.2043091 -0.38931116 0.54094952
1.2034539 -0.39510956 0.54114771
1.2025971 -0.40091839 0.54134619
1.201739 -0.40673792 0.54154509
1.2008791 -0.41256833 0.54174429
1.2000173 -0.41840991 0.54194397
1.1991541 -0.42426291 0.542144
1.1982892 -0.43012765 0.54234445
1.1974224 -0.43600431 0.54254526
1.1965539 -0.44189319 0.54274648
1.1956835 -0.44779447 0.54294819
1.1948113 -0.45370856 0.54315025
1.1939371 -0.4596357 0.54335284
1.193061 -0.46557602 0.54355586
1.1921829 -0.47152993 0.54375929
1.1913027 -0.47749773 0.54396325
1.1904204 -0.48347953 0.5441677
1.189536 -0.4894757 0.54437262
1.1886495 -0.49548662 0.54457802
1.1877607 -0.50151241 0.54478395
1.1868697 -0.50755346 0.54499042
1.1859766 -0.51361001 0.54519737
1.185081 -0.51968241 0.54540491
1.184183 -0.5257709 0.54561299
1.1832826 -0.53187573 0.54582161
1.1823797 -0.53799736 0.54603082
1.1814743 -0.54413593 0.54624057
1.1805664 -0.55029184 0.54645097
1.1796558 -0.55646539 0.54666197
1.1787426 -0.56265682 0.54687357
1.1778268 -0.56886655 0.54708576
1.1769083 -0.57509476 0.54729861
1.1759869 -0.58134192 0.54751211
1.1750627 -0.58760834 0.54772621
1.1741356 -0.59389424 0.54794103
1.1732056 -0.60020012 0.5481565
1.1722724 -0.60652608 0.54837275
1.1713364 -0.61287266 0.54858965
1.1703974 -0.61924016 0.5488072
1.1694551 -0.62562889 0.5490256
1.1685097 -0.63203919 0.54924464
1.1675611 -0.63847142 0.54946446
1.166609 -0.64492601 0.549685
1.1656537 -0.65140325 0.54990637
1.1646949 -0.65790355 0.55012852
1.1637328 -0.66442722 0.5503515
1.1627672 -0.67097479 0.5505752
1.1617979 -0.67754644 0.55079979
1.160825 -0.68414265 0.55102521
1.1598485 -0.69076377 0.55125153
1.1588683 -0.69741035 0.55147862
1.1578841 -0.70408261 0.55170667
1.1568962 -0.71078104 0.55193561
1.1559043 -0.71750599 0.55216545
1.1549084 -0.72425795 0.55239618
1.1539087 -0.73103738 0.5526278
1.1529046 -0.73784459 0.5528605
1.1518965 -0.74468005 0.55309409
1.150884 -0.75154424 0.55332863
1.1498674 -0.75843757 0.55356419
1.1488464 -0.76536041 0.55380082
1.1478209 -0.77231342 0.55403841
1.1546228 -0.77346402 0.55776101
1.1555791 -0.76701915 0.55754387
1.156532 -0.76059705 0.55732745
1.1574816 -0.75419754 0.5571118
1.158428 -0.74782026 0.55689692
1.1593709 -0.74146479 0.55668277
1.1603107 -0.73513067 0.55646932
1.1612476 -0.72881776 0.55625659
1.1621813 -0.7225256 0.55604458
1.1631118 -0.71625388 0.55583322
1.1640394 -0.71000218 0.55562258
1.1649642 -0.70377028 0.55541259
1.165886 -0.69755781 0.5552032
1.1668051 -0.69136447 0.55499452
1.1677213 -0.68518984 0.55478644
1.1686348 -0.6790337 0.55457902
1.1695454 -0.67289567 0.55437219
1.1704535 -0.66677547 0.55416596
1.1713592 -0.66067278 0.55396032
1.1722621 -0.65458733 0.55375528
1.1731627 -0.6485188 0.55355078
1.1740606 -0.64246684 0.55334687
1.1749562 -0.63643122 0.55314344
1.1758494 -0.63041162 0.55294061
1.1767404 -0.62440771 0.55273831
1.177629 -0.61841917 0.55253649
1.1785152 -0.61244583 0.5523352
1.1793995 -0.60648739 0.55213439
1.1802813 -0.60054344 0.55193418
1.1811613 -0.59461385 0.55173433
1.1820391 -0.58869827 0.55153495
1.1829147 -0.58279639 0.55133611
1.1837884 -0.57690805 0.55113769
1.1846603 -0.57103288 0.55093974
1.1855301 -0.56517065 0.55074221
1.186398 -0.55932105 0.5505451
1.1872643 -0.5534839 0.55034834
1.1881286 -0.54765886 0.55015206
1.1889912 -0.5418458 0.5499562
1.189852 -0.5360443 0.5497607
1.1907113 -0.53025419 0.54956561
1.1915686 -0.52447516 0.54937088
1.1924247 -0.51870698 0.54917651
1.1932789 -0.51294947 0.5489825
1.1941317 -0.50720233 0.54878885
1.194983 -0.50146532 0.54859549
1.1958328 -0.49573815 0.54840249
1.1966811 -0.49002063 0.54820985
1.1975282 -0.4843125 0.5480175
1.1983738 -0.47861356 0.54782546
1.1992183 -0.47292349 0.54763371
1.2000612 -0.46724209 0.54744232
1.2009029 -0.46156913 0.54725111
1.2017435 -0.45590439 0.54706025
1.2025828 -0.45024762 0.54686964
1.2034211 -0.44459859 0.54667926
1.2042581 -0.43895707 0.54648918
1.2050942 -0.43332285 0.54629928
1.2059292 -0.42769563 0.54610968
1.2067631 -0.42207524 0.54592031
1.2075962 -0.4164615 0.54573113
1.2084281 -0.41085407 0.54554218
1.2092594 -0.40525281 0.54535341
1.2100897 -0.39965746 0.54516488
1.210919 -0.39406785 0.54497653
1.2117475 -0.38848367 0.54478836
1.2125756 -0.3829048 0.54460037
1.2134026 -0.37733093 0.54441255
1.2142289 -0.37176189 0.54422486
1.2150545 -0.36619744 0.5440374
1.2158796 -0.36063737 0.54385006
1.216704 -0.35508147 0.54366279
1.2175277 -0.34952953 0.54347575
1.2183511 -0.34398133 0.54328877
1.2191738 -0.3384366 0.54310191
1.2199961 -0.33289522 0.54291523
1.2208179 -0.32735693 0.54272854
1.2216393 -0.32182151 0.54254204
1.2224602 -0.31628874 0.5423556
1.2232808 -0.31075841 0.54216927
1.2241011 -0.30523035 0.54198301
1.2249211 -0.29970428 0.54179674
1.2257408 -0.29418007 0.5416106
1.2265602 -0.28865743 0.54142451
1.2273794 -0.28313616 0.54123849
1.2281986 -0.27761611 0.54105246
1.1455579 -0.77200741 0.5462333
1.1465809 -0.76505667 0.5459888
1.1475996 -0.75813603 0.54574537
1.1486139 -0.75124496 0.54550296
1.149624 -0.74438304 0.54526156
1.1506299 -0.73754984 0.54502118
1.1516315 -0.73074484 0.5447818
1.1526289 -0.72396767 0.54454345
1.1536224 -0.71721792 0.54430604
1.1546119 -0.71049517 0.54406953
1.1555976 -0.70379889 0.54383397
1.1565794 -0.69712883 0.54359937
1.1575575 -0.69048452 0.5433656
1.1585317 -0.68386555 0.54313278
1.1595023 -0.67727149 0.54290086
1.1604693 -0.67070198 0.54266977
1.1614326 -0.66415662 0.54243952
1.1623926 -0.65763509 0.5422101
1.163349 -0.65113693 0.54198152
1.164302 -0.64466184 0.54175377
1.1652519 -0.63820946 0.54152679
1.1661983 -0.63177937 0.54130065
1.1671414 -0.62537116 0.54107523
1.1680816 -0.61898464 0.54085052
1.1690184 -0.61261928 0.54062665
1.1699523 -0.60627484 0.54040349
1.1708832 -0.59995097 0.54018098
1.171811 -0.59364724 0.53995931
1.1727359 -0.58736348 0.53973824
1.173658 -0.58109921 0.53951788
1.1745772 -0.57485414 0.53929824
1.1754936 -0.56862801 0.53907919
1.1764073 -0.56242043 0.53886086
1.1773183 -0.55623096 0.53864312
1.1782267 -0.55005956 0.53842604
1.1791325 -0.54390574 0.53820962
1.1800357 -0.53776926 0.53799373
1.1809365 -0.53164977 0.53777844
1.1818348 -0.52554703 0.5375638
1.1827306 -0.51946062 0.5373497
1.183624 -0.5133903 0.5371362
1.1845154 -0.50733584 0.53692317
1.1854042 -0.50129688 0.53671074
1.1862909 -0.49527311 0.5364989
1.1871753 -0.48926437 0.53628749
1.1880575 -0.48327017 0.53607666
1.1889378 -0.47729042 0.53586632
1.1898158 -0.47132471 0.53565651
1.1906918 -0.46537289 0.53544712
1.191566 -0.45943466 0.53523821
1.192438 -0.4535096 0.53502983
1.1933082 -0.44759759 0.53482187
1.1941766 -0.44169834 0.53461432
1.1950431 -0.43581152 0.53440726
1.1959078 -0.42993692 0.53420061
1.1967708 -0.42407423 0.53399438
1.197632 -0.41822326 0.53378856
1.1984915 -0.41238374 0.53358316
1.1993493 -0.40655535 0.53337812
1.2002057 -0.40073794 0.5331735
1.2010603 -0.39493117 0.53296924
1.2019136 -0.38913482 0.53276533
1.2027652 -0.38334861 0.53256184
1.2036154 -0.37757239 0.53235865
1.2044642 -0.37180576 0.53215581
1.2053117 -0.36604863 0.53195328
1.2061576 -0.36030066 0.5317511
1.2070024 -0.35456169 0.53154922
1.2078458 -0.34883139 0.53134763
1.208688 -0.34310958 0.53114635
1.2095289 -0.33739597 0.53094542
1.2103688 -0.3316904 0.53074473
1.2112075 -0.32599258 0.53054428
1.2120451 -0.32030228 0.53034413
1.2128816 -0.31461933 0.53014421
1.213717 -0.30894345 0.52994454
1.2145513 -0.30327436 0.52974516
1.2153848 -0.29761192 0.52954596
1.2162173 -0.29195589 0.529347
1.217049 -0.28630602 0.52914822
1.2178798 -0.28066206 0.52894974
1.2209613 -0.27564281 0.52821326
1.2685311 -0.28262365 0.51684499
1.2200201 -0.27734977 0.51348072
1.2192075 -0.28286326 0.51368487
1.2183946 -0.28837794 0.51388913
1.2175817 -0.29389402 0.5140934
1.2167684 -0.29941168 0.51429778
1.2159548 -0.30493116 0.51450217
1.2151409 -0.31045273 0.51470667
1.2143269 -0.3159765 0.51491123
1.2135123 -0.32150275 0.51511592
1.2126974 -0.32703164 0.51532066
1.211882 -0.33256343 0.51552552
1.2110664 -0.33809832 0.5157305
1.21025 -0.34363648 0.5159356
1.2094332 -0.34917819 0.51614082
1.2086159 -0.35472366 0.51634622
1.2077979 -0.36027306 0.51655173
1.2069794 -0.36582664 0.51675737
1.2061602 -0.37138459 0.51696324
1.2053404 -0.37694716 0.51716924
1.2045197 -0.38251454 0.51737547
1.2036984 -0.38808694 0.51758182
1.2028762 -0.39366463 0.51778841
1.2020534 -0.39924783 0.51799512
1.2012297 -0.40483668 0.51820213
1.200405 -0.41043147 0.51840937
1.1995795 -0.41603243 0.51861674
1.1987529 -0.42163974 0.51882446
1.1979256 -0.42725366 0.51903236
1.1970972 -0.43287441 0.5192405
1.1962676 -0.43850219 0.51944894
1.1954371 -0.44413728 0.51965761
1.1946054 -0.44977984 0.51986659
1.1937726 -0.45543015 0.52007586
1.1929387 -0.46108845 0.52028537
1.1921034 -0.46675494 0.52049524
1.1912669 -0.47242987 0.5207054
1.1904292 -0.47811347 0.52091593
1.1895902 -0.48380601 0.52112675
1.1887499 -0.48950768 0.52133787
1.1879081 -0.49521872 0.5215494
1.1870649 -0.50093943 0.5217613
1.1862203 -0.50667 0.52197349
1.1853741 -0.5124107 0.5221861
1.1845264 -0.51816171 0.52239913
1.1836773 -0.5239234 0.52261245
1.1828265 -0.52969599 0.52282625
1.1819741 -0.53547961 0.52304047
1.1811199 -0.54127467 0.52325505
1.180264 -0.54708129 0.5234701
1.1794064 -0.55289984 0.52368557
1.178547 -0.55873048 0.52390152
1.1776859 -0.56457359 0.52411795
1.1768227 -0.57042933 0.52433479
1.1759577 -0.576298 0.52455217
1.1750908 -0.58217984 0.52476996
1.1742219 -0.58807522 0.52498829
1.1733508 -0.59398431 0.52520716
1.172478 -0.5999074 0.52542651
1.1716027 -0.6058448 0.52564639
1.1707256 -0.61179674 0.52586681
1.1698461 -0.61776352 0.52608782
1.1689644 -0.6237455 0.52630937
1.1680803 -0.62974286 0.52653146
1.1671941 -0.63575596 0.52675414
1.1663054 -0.64178503 0.52697742
1.1654145 -0.64783043 0.52720135
1.164521 -0.6538924 0.52742583
1.163625 -0.6599713 0.52765095
1.1627265 -0.66606736 0.52787673
1.1618254 -0.67218095 0.52810311
1.1609217 -0.67831236 0.52833021
1.1600153 -0.68446189 0.52855796
1.1591063 -0.69062984 0.52878636
1.1581943 -0.69681662 0.52901548
1.1572796 -0.70302248 0.52924538
1.1563622 -0.70924777 0.52947587
1.1554416 -0.71549273 0.52970719
1.1545182 -0.72175777 0.52993917
1.1535918 -0.72804332 0.53017199
1.1526624 -0.73434955 0.53040552
1.1517297 -0.74067688 0.53063989
1.1507939 -0.74702567 0.53087497
1.149855 -0.75339633 0.53111088
1.1489128 -0.75978905 0.53134769
1.1479672 -0.76620436 0.53158522
1.1470183 -0.77264255 0.53182369
1.267867 -0.28277031 0.51187247
1.2203037 -0.27578127 0.52343172
1.2163011 -0.2805441 0.52440441
1.2154717 -0.28618604 0.52460599
1.2146416 -0.29183394 0.52480775
1.2138104 -0.29748794 0.52500975
1.2129784 -0.30314839 0.52521193
1.2121453 -0.30881545 0.52541441
1.2113111 -0.31448933 0.52561712
1.210476 -0.32017031 0.52582008
1.20964 -0.32585859 0.52602327
1.2088026 -0.33155435 0.52622676
1.2079643 -0.33725792 0.52643049
1.2071247 -0.34296951 0.52663457
1.2062838 -0.34868932 0.5268389
1.2054418 -0.35441765 0.52704352
1.2045985 -0.36015466 0.52724844
1.2037538 -0.36590061 0.52745378
1.2029079 -0.37165573 0.52765936
1.2020605 -0.37742034 0.52786529
1.2012116 -0.38319457 0.52807158
1.2003615 -0.38897875 0.52827823
1.1995097 -0.3947731 0.52848518
1.1986564 -0.4005779 0.5286926
1.1978015 -0.40639329 0.52890033
1.196945 -0.41221967 0.52910852
1.196087 -0.4180572 0.52931702
1.1952271 -0.42390618 0.529526
1.1943656 -0.4297668 0.52973539
1.1935024 -0.43563941 0.52994514
1.1926373 -0.44152424 0.53015536
1.1917704 -0.44742152 0.53036606
1.1909016 -0.4533315 0.53057724
1.1900309 -0.45925453 0.53078884
1.1891584 -0.4651908 0.53100085
1.1882838 -0.47114065 0.5312134
1.1874071 -0.47710434 0.53142649
1.1865284 -0.48308209 0.53164005
1.1856475 -0.48907417 0.53185409
1.1847645 -0.49508095 0.53206873
1.1838794 -0.50110269 0.53228384
1.1829919 -0.50713962 0.53249949
1.1821022 -0.51319212 0.53271574
1.1812102 -0.51926035 0.53293252
1.1803157 -0.52534473 0.5331499
1.179419 -0.5314455 0.53336781
1.1785197 -0.53756297 0.53358638
1.1776179 -0.54369742 0.53380555
1.1767137 -0.54984921 0.53402525
1.1758068 -0.55601865 0.53424567
1.1748973 -0.56220597 0.53446668
1.1739851 -0.56841147 0.53468841
1.1730701 -0.57463557 0.5349108
1.1721524 -0.58087862 0.53513384
1.1712317 -0.5871408 0.53535753
1.1703085 -0.59342259 0.53558195
1.1693822 -0.59972423 0.53580707
1.1684529 -0.60604608 0.53603292
1.1675205 -0.61238849 0.53625947
1.1665851 -0.61875176 0.5364868
1.1656466 -0.62513626 0.53671491
1.1647049 -0.63154238 0.53694373
1.1637599 -0.63797045 0.53717339
1.1628119 -0.6444208 0.53740382
1.1618603 -0.65089387 0.53763509
1.1609055 -0.65738988 0.53786713
1.159947 -0.66390938 0.53810006
1.1589853 -0.67045265 0.53833377
1.1580199 -0.67701995 0.53856844
1.1570507 -0.68361193 0.53880394
1.1560781 -0.69022882 0.53904033
1.1551017 -0.69687104 0.53927761
1.1541215 -0.70353907 0.53951585
1.1531376 -0.71023321 0.53975493
1.1521496 -0.71695387 0.53999507
1.1511577 -0.72370154 0.54023612
1.1501617 -0.73047656 0.54047817
1.1491618 -0.73727947 0.54072118
1.1481576 -0.74411058 0.54096526
1.1471492 -0.75097042 0.54121029
1.1461365 -0.75785935 0.5414564
1.1451194 -0.76477784 0.54170358
1.144098 -0.77172643 0.54195184
1.1442866 -0.77263945 0.52118134
1.1452332 -0.76620126 0.52093416
1.1461765 -0.75978601 0.52068788
1.1471165 -0.75339329 0.52044243
1.1480533 -0.74702269 0.52019781
1.1489868 -0.7406739 0.51995409
1.1499171 -0.73434657 0.51971114
1.1508445 -0.72804034 0.51946902
1.1517686 -0.72175485 0.51922768
1.1526898 -0.7154898 0.51898718
1.1536081 -0.70924479 0.51874739
1.1545234 -0.70301962 0.51850837
1.155436 -0.69681376 0.51827013
1.1563457 -0.69062704 0.51803255
1.1572527 -0.68445909 0.51779574
1.1581569 -0.67830956 0.51755965
1.1590583 -0.67217815 0.51732427
1.1599573 -0.66606462 0.51708955
1.1608536 -0.65996855 0.51685548
1.1617476 -0.65388966 0.51662207
1.1626389 -0.64782768 0.51638937
1.1635277 -0.64178234 0.51615727
1.1644143 -0.63575327 0.51592577
1.1652985 -0.62974024 0.51569492
1.1661804 -0.62374288 0.5154646
1.1670599 -0.61776096 0.51523501
1.1679373 -0.61179411 0.51500589
1.1688125 -0.60584223 0.51477736
1.1696855 -0.59990489 0.51454937
1.1705564 -0.5939818 0.51432198
1.1714252 -0.58807272 0.51409513
1.1722921 -0.5821774 0.51386881
1.173157 -0.57629555 0.51364297
1.1740199 -0.57042688 0.5134176
1.174881 -0.5645712 0.51319283
1.17574 -0.5587281 0.51296848
1.1765975 -0.55289745 0.51274461
1.1774529 -0.54707897 0.51252121
1.1783067 -0.54127234 0.51229829
1.1791589 -0.53547734 0.51207578
1.1800094 -0.52969366 0.51185375
1.1808581 -0.52392119 0.51163208
1.1817054 -0.51815951 0.51141089
1.182551 -0.51240849 0.51119006
1.183395 -0.50666779 0.5109697
1.1842376 -0.50093728 0.5107497
1.1850789 -0.49521661 0.51052999
1.1859187 -0.48950556 0.51031077
1.186757 -0.48380393 0.51009184
1.1875939 -0.47811142 0.50987327
1.1884297 -0.47242785 0.50965506
1.1892642 -0.46675292 0.5094372
1.1900973 -0.46108645 0.50921965
1.1909293 -0.45542818 0.50900239
1.1917602 -0.44977787 0.50878549
1.1925898 -0.44413534 0.50856882
1.1934184 -0.43850029 0.50835246
1.1942459 -0.4328725 0.50813639
1.1950724 -0.42725182 0.50792056
1.1958979 -0.42163792 0.50770503
1.1967224 -0.41603065 0.50748974
1.1975459 -0.41042972 0.50727475
1.1983687 -0.40483496 0.50705987
1.1991904 -0.39924607 0.50684536
1.2000113 -0.39366293 0.50663102
1.2008314 -0.38808528 0.50641686
1.2016509 -0.38251287 0.50620288
1.2024695 -0.37694553 0.50598913
1.2032875 -0.37138298 0.50577557
1.2041045 -0.36582503 0.50556219
1.2049211 -0.36027148 0.50534898
1.2057371 -0.35472211 0.50513589
1.2065525 -0.3491767 0.50492299
1.2073674 -0.34363499 0.5047102
1.2081817 -0.33809686 0.50449759
1.2089956 -0.332562 0.5042851
1.2098089 -0.32703024 0.50407267
1.210622 -0.32150137 0.50386041
1.2114345 -0.31597513 0.50364828
1.2122468 -0.31045139 0.50343615
1.2130586 -0.30492988 0.50322419
1.2138702 -0.2994104 0.50301224
1.2146816 -0.29389277 0.50280041
1.2154926 -0.28837672 0.50258863
1.2163036 -0.28286207 0.50237691
1.2171142 -0.27734861 0.5021652
1.1578275 -0.77142388 0.60847896
1.1588608 -0.76447749 0.6082902
1.1598897 -0.75756115 0.6081022
1.1609142 -0.75067449 0.60791504
1.1619343 -0.74381679 0.60772872
1.1629502 -0.73698795 0.60754311
1.1639618 -0.73018724 0.60735828
1.1649692 -0.72341436 0.60717422
1.1659728 -0.71666896 0.60699093
1.1669722 -0.70995045 0.60680836
1.1679676 -0.70325845 0.60662651
1.1689593 -0.69659269 0.60644531
1.1699469 -0.68995255 0.60626489
1.1709309 -0.68333781 0.60608512
1.1719112 -0.67674804 0.60590601
1.1728878 -0.67018276 0.60572761
1.1738609 -0.66364169 0.60554987
1.1748303 -0.65712434 0.60537273
1.1757964 -0.65063041 0.60519624
1.176759 -0.64415956 0.6050204
1.1777183 -0.63771135 0.60484517
1.1786741 -0.63128537 0.60467052
1.1796267 -0.62488139 0.60449648
1.1805762 -0.61849904 0.60432303
1.1815225 -0.61213785 0.60415018
1.1824656 -0.60579759 0.60397786
1.1834056 -0.59947783 0.60380614
1.1843427 -0.59317833 0.60363495
1.185277 -0.58689862 0.60346425
1.1862082 -0.58063853 0.60329413
1.1871365 -0.57439756 0.60312456
1.1880621 -0.56817555 0.60295546
1.188985 -0.56197208 0.60278684
1.189905 -0.55578679 0.60261875
1.1908224 -0.54961944 0.60245121
1.1917373 -0.54346979 0.60228401
1.1926495 -0.53733736 0.60211736
1.1935592 -0.53122199 0.60195118
1.1944665 -0.52512324 0.60178548
1.1953712 -0.51904094 0.6016202
1.1962737 -0.51297474 0.60145533
1.1971736 -0.50692439 0.60129088
1.1980714 -0.50088948 0.60112691
1.1989669 -0.49486983 0.60096329
1.1998601 -0.48886514 0.6008001
1.2007512 -0.48287505 0.60063732
1.20164 -0.47689933 0.60047495
1.2025269 -0.4709377 0.60031289
1.2034116 -0.46498987 0.6001513
1.2042944 -0.45905569 0.59999001
1.2051753 -0.45313469 0.59982908
1.2060541 -0.44722673 0.59966856
1.2069311 -0.44133148 0.59950835
1.2078062 -0.43544874 0.59934843
1.2086794 -0.42957816 0.59918892
1.2095509 -0.42371956 0.59902972
1.2104207 -0.41787261 0.59887081
1.2112888 -0.4120371 0.59871221
1.2121552 -0.40621278 0.59855396
1.21302 -0.40039936 0.59839594
1.2138832 -0.39459661 0.59823829
1.2147448 -0.38880429 0.59808087
1.215605 -0.38302213 0.5979237
1.2164637 -0.37724993 0.59776682
1.2173208 -0.37148735 0.59761024
1.2181766 -0.36573419 0.59745389
1.219031 -0.35999027 0.59729779
1.2203273 -0.35440576 0.59706098
1.2211798 -0.34867755 0.59690523
1.2220309 -0.34295776 0.59674978
1.2228808 -0.33724621 0.59659451
1.2237296 -0.33154267 0.59643942
1.2245772 -0.32584694 0.59628457
1.2254237 -0.32015869 0.59612995
1.2262691 -0.31447777 0.59597552
1.2271135 -0.30880392 0.59582126
1.2279568 -0.30313691 0.59566718
1.2287991 -0.29747653 0.59551328
1.2296405 -0.29182252 0.59535956
1.2304809 -0.28617468 0.59520602
1.2313207 -0.28053281 0.59505266
1.2354639 -0.27579477 0.59429574
1.2836213 -0.28278485 0.58549792
1.2312779 -0.27726004 0.56494796
1.2304581 -0.28277129 0.56511778
1.2296381 -0.28828374 0.56528765
1.2288178 -0.29379761 0.56545758
1.2279974 -0.2993131 0.56562757
1.2271768 -0.3048304 0.56579757
1.2263557 -0.31034973 0.56596768
1.2255344 -0.3158713 0.56613785
1.2247126 -0.32139534 0.56630808
1.2238907 -0.32692203 0.56647837
1.223068 -0.33245164 0.56664878
1.2222451 -0.33798432 0.56681931
1.2214216 -0.34352031 0.5669899
1.2205976 -0.34905985 0.56716061
1.2197731 -0.35460308 0.56733143
1.2189479 -0.36015031 0.56750238
1.2181221 -0.36570168 0.56767344
1.2172956 -0.37125748 0.56784463
1.2164687 -0.37681785 0.56801599
1.2156408 -0.38238305 0.56818748
1.2148123 -0.38795331 0.56835914
1.2139828 -0.39352882 0.56853098
1.2131526 -0.39910981 0.56870294
1.2123216 -0.40469652 0.56887513
1.2114897 -0.41028911 0.56904745
1.210657 -0.41588789 0.56922001
1.2098231 -0.42149302 0.56939274
1.2089884 -0.42710477 0.56956565
1.2081527 -0.43272331 0.56973881
1.2073158 -0.43834895 0.5699122
1.2064779 -0.44398186 0.57008576
1.2056391 -0.44962227 0.57025957
1.2047988 -0.45527041 0.57043362
1.2039574 -0.4609265 0.5706079
1.2031149 -0.46659085 0.57078248
1.2022711 -0.4722636 0.5709573
1.2014259 -0.47794503 0.57113236
1.2010491 -0.4838011 0.57121044
1.2002007 -0.48950273 0.57138622
1.1993508 -0.49521372 0.57156229
1.1984996 -0.50093436 0.57173866
1.1976467 -0.50666487 0.57191533
1.1967925 -0.51240546 0.57209229
1.1959367 -0.51815647 0.57226962
1.1950793 -0.52391809 0.57244724
1.1942204 -0.52969056 0.57262516
1.1933596 -0.53547412 0.5728035
1.1924973 -0.54126912 0.57298219
1.1916331 -0.54707569 0.57316118
1.1907674 -0.55289418 0.57334054
1.1898997 -0.55872476 0.5735203
1.1890302 -0.5645678 0.57370043
1.1881588 -0.57042348 0.57388097
1.1872855 -0.5762921 0.57406187
1.1864103 -0.58217394 0.57424319
1.1855329 -0.5880692 0.57442492
1.1846536 -0.59397823 0.57460713
1.1837722 -0.59990126 0.5747897
1.1828886 -0.6058386 0.57497275
1.1820029 -0.61179048 0.57515627
1.181115 -0.6177572 0.57534021
1.1802249 -0.62373906 0.57552463
1.1793324 -0.62973636 0.57570952
1.1784376 -0.6357494 0.57589489
1.1775404 -0.64177841 0.57608074
1.1766407 -0.64782375 0.57626712
1.1757388 -0.65388566 0.57645398
1.1748341 -0.6599645 0.57664144
1.1739269 -0.66606051 0.57682937
1.1730171 -0.67217404 0.57701784
1.1721048 -0.67830539 0.57720685
1.1711898 -0.68445486 0.57739645
1.1702718 -0.69062281 0.57758659
1.1693511 -0.69680947 0.57777733
1.1684277 -0.70301521 0.57796866
1.1675012 -0.70924038 0.57816058
1.166572 -0.71548533 0.57835311
1.1656398 -0.72175038 0.57854623
1.1647043 -0.72803581 0.57874
1.1637659 -0.73434198 0.57893443
1.1628244 -0.74066931 0.57912946
1.1618795 -0.74701804 0.5793252
1.1609316 -0.75338858 0.5795216
1.1599803 -0.75978124 0.57971871
1.1590257 -0.76619649 0.57991648
1.1580675 -0.77263457 0.58011496
1.27791 -0.28277501 0.5565201
1.2299694 -0.27578568 0.56640452
1.2259054 -0.28054032 0.56724238
1.2250694 -0.28618219 0.56741476
1.2242328 -0.29183003 0.56758726
1.223395 -0.29748401 0.56775999
1.2225565 -0.3031444 0.5679329
1.2217168 -0.3088114 0.568106
1.2208761 -0.31448522 0.56827933
1.2200346 -0.32016614 0.56845284
1.2191917 -0.32585433 0.56862664
1.2183479 -0.33155006 0.56880063
1.2175028 -0.33725357 0.56897485
1.2166567 -0.3429651 0.56914932
1.2158091 -0.34868485 0.56932408
1.2149605 -0.35441309 0.56949908
1.2141105 -0.36015001 0.56967431
1.2132592 -0.36589593 0.56984979
1.2124065 -0.37165102 0.57002562
1.2115524 -0.37741554 0.57020169
1.2106969 -0.38318968 0.57037807
1.2098399 -0.38897383 0.57055479
1.2089815 -0.39476812 0.57073182
1.2081215 -0.40057284 0.57090908
1.2072599 -0.40638825 0.57108676
1.2063967 -0.41221455 0.57126474
1.2055318 -0.41805199 0.57144302
1.2046652 -0.4239009 0.57162172
1.203797 -0.42976153 0.57180071
1.202927 -0.43563402 0.57198012
1.202055 -0.44151875 0.57215989
1.2011813 -0.44741598 0.57234001
1.2003057 -0.4533259 0.57252055
1.1994281 -0.45924887 0.57270151
1.1985486 -0.46518514 0.57288283
1.1976671 -0.47113487 0.57306463
1.1967835 -0.47709849 0.57324678
1.1958978 -0.48307618 0.57342935
1.1950101 -0.48906821 0.57361245
1.1941202 -0.49507493 0.57379591
1.193228 -0.50109661 0.57397985
1.1923336 -0.50713348 0.57416427
1.1914369 -0.51318592 0.57434916
1.1905378 -0.51925415 0.57453454
1.1896363 -0.52533841 0.57472038
1.1887325 -0.53143919 0.57490671
1.1878262 -0.53755659 0.57509363
1.1869172 -0.54369098 0.57528102
1.1860058 -0.54984272 0.5754689
1.1850919 -0.55601203 0.57565737
1.184175 -0.56219929 0.57584637
1.1832556 -0.56840473 0.57603598
1.1823335 -0.57462883 0.57622612
1.1814086 -0.58087182 0.57641679
1.1804807 -0.58713394 0.57660806
1.1795501 -0.59341568 0.57679999
1.1786164 -0.5997172 0.57699245
1.1776798 -0.60603899 0.57718557
1.1767402 -0.61238134 0.57737935
1.1757973 -0.61874455 0.57757372
1.1748514 -0.62512898 0.57776874
1.1739024 -0.63153505 0.57796443
1.17295 -0.63796306 0.57816076
1.1719942 -0.64441335 0.57835782
1.1710353 -0.6508863 0.57855552
1.1700728 -0.65738231 0.57875401
1.169107 -0.66390169 0.57895315
1.1681376 -0.67044491 0.579153
1.1671644 -0.67701221 0.57935363
1.1661878 -0.68360406 0.57955498
1.1652075 -0.69022095 0.57975709
1.1642234 -0.69686311 0.57996005
1.1632355 -0.70353103 0.58016372
1.1622437 -0.71022511 0.58036822
1.161248 -0.71694571 0.5805735
1.1602482 -0.72369331 0.58077961
1.1592444 -0.73046827 0.58098662
1.1582366 -0.73727107 0.5811944
1.1572244 -0.74410218 0.58140308
1.156208 -0.7509619 0.58161265
1.1551875 -0.75785077 0.58182305
1.1541625 -0.76476932 0.58203441
1.1531329 -0.77171779 0.58224666
1.1571056 -0.77156729 0.5842343
1.1580615 -0.76513797 0.58403957
1.159014 -0.75873148 0.5838455
1.159963 -0.75234753 0.58365214
1.1609087 -0.74598569 0.5834595
1.1618513 -0.73964566 0.58326745
1.1627908 -0.73332709 0.58307606
1.1637269 -0.72702956 0.58288532
1.1646601 -0.72075278 0.58269525
1.1655902 -0.71449643 0.58250576
1.1665174 -0.70826012 0.58231688
1.1674415 -0.70204359 0.58212858
1.1683629 -0.69584644 0.58194089
1.1692812 -0.6896683 0.58175379
1.170197 -0.68350899 0.58156723
1.1711099 -0.6773681 0.5813812
1.1720202 -0.67124534 0.58119577
1.1729277 -0.66514033 0.58101088
1.1738328 -0.65905285 0.58082652
1.1747353 -0.65298259 0.58064264
1.1756351 -0.6469292 0.5804593
1.1765326 -0.64089239 0.58027649
1.1774278 -0.6348719 0.5800941
1.1783204 -0.62886733 0.57991225
1.1792107 -0.62287855 0.57973087
1.1800988 -0.61690515 0.57954997
1.1809846 -0.61094689 0.57936949
1.1818681 -0.60500342 0.57918948
1.1827496 -0.5990746 0.57900989
1.1836289 -0.59316003 0.57883078
1.1845061 -0.58725947 0.57865208
1.1853812 -0.58137262 0.57847381
1.1862545 -0.57549924 0.57829589
1.1871257 -0.56963909 0.57811838
1.187995 -0.56379181 0.5779413
1.1888623 -0.55795723 0.57776457
1.1897279 -0.55213499 0.57758826
1.1905917 -0.54632497 0.57741225
1.1914537 -0.54052681 0.57723665
1.1923139 -0.53474021 0.57706141
1.1931726 -0.528965 0.57688648
1.1940295 -0.52320093 0.57671189
1.1948848 -0.51744777 0.57653761
1.1957384 -0.5117051 0.57636374
1.1965908 -0.50597292 0.57619011
1.1974413 -0.50025076 0.57601678
1.1982907 -0.49453855 0.57584375
1.1991385 -0.48883593 0.57567108
1.1999848 -0.4831427 0.57549864
1.2008297 -0.47745863 0.5753265
1.2016735 -0.47178346 0.5751546
1.2025161 -0.46611699 0.57498294
1.2033571 -0.4604589 0.57481164
1.204197 -0.4548091 0.57464051
1.2050357 -0.44916719 0.57446963
1.2058734 -0.44353306 0.57429898
1.2067099 -0.43790644 0.57412857
1.2075454 -0.43228713 0.57395834
1.2083797 -0.42667481 0.57378834
1.209213 -0.42106932 0.57361859
1.2100453 -0.41547048 0.57344902
1.2108768 -0.40987802 0.57327962
1.2117074 -0.40429169 0.57311046
1.2125369 -0.39871126 0.57294142
1.2133658 -0.39313656 0.57277256
1.2141936 -0.38756734 0.57260388
1.2150208 -0.38200337 0.57243538
1.2158473 -0.37644449 0.572267
1.2166729 -0.37089038 0.57209879
1.2174979 -0.36534092 0.57193071
1.2183223 -0.35979584 0.5717628
1.2191461 -0.35425493 0.57159495
1.2199692 -0.34871799 0.57142729
1.2207918 -0.3431848 0.57125968
1.221614 -0.33765516 0.57109219
1.2224355 -0.33212879 0.57092482
1.2232567 -0.32660556 0.57075751
1.2240772 -0.32108516 0.57059032
1.2248976 -0.31556749 0.57042319
1.2257177 -0.31005228 0.57025617
1.2265371 -0.30453929 0.57008922
1.2273564 -0.29902837 0.56992227
1.2281755 -0.29351926 0.56975543
1.2289943 -0.28801179 0.5695886
1.2298129 -0.28250569 0.56942183
1.2306312 -0.27700084 0.56925511
1.1492848 -0.7711305 0.56806207
1.1503102 -0.76418632 0.5678373
1.1513311 -0.75727218 0.56761354
1.1523477 -0.75038767 0.56739068
1.1533598 -0.74353218 0.56716883
1.1543678 -0.73670548 0.56694782
1.1553718 -0.72990698 0.56672776
1.1563714 -0.72313631 0.56650859
1.1573671 -0.71639299 0.56629038
1.1583587 -0.70967662 0.566073
1.1593465 -0.70298684 0.56585646
1.1603304 -0.69632316 0.56564075
1.1613106 -0.68968523 0.56542593
1.162287 -0.68307263 0.56521183
1.1632596 -0.67648494 0.56499863
